# .PCD v0.7 - Point Cloud Data file format
VERSION 0.7
FIELDS x y z rgba
SIZE 4 4 4 4
TYPE F F F U
COUNT 1 1 1 1
WIDTH 1122
HEIGHT 1
VIEWPOINT 0 0 0 1 0 0 0
POINTS 1122
DATA ascii
1.9002273 0.34795719 -0.0088987947 10059834
1.9019034 0.34931612 -0.008194983 9469246
1.883199 0.33671522 -0.0067038536 9864020
1.8849275 0.33834106 -0.0077126622 10192994
1.8872786 0.34016991 -0.0081603527 10126678
1.8896703 0.34222728 -0.0087180734 10455123
1.891826 0.3437767 -0.0088509917 10520917
1.8938798 0.34560359 -0.0091076493 9995087
1.8970466 0.34792566 -0.0096747279 10257726
1.8985202 0.34941107 -0.0092818141 10191162
1.8834543 0.33986521 -0.0091120005 10323796
1.8854067 0.34189314 -0.0091045499 10389073
1.8875387 0.34363228 -0.0094010234 10389057
1.8895024 0.34528142 -0.0091428161 10914897
1.8847961 0.34378672 -0.010086954 10782259
1.9947991 0.3885932 -0.0048584342 9534797
1.9940155 0.39088452 -0.0060690045 9534797
1.9951861 0.39321238 -0.0063861609 9732178
1.9939051 0.39437294 -0.0074980855 9469528
1.9926503 0.3954758 -0.0086873174 8745553
1.8900105 0.33242911 0.0012546182 8813676
1.8915086 0.33382833 0.0017142296 8616300
1.8929279 0.33553261 0.0018528104 8484718
1.8802818 0.32782203 0.0015555024 8747363
1.8828542 0.32989985 0.00099343061 8681061
1.8852208 0.33172882 0.0013751388 8812901
1.8871243 0.33384919 0.001265347 8813166
1.8893917 0.33547062 0.0018690228 8550517
1.90344 0.34632033 -0.0042990446 5918501
1.9041895 0.34850782 -0.0048692822 5655054
1.8814392 0.33128291 0.0014557242 8681316
1.8840635 0.33335882 0.0010700822 8747884
1.8882942 0.33749592 -0.00167799 10588785
1.8900864 0.33816999 -0.00089770555 10522995
1.8998547 0.34720361 -0.0061334968 9996388
1.9012976 0.34805793 -0.0061448216 7956790
1.9030635 0.34948981 -0.0061442256 6048265
1.8818767 0.334683 -0.0027396083 10391658
1.8841151 0.33629584 -0.0032593608 10456944
1.885941 0.33802354 -0.0026767254 10457200
1.8910985 0.34245199 -0.0061077476 9535570
1.8972211 0.34750348 -0.0064079165 10193255
1.8996015 0.34984601 -0.0069811344 9271871
1.9014139 0.35129231 -0.0075959563 8153637
1.904699 0.35409606 -0.0073432326 5459485
1.8821239 0.33842605 -0.0038068891 10193767
1.884627 0.34018952 -0.0056034923 9863766
1.8868096 0.34162557 -0.0057066083 9797969
1.8891749 0.34345818 -0.006528914 9732431
1.8910851 0.34566724 -0.0078262687 9929555
1.8932395 0.34746051 -0.0080673099 10389328
1.8954544 0.34927744 -0.008030951 10126419
1.8979836 0.3506 -0.0091044903 10191420
1.8994648 0.3530376 -0.0088573098 9599545
1.9018693 0.35457593 -0.0084026456 6444047
1.8825216 0.34181625 -0.0073386431 9864279
1.8848031 0.34378082 -0.0077870488 9798492
1.8871883 0.34538817 -0.0083159804 10126940
1.8894658 0.34711391 -0.0088440776 10323539
1.8913198 0.34914464 -0.0086465478 10323530
1.8936205 0.3507368 -0.0089744925 10191171
1.8966937 0.35277963 -0.0099147558 10059582
1.8979985 0.35387886 -0.0097720027 9796664
1.8827766 0.34491396 -0.008901298 10257749
1.8852432 0.34686416 -0.0093225241 10454864
1.8874801 0.34894091 -0.0097187161 10389063
1.8895848 0.35066903 -0.009968698 10256966
1.8835448 0.34846431 -0.010657728 10716737
1.9935966 0.39682317 -0.0070469975 8942931
1.9956682 0.39874518 -0.0070996881 9469277
1.9917572 0.39776844 -0.0071704984 8483155
1.8915192 0.33633411 0.0029767752 8615022
1.892935 0.33636928 0.0029111505 8615022
1.8938603 0.33861905 0.0024400353 8353136
1.8866239 0.33537364 0.0019122958 8747126
1.8881888 0.33841503 0.0024882555 8550766
1.8910122 0.338247 0.0021013618 8418671
1.8822758 0.33503819 0.0020466447 8681060
1.8848341 0.33669722 0.0019223094 8681576
1.8870114 0.33772641 0.0016743541 8550509
1.8882688 0.33932853 -0.00063413382 10391668
1.8825855 0.33743697 0.0014566183 8682352
1.8860359 0.34000695 -0.0015112758 10589547
1.8991816 0.35100639 -0.0055915713 7365934
1.9012182 0.35307872 -0.0062983036 6903830
1.9031267 0.35487413 -0.0073264241 5392923
1.883826 0.34166312 -0.0035045743 10457964
1.885339 0.34307885 -0.004186511 10259037
1.8878851 0.34543067 -0.0045098662 10126673
1.8908637 0.34758484 -0.0062231421 9471069
1.8953347 0.35160023 -0.0066661835 10258279
1.8968152 0.35297173 -0.0066018701 9008722
1.8996089 0.35491782 -0.008202672 8810808
1.9012256 0.35637087 -0.0076659322 6510123
1.8822058 0.34378779 -0.0047107935 10192988
1.8838584 0.34546429 -0.0051665902 9996127
1.8859942 0.3466447 -0.0061275363 9929307
1.8883655 0.34891337 -0.0066255331 9535841
1.890631 0.351147 -0.0080989003 10324053
1.8928664 0.35259879 -0.0077599287 10192469
1.8954113 0.35445523 -0.0080091953 9731655
1.8970295 0.35611057 -0.0085099339 10125630
1.8998106 0.35813135 -0.0094721913 9272131
1.8842263 0.34872568 -0.0077289343 10127466
1.8867562 0.3504706 -0.0085322857 10126680
1.8887811 0.35240215 -0.0086339116 10258261
1.8910705 0.35418922 -0.0089325309 10191946
1.8936042 0.35687476 -0.0093860626 10125892
1.8949628 0.35733694 -0.0091872811 9994548
1.8850259 0.35195476 -0.0096104741 10388810
1.8872342 0.3540262 -0.0096728206 10388550
1.8890206 0.35538661 -0.0097580552 10454333
1.8837512 0.35349524 -0.01022321 9928520
1.9910256 0.39983398 -0.0059038401 9273174
1.9934498 0.40132135 -0.0061368346 8943712
1.9955597 0.40280271 -0.0065581203 8812127
1.8838649 0.338763 0.0024911165 8813673
1.8857453 0.33980685 0.0021699071 8549991
1.8823552 0.33957136 0.0025821328 8747625
1.884455 0.34220397 0.0019398332 8616037
1.8851364 0.3439858 0.0019324422 8418662
1.901684 0.35729349 -0.0032503009 7761217
1.887857 0.34717214 -0.0030420423 9995090
1.8888924 0.34962058 -0.0027828813 9864020
1.8899627 0.35207486 -0.0023866892 9864785
1.897176 0.35543096 -0.0055791736 7563064
1.8980443 0.35644871 -0.0065690875 7759406
1.9003429 0.35871631 -0.0053249002 5458469
1.8826833 0.34683019 -0.0028944612 10259561
1.8858211 0.34877276 -0.0030336976 10061136
1.8877319 0.35080111 -0.0034151673 9864020
1.8945882 0.35626632 -0.0064052939 9535576
1.8962853 0.3581385 -0.0067799091 8285503
1.8986914 0.36023855 -0.0068667531 6115848
1.8841264 0.35007304 -0.0044122338 10126928
1.8853531 0.35202044 -0.0066494346 9535575
1.8880414 0.35404575 -0.0076944828 10061920
1.8904848 0.35571665 -0.0081453919 10324056
1.8929218 0.35792232 -0.0080778003 9995091
1.8947248 0.35971254 -0.0083262324 9599815
1.8962356 0.36151028 -0.0086281896 9205575
1.8838885 0.35390526 -0.0083044171 10192724
1.8859851 0.35577142 -0.0085567832 10126934
1.8883886 0.35727268 -0.0088886023 10192455
1.8907411 0.35937488 -0.0094266534 10060363
1.8928199 0.36141813 -0.009706378 10125890
1.8952594 0.36327869 -0.0096337199 9731650
1.8844798 0.35727775 -0.009137094 10323786
1.8869638 0.3594709 -0.0092961192 10192194
1.8891289 0.36077893 -0.0099048018 10125897
1.9918025 0.40301943 -0.0055734515 9668961
1.9943192 0.40457213 -0.005759418 7496779
1.9930075 0.40535289 -0.0057535172 7300951
1.9960177 0.40841049 -0.0072929263 7167570
1.9958507 0.41157717 -0.0075270534 5920863
1.99526 0.41064382 -0.0085806251 6379889
1.8837696 0.34407103 0.002053678 8484192
1.8861253 0.34647071 0.0014355779 8352880
1.9017544 0.3584829 -0.00094538927 8484169
1.8840362 0.34688538 0.0016155839 8616040
1.8866246 0.3492403 0.0012934804 8417900
1.9004843 0.35993618 -0.0031484962 6774320
1.8829159 0.34897077 0.001191318 8680808
1.8845263 0.35082495 -0.0031571984 10192719
1.8867371 0.35235184 -0.003557086 10061394
1.8889825 0.35388464 -0.0038199425 9864785
1.8935664 0.35858655 -0.0027579665 7168592
1.8954821 0.36031961 -0.0053784251 8023888
1.8972459 0.36255449 -0.005597651 5260869
1.8858321 0.35422409 -0.0050118566 10061394
1.8871548 0.35536623 -0.0045158267 9995602
1.8928992 0.35957628 -0.0066441894 10259043
1.8941544 0.36155397 -0.0065181851 9864546
1.8962193 0.36352569 -0.0071161389 7563057
1.885576 0.35786682 -0.0065044761 9930594
1.8868296 0.35941887 -0.0071545243 10457196
1.8901999 0.36139923 -0.0082805753 10521960
1.8923082 0.36301011 -0.0080523491 10061145
1.8943803 0.36483777 -0.0085610151 9272140
1.8963413 0.36670333 -0.0086346269 8417862
1.8854723 0.36089307 -0.0084578395 10192468
1.8880627 0.36270583 -0.0093587041 10126145
1.8905244 0.36454672 -0.0094271302 10191944
1.8924496 0.36647183 -0.0095509887 10126406
1.8861183 0.36429173 -0.0095201135 10060099
1.8885033 0.36569911 -0.0093659759 10191680
1.9023134 0.35893136 0.0020819902 7366983
1.9010546 0.36002845 0.0008636117 8024655
1.8856316 0.35110486 0.002147615 8418648
1.8875982 0.35168034 0.0021645427 8352602
1.8995564 0.36179966 -0.0013316274 7825723
1.8837459 0.35138851 0.0013392568 8878956
1.8851602 0.35417116 0.0017995238 8549985
1.8940231 0.35912973 -0.0019100308 4801057
1.8966725 0.36357498 -0.0037075877 6380082
1.9076562 0.37169027 -0.003629148 4802891
1.8951737 0.36478519 -0.0038547516 5590814
1.8916095 0.3648712 -0.0067199469 10456675
1.8938717 0.36633468 -0.0066010356 8286548
1.8957486 0.36834979 -0.008323431 9272921
1.8970795 0.37073809 -0.0077893138 7037259
1.8853135 0.36311013 -0.0067059994 9930595
1.8872368 0.36431825 -0.0073305964 10587225
1.8897258 0.36655825 -0.0078889728 10455909
1.8919681 0.36806703 -0.0078495741 9797983
1.8942605 0.37019068 -0.0087307096 10193509
1.8958209 0.3724696 -0.008751452 9207391
1.8857573 0.36611843 -0.008677423 10191953
1.8880905 0.36786729 -0.0089797378 10257742
1.8897973 0.36975545 -0.0093533993 10323269
1.8932498 0.3724063 -0.0095947385 10456154
1.8945267 0.37339157 -0.0094820857 10127702
1.8862503 0.36937463 -0.0099112391 9928261
1.8981781 0.36030453 0.0040566325 7696204
1.9003283 0.36056429 0.0040706992 5527092
1.883996 0.35188091 0.0036459565 8813934
1.8980486 0.36141026 0.0022742152 8418900
1.9076831 0.37241757 -0.0023524165 4671554
1.9062047 0.37216043 -0.0029186606 4605527
1.8849511 0.3603074 3.1173229e-05 10195338
1.8944635 0.36600977 -0.0034345984 5261312
1.9069896 0.37622255 -0.005836904 4737113
1.8940747 0.367181 -0.0041876435 4866358
1.894002 0.36899155 -0.0057031512 6511183
1.8978884 0.37276381 -0.0064464211 5327412
1.8988082 0.37479198 -0.0064935684 4801065
1.8915665 0.36998093 -0.0068827271 9404000
1.8927758 0.37097228 -0.0065707564 8483935
1.8962116 0.37371713 -0.0078604817 7760974
1.8974488 0.37594193 -0.0073519349 6050875
1.886925 0.36982864 -0.0079503655 10258787
1.8891914 0.37130243 -0.0080667138 10455644
1.8918091 0.37319189 -0.0090367198 10061408
1.8938315 0.37526608 -0.0091355443 9798237
1.8956344 0.37734413 -0.0087191463 8878422
1.8972919 0.37898362 -0.0084736347 5656838
1.8872484 0.37291944 -0.0090170503 10323793
1.8893487 0.37511176 -0.0096567273 10126159
1.8918271 0.37672502 -0.0096222758 9994837
1.8939793 0.37804818 -0.0092803836 10059844
1.8875303 0.37623745 -0.010101616 10257224
1.8898931 0.37777096 -0.010649502 10060108
1.9989855 0.42743075 -0.0068508983 10389590
1.8986853 0.36126763 0.0073495507 4868402
1.8971965 0.36198491 0.0062917471 6907209
1.8961216 0.36405873 0.0052039027 7695192
1.9029019 0.37297726 0.00046885014 4802908
1.884967 0.36133832 0.0019184351 10195582
1.8859174 0.36377895 0.0020899177 10064511
1.884872 0.36480361 0.0018728375 10195580
1.8970574 0.3776651 -0.0073024035 5984303
1.8989692 0.38078225 -0.0057587028 6114612
1.8859453 0.37088013 -0.0034993291 10524017
1.895849 0.37944752 -0.0076474547 7431747
1.8972297 0.38085121 -0.0069919229 6247480
1.899199 0.38365424 -0.0084884763 5589798
1.8869107 0.37481123 -0.0074360967 10127464
1.888823 0.37667501 -0.0081462264 9929824
1.8912569 0.37884843 -0.0087211728 10126935
1.8935132 0.38041127 -0.0087350011 9666904
1.8952341 0.38212371 -0.0085716844 9535564
1.8978176 0.38388669 -0.0082235932 5720600
1.887239 0.37843996 -0.0094667077 10060104
1.8895098 0.38025552 -0.0095954537 9863242
1.8919685 0.38208407 -0.009560883 9995340
1.893213 0.38362974 -0.0097185373 10060613
1.8875077 0.38088578 -0.010493815 9600588
1.9947147 0.42436343 -0.0046291947 9863517
1.9970896 0.4255929 -0.004620254 10718035
1.9996517 0.42790246 -0.0059432387 10718805
1.9907568 0.42560387 -0.0046333671 8745806
1.9931686 0.4254142 -0.0047761202 9205846
1.9946023 0.42783034 -0.0053514838 9534803
1.9982085 0.42930114 -0.0063492656 10060881
1.9855723 0.42322272 -0.0054792762 8417098
1.9881476 0.42570633 -0.0055503845 8811612
1.9901968 0.42767656 -0.0059277415 9074518
1.9962666 0.4311347 -0.0065383315 9469262
1.9821854 0.42244357 -0.0063248873 8219471
1.9845018 0.42459947 -0.0067406297 8482380
1.9736807 0.4203164 -0.0061783195 7561807
1.9780185 0.42139751 -0.0069488287 8021063
1.9816041 0.42499876 -0.0067580342 8285264
1.8973103 0.36374283 0.0073990226 5394225
1.8973691 0.36500078 0.0066027641 4935746
1.8964642 0.36568087 0.0061091781 6973792
1.9009709 0.37271237 0.0020234585 5000287
1.9017491 0.37340206 0.0032587647 4934494
1.885007 0.36691618 0.0014966726 10129533
1.8869275 0.36787724 0.0012295842 9735550
1.8883598 0.37001085 0.0017303228 9342090
1.8877156 0.37168258 0.00083851814 9866892
1.8872218 0.37534386 -0.0027511716 10458225
1.8888032 0.37641293 -0.0028036237 9668215
1.8966397 0.38234603 -0.0064593554 6049840
1.8867879 0.37695944 -0.0045449138 10063214
1.8879054 0.37790394 -0.0048769116 9734251
1.892941 0.38209665 -0.0077505708 9798757
1.8947232 0.38372582 -0.0073841214 9140829
1.896998 0.38588601 -0.0079119802 8023107
1.8989621 0.38791329 -0.0082390904 5984533
1.8888335 0.382061 -0.0086475015 10126170
1.8910125 0.38377118 -0.0087047219 9995351
1.8927429 0.3856622 -0.0086257458 9864021
1.895144 0.38763744 -0.0089678168 9797460
1.8973812 0.38902396 -0.0087993145 8482128
1.8889627 0.38546425 -0.0094863772 9995084
1.8913164 0.38737255 -0.0099345446 9994827
1.8928344 0.38935506 -0.010868013 10059571
1.9918053 0.42723745 -0.004599452 9469530
1.9968574 0.43154407 -0.0056091547 9994838
1.9908996 0.42821908 -0.0053849816 9205847
1.9926243 0.43085086 -0.0058295131 9140557
1.9778662 0.42177069 -0.0054664016 7891009
1.9784831 0.42212206 -0.0046144128 7825229
1.9845116 0.42690569 -0.0059440732 8745544
1.9866786 0.42933947 -0.0064248443 9075025
1.9883134 0.43090165 -0.0061777234 9140314
1.9908147 0.432468 -0.005757153 9074767
1.9743469 0.42078805 -0.0052706599 7758416
1.9752998 0.42252755 -0.0053811669 7758403
1.9776864 0.42430806 -0.0053613186 8088646
1.9811335 0.42658031 -0.0070695877 8153422
1.9830878 0.42794031 -0.0076898336 8350540
1.9839876 0.4299137 -0.0069574714 8679759
1.9864914 0.43195373 -0.0067041516 9074512
1.9717991 0.42242175 -0.006065309 7496011
1.9735408 0.42404014 -0.0057854056 7561034
1.9759841 0.4267745 -0.0063663125 7824962
1.9809198 0.42963916 -0.0068497062 8548427
1.9691045 0.42342573 -0.0061768889 7299139
1.898998 0.36904991 0.0091644526 4998728
1.8966722 0.37057328 0.0091759562 4736569
1.8978221 0.36984062 0.0092087388 4998728
1.8996372 0.37461066 0.0051996112 5196890
1.9000738 0.37553149 0.0049789548 5525854
1.8864484 0.37241441 0.0010905862 9866897
1.8880482 0.3744204 0.00064235926 9538704
1.8873329 0.37689567 -0.00033760071 9866619
1.8886007 0.37842762 -0.0009200573 10063737
1.890129 0.38126135 -0.0022417903 10392423
1.8869884 0.37991756 -0.0028560758 10063208
1.8897594 0.38244784 -0.0024165511 9866342
1.8948401 0.38661164 -0.0070030689 7891534
1.8972569 0.38807666 -0.0065521598 7893072
1.8987248 0.38974649 -0.0065764785 7365966
1.9005027 0.39200425 -0.0066785216 7365706
1.9035537 0.39339584 -0.0066273808 7628883
1.9053566 0.39577591 -0.0074339509 7628876
1.8897128 0.38567472 -0.007645309 9862987
1.892251 0.38753092 -0.0085058212 9797194
1.8949852 0.38910764 -0.0083728433 9403480
1.8967295 0.39139909 -0.0079997182 8877914
1.8984261 0.39343244 -0.0077036023 7957840
1.9015539 0.39577276 -0.0081194043 8024147
1.9027703 0.39608651 -0.0080733895 7628873
1.8883603 0.38659173 -0.008831501 9863249
1.8906394 0.38910818 -0.009265244 9731918
1.892699 0.39100158 -0.0092477202 9600074
1.8947113 0.39293039 -0.008782208 9600589
1.8973005 0.39492691 -0.0090095401 9929030
1.8885953 0.39038473 -0.0098565221 9665603
1.8905158 0.3925066 -0.010137618 9533755
1.8918087 0.39420837 -0.0099825859 9139761
1.984148 0.43188953 -0.0064769983 8877389
1.9733887 0.42644382 -0.0056999922 7823956
1.9762074 0.42720437 -0.0059658885 8022350
1.9773529 0.42941976 -0.0060774684 8285260
1.9806416 0.43172419 -0.0069821477 8547922
1.9817269 0.43352544 -0.0069387555 8613458
1.9645482 0.42248333 -0.0062327981 7036236
1.9659232 0.42298567 -0.0060154796 7102032
1.9689747 0.42563128 -0.0061619282 7364678
1.9715953 0.42757982 -0.0064267516 7561547
1.9726663 0.4296518 -0.0066717863 7824969
1.9754739 0.43098468 -0.0071772933 8087886
1.9775217 0.43311435 -0.0069406629 8350548
1.9628472 0.42311251 -0.0066335797 7036489
1.964612 0.42516428 -0.0066718459 7167306
1.967306 0.42737025 -0.0068352818 7233350
1.9690306 0.4291656 -0.0067591071 7692873
1.9706779 0.43022496 -0.0069980025 7889991
1.9738712 0.43233895 -0.0073772073 8022093
1.8954965 0.37136412 0.0092201829 4999741
1.9605775 0.42555422 -0.0075788498 6970433
1.9627352 0.42688739 -0.0073929429 7232839
1.8937931 0.37249792 0.0093465447 5197662
1.952902 0.42339879 -0.0080117583 9337945
1.9567127 0.42455435 -0.0078499913 6839359
1.9588223 0.42633897 -0.0080890059 7102274
1.942229 0.41666383 -0.0081155896 9929304
1.9515271 0.4228965 -0.0082290769 11178860
1.930425 0.41013324 -0.0062286258 8878937
1.9321043 0.41077948 -0.0056924224 9076317
1.9375658 0.41460466 -0.0062015653 8746061
1.9289689 0.4115712 -0.0079646707 8549204
1.887334 0.38001043 0.00040978193 9603454
1.8889346 0.38240921 0.00063842535 9340538
1.9016936 0.39154989 -0.0012676716 8025465
1.9070891 0.39567828 -0.0057860017 6511457
1.9134235 0.40291721 -0.0063630939 9667423
1.9144754 0.40431428 -0.0065390468 9537136
1.9259748 0.41174889 -0.0084961057 7364166
1.8888276 0.38409275 -0.0018302798 9800043
1.8898315 0.38642055 -0.0011020303 9537398
1.9006642 0.39379019 -0.0062817931 7300419
1.9017851 0.39467472 -0.006308198 7497549
1.9053082 0.39785379 -0.0060478449 6839098
1.9066207 0.39822888 -0.0067216754 7827024
1.9092389 0.40153468 -0.0070963502 8088902
1.9115543 0.40307456 -0.0071399808 8680789
1.9125866 0.40470481 -0.0075152516 8548429
1.8920401 0.3901819 -0.0036363006 8813665
1.8959594 0.393273 -0.0074853301 9995619
1.8989701 0.39467657 -0.0074245334 8681563
1.9003994 0.39707834 -0.0075908303 8417351
1.9033326 0.39838058 -0.0076376796 7562829
1.904742 0.40051836 -0.0081675649 7563079
1.9070326 0.40239549 -0.0082266331 7233604
1.9096994 0.40424782 -0.0090129972 7035978
1.9159927 0.41110057 -0.011322439 6377243
1.8918374 0.39310151 -0.0079740882 10127202
1.8942583 0.39445561 -0.0085291266 9732691
1.8964484 0.39622736 -0.0084850192 9535053
1.8985014 0.39851427 -0.0083948374 9337157
1.9011078 0.4004361 -0.0083205104 8351298
1.9039568 0.40169901 -0.0090401769 8221269
1.9054492 0.40338755 -0.0091565847 7298622
1.9075637 0.4057408 -0.0098215938 6838338
1.8903821 0.39402306 -0.0087614059 9600333
1.8923396 0.39611697 -0.0091175437 9599817
1.8946159 0.3976832 -0.0091924071 9534018
1.8964167 0.39961189 -0.0095601082 9468217
1.8989618 0.40153241 -0.0093095899 9074239
1.8903487 0.39724517 -0.0096234679 9731136
1.8923168 0.39870924 -0.0095656514 9729854
1.9664769 0.42890459 -0.006908834 7496775
1.9689195 0.43092507 -0.0066939592 7890242
1.97089 0.43260908 -0.0071310401 7824707
1.9737039 0.43466759 -0.0075644851 8087885
1.9608142 0.42719263 -0.0070196986 7035461
1.9624945 0.42857534 -0.0071342587 7430218
1.9644806 0.43076974 -0.0068482757 7364685
1.9677444 0.43225294 -0.0071827769 7693382
1.9687948 0.43376839 -0.0072538257 7758662
1.8920293 0.37368405 0.0094130039 6972500
1.953686 0.42499119 -0.0071615577 6772781
1.9550233 0.42618257 -0.0064706206 7102533
1.9587575 0.42839944 -0.0082669854 7167810
1.9606423 0.4297998 -0.0078718066 7233095
1.9626756 0.43124437 -0.0073624849 7167819
1.9445834 0.42088413 -0.0076406598 10849091
1.9472475 0.42209959 -0.0078254938 12825993
1.9493904 0.42414331 -0.0078160167 12758919
1.9514072 0.42568839 -0.0073359609 9470034
1.9531608 0.42725909 -0.0070679784 6904901
1.957406 0.43077046 -0.0076231956 6838845
1.9322757 0.41203058 -0.0054950714 8944219
1.9339483 0.41416705 -0.0056970716 8417356
1.9362218 0.41649789 -0.0060581565 8877895
1.9383013 0.41837174 -0.0063224435 9534804
1.9409041 0.42061698 -0.0067408681 9797693
1.94365 0.42278194 -0.0073744655 10258245
1.9454734 0.42416978 -0.0076711774 11375436
1.9465356 0.42564356 -0.0077069402 11375961
1.8925202 0.38545942 0.0043542981 6444891
1.9080453 0.3968066 -8.9347363e-05 6709875
1.9197733 0.40762413 -0.0039941669 8549729
1.9300629 0.41367525 -0.0071536303 7364675
1.9322932 0.41591287 -0.0069516301 7299909
1.934293 0.41845691 -0.0073975921 7496778
1.9361954 0.41966832 -0.0072326064 8022087
1.9397407 0.42190295 -0.0071943402 8877133
1.8885643 0.38397551 0.0017980933 8351845
1.8945098 0.38974613 0.0014157295 6906457
1.8969592 0.38998383 0.00089943409 6578520
1.8991411 0.39172465 0.00024265051 7104350
1.900582 0.39362329 -6.633997e-05 7170407
1.9030838 0.39545423 -0.00042778254 7960196
1.9057645 0.39667487 -0.0016264319 7697016
1.9190228 0.40860093 -0.0058035254 8417624
1.9212296 0.41094828 -0.0057739615 7430475
1.9261413 0.41357303 -0.0080291629 6641221
1.9280744 0.41603535 -0.0081786513 6444102
1.9304197 0.41791087 -0.0081037283 6575431
1.9323902 0.4194811 -0.0080557466 6575173
1.8891747 0.3867979 -0.00044161081 9405560
1.8922917 0.38949579 -0.00039988756 8879991
1.8969932 0.39447635 -0.0013004541 7038554
1.8984926 0.39411342 -0.0012977719 7499105
1.904412 0.39855647 -0.0038446188 6445631
1.9132147 0.4060241 -0.007149756 8285256
1.9150553 0.40754712 -0.0076934695 7430731
1.9173443 0.40991247 -0.0076548457 6904390
1.9189198 0.41157252 -0.0066903234 6706762
1.9216652 0.41439474 -0.0076670051 6312250
1.9243805 0.41605401 -0.0089288354 6377788
1.9262848 0.41804993 -0.0089998841 6377790
1.8883674 0.38912034 -0.0011002421 9339763
1.8910418 0.3905955 -0.0017361045 9273717
1.8932302 0.39054704 -0.0026006699 8616297
1.896126 0.39611775 -0.0028281808 7761243
1.9045563 0.40111053 -0.006321013 6378289
1.9065473 0.40386826 -0.0068133473 6640685
1.9089373 0.40595293 -0.0076581836 7035970
1.9111905 0.40785939 -0.0084370375 7101500
1.9132421 0.40994841 -0.0081284642 6903869
1.9158909 0.41191542 -0.008646071 6443323
1.9172162 0.4130919 -0.0083553195 6641214
1.8890651 0.39311373 -0.0038235188 9733218
1.8906475 0.39470398 -0.0045009255 9404512
1.8926234 0.39567524 -0.0042641759 9011044
1.8959556 0.39928579 -0.0065640211 9469776
1.8980145 0.40015805 -0.0078838468 9601364
1.9001623 0.40175551 -0.0077964664 8482877
1.9023868 0.40347624 -0.0082077384 7693374
1.904768 0.40587574 -0.0085038543 7298879
1.9070818 0.4077965 -0.0090087056 7364683
1.9092742 0.40932745 -0.009249866 7167044
1.9107678 0.41064674 -0.008883059 6969406
1.889477 0.3959685 -0.0069754124 9601635
1.891624 0.39813972 -0.0078812242 9601104
1.893997 0.39943856 -0.0082896948 9601107
1.8962023 0.40151131 -0.0085508823 9534793
1.8983624 0.40348923 -0.0086812973 9271877
1.9008322 0.40530288 -0.0093511939 8877133
1.9029144 0.40692019 -0.0094305873 8285771
1.9051285 0.40864384 -0.009912312 7561539
1.9078732 0.41053391 -0.010339677 7232317
1.8897231 0.39926857 -0.0089631677 9534793
1.8918452 0.40133667 -0.0089295506 9467971
1.8943732 0.40295041 -0.00914222 9336642
1.8966238 0.40520042 -0.0099426508 9205577
1.8988777 0.40658051 -0.010152638 9008194
1.8901094 0.40273541 -0.0093219876 9008447
1.8931763 0.40517819 -0.01012069 9073469
1.965555 0.43417919 -0.0064559579 7759177
1.9675608 0.43528563 -0.0069329143 7759425
1.9595976 0.43196541 -0.0073478222 7299400
1.9621909 0.43388999 -0.0067290664 7496779
1.9507942 0.42828035 -0.0061742663 7496009
1.9525666 0.42901391 -0.0056334138 7167806
1.9580348 0.43368942 -0.007375896 7233856
1.9594282 0.4354161 -0.0071915984 7562571
1.9403576 0.42225432 -0.006342411 9337671
1.9444988 0.42614198 -0.0077989697 9468235
1.9470813 0.42738956 -0.0073833466 12164968
1.9490063 0.42954689 -0.0068388581 10390627
1.9568086 0.43530041 -0.0077320933 7298883
1.8884003 0.38186842 0.006048739 7038028
1.8897821 0.38426852 0.00574857 6840403
1.8926661 0.3865934 0.0053655505 6182226
1.9065421 0.39791209 0.0018972754 6907752
1.9366679 0.421435 -0.006888926 7956550
1.9380944 0.42348415 -0.0071519017 8613963
1.94045 0.42504615 -0.0072222948 8942413
1.9424577 0.42726344 -0.0078426003 8876616
1.9448111 0.42920685 -0.0077481866 9797969
1.9467044 0.43104267 -0.0074970722 11048046
1.8897249 0.38697916 0.0055056214 7366234
1.8912127 0.38678902 0.0055041909 6774353
1.893366 0.38918006 0.0050832629 6379352
1.8956211 0.39124364 0.0028259158 6051410
1.8972663 0.39317238 0.0014573336 5592898
1.9035292 0.39761066 0.0013417602 7630715
1.9050183 0.39756429 0.0012974143 7631477
1.9300925 0.41978049 -0.008475244 6575173
1.9318054 0.42108405 -0.0080657005 6509358
1.9343963 0.42306173 -0.007941246 7035961
1.9361126 0.42533821 -0.0077001452 7562054
1.9385843 0.42680246 -0.0080292821 7823943
1.9412054 0.42873007 -0.0081595778 8482629
1.8894181 0.38980967 0.0027810931 8023390
1.8916506 0.39137161 0.0019845366 7958115
1.8934791 0.39292538 0.0011063814 7893101
1.895865 0.39325213 0.0014415383 6117719
1.8982649 0.3961404 -0.00063055754 6643779
1.900629 0.39803165 -0.00075566769 5920860
1.9034241 0.40075457 -0.0011873841 6051421
1.9188493 0.41314465 -0.0067469478 6443840
1.9207137 0.41527659 -0.0076585412 6444093
1.9227511 0.41755301 -0.008507669 6509635
1.9255865 0.41959763 -0.0083853602 6378047
1.9281075 0.42069477 -0.0084912777 6311984
1.9303919 0.42297304 -0.008657515 6443816
1.9323487 0.42487514 -0.0085467696 6640686
1.9334962 0.4264335 -0.0084372759 6704683
1.8899497 0.39263833 0.00037616491 8945013
1.8922616 0.39469367 2.0861626e-06 8682358
1.8946021 0.39666873 -0.00097167492 8287345
1.8969641 0.39865452 -0.001373589 7300953
1.8993249 0.40088922 -0.0010558963 6906189
1.9008274 0.40081382 -0.0011387467 6511967
1.9078608 0.40737891 -0.0063515306 6574643
1.9125036 0.41113728 -0.0071263313 6640179
1.9141817 0.41300142 -0.0070138574 6508847
1.9171093 0.41514516 -0.0079264045 6443577
1.9187977 0.4170962 -0.0080167651 6312251
1.9216244 0.41875958 -0.0086874366 6246196
1.9240026 0.42066896 -0.0089687705 6180409
1.9259071 0.42352605 -0.0095651746 6179628
1.9279778 0.42401594 -0.0093945861 6179889
1.9295244 0.42613161 -0.0099434257 6245690
1.8885355 0.39442152 -0.00055772066 8813678
1.8911991 0.39687288 -0.002276957 9142372
1.8930006 0.39832062 -0.004419148 9470818
1.8944786 0.39988762 -0.0035417676 9207911
1.9057888 0.40707964 -0.007022202 6706494
1.9065983 0.40868628 -0.0074377656 6705979
1.908277 0.41087252 -0.0080957413 6903879
1.9107161 0.41291791 -0.0082651973 6707004
1.9123412 0.41474915 -0.0079442859 6706229
1.9154916 0.41679412 -0.0088302493 6311738
1.9174099 0.41907412 -0.0088115335 6114615
1.9195874 0.42067862 -0.009336412 6048304
1.9221354 0.42230129 -0.0099101663 6179643
1.8907225 0.39981467 -0.0044817328 9535832
1.8928888 0.40135103 -0.0048561692 9470038
1.8956083 0.40446252 -0.0069448948 9272664
1.8971831 0.4048239 -0.0075260401 8943437
1.8995798 0.4069162 -0.0080648065 8679747
1.9018583 0.40874016 -0.0086073279 8482891
1.9041286 0.41052109 -0.0086570382 7758921
1.9065328 0.41265738 -0.0088718534 7496001
1.908506 0.41459209 -0.0089232326 7232829
1.9106489 0.41600889 -0.0090128183 7100984
1.9131222 0.41741717 -0.009072423 6179898
1.8913383 0.40282351 -0.0081169009 9403468
1.8935558 0.40452915 -0.0080915093 9666650
1.8959458 0.40668839 -0.0084772706 9402959
1.8979653 0.40866166 -0.0087683201 9403476
1.900197 0.41068679 -0.0089895129 8811330
1.9024115 0.41232425 -0.0094929934 7759169
1.9047682 0.41431576 -0.0094126463 7627577
1.8895786 0.40453112 -0.0088031888 9468745
1.8919961 0.40626597 -0.0090607405 9467980
1.8938701 0.4083541 -0.0094807148 9402437
1.8961959 0.40996885 -0.0094441772 9337149
1.8979169 0.41190261 -0.0096190572 9402424
1.8905003 0.40790337 -0.0097056627 9205824
1.8921193 0.40927005 -0.010314882 9074752
1.9612031 0.43627727 -0.0058125854 7296569
1.9524164 0.43130428 -0.0048142076 7102273
1.949661 0.43115783 -0.0061292052 8614986
1.9507302 0.43258268 -0.0061647296 7430464
1.9528289 0.43465006 -0.0064125657 7233093
1.9548616 0.43715787 -0.0075195432 7430729
1.9055855 0.39917481 0.0040804744 7105379
1.9443264 0.43149686 -0.0072825551 9468245
1.9464035 0.43291909 -0.007104516 9732700
1.9487185 0.43457043 -0.0068107843 8680528
1.9507816 0.43694156 -0.0074805617 8022332
1.8932337 0.39182836 0.0048618317 6510171
1.8953607 0.39427727 0.0045180917 5984078
1.8968747 0.3940292 0.0044394135 5918808
1.8983053 0.3965497 0.0041949153 5787474
1.9035565 0.39873087 0.0032954812 7301226
1.9035835 0.39945817 0.0045722723 6906721
1.9349413 0.42669135 -0.0077531934 7168069
1.9379625 0.42859602 -0.0079466105 7430727
1.9399928 0.43093354 -0.007833302 7759421
1.9423594 0.43287265 -0.0077839494 8218941
1.9451559 0.43457526 -0.0079339147 9008700
1.9466656 0.43640196 -0.0083643794 9073459
1.9490373 0.43813431 -0.0086914301 8942134
1.8892682 0.39130878 0.0039101243 7366234
1.8911152 0.39288169 0.0034175515 7300437
1.8934526 0.39550394 0.003079474 7233880
1.8956411 0.39654851 0.0031319261 6379086
1.9026477 0.40210247 0.001152575 6117210
1.9032423 0.4044444 0.0010964274 6314584
1.9103107 0.40848619 0.00032037497 6843494
1.91382 0.41123956 -0.00082135201 8225146
1.9256272 0.42217147 -0.0073776841 6378048
1.9292762 0.42482913 -0.0080761313 6575421
1.9316058 0.42673129 -0.0081345439 6707514
1.9336466 0.42833674 -0.00807482 6838073
1.9359286 0.43069196 -0.0081294179 6969918
1.9378815 0.43234813 -0.0081339478 7035705
1.9403722 0.43356866 -0.0088177919 7165994
1.8893433 0.39404345 0.0028029084 7892059
1.891669 0.39639276 0.0024771094 8023390
1.8937931 0.39841157 0.00091141462 7958118
1.8957901 0.40077388 0.00058209896 7300183
1.8983384 0.40140313 -0.00022083521 7300437
1.9005945 0.40391254 0.00017893314 6840414
1.9185858 0.41887063 -0.0071495175 6444100
1.9205971 0.42094183 -0.0078316927 6180666
1.9222784 0.4228515 -0.0071107745 6312768
1.9250114 0.42460233 -0.0073956847 6312510
1.9275558 0.42678857 -0.0084629059 6312254
1.9298469 0.42819852 -0.0087763667 6443577
1.9320757 0.43000907 -0.008810699 6509083
1.9338665 0.43143576 -0.0084440708 6575428
1.8894497 0.39762646 0.00019347668 8813675
1.891697 0.399306 1.5318394e-05 8945770
1.894098 0.40178752 0.00025814772 8419680
1.8972087 0.40378195 -5.8829784e-05 7434084
1.9120629 0.41674173 -0.0077566504 6838078
1.9140403 0.41820675 -0.008022368 6575165
1.9169097 0.42035556 -0.0079261661 6378045
1.9189022 0.42226338 -0.0083982348 6114612
1.9208499 0.42391634 -0.0087836981 5982766
1.9234519 0.42567652 -0.0093826652 6048308
1.9258976 0.42733121 -0.0097616911 6179125
1.928234 0.43004161 -0.010436356 6310182
1.9298143 0.4310267 -0.0093783736 6377505
1.8903253 0.40174425 -0.0030600429 9405254
1.8925321 0.4032355 -0.0030196309 9734486
1.8946279 0.40544647 -0.0042577982 9142630
1.8957987 0.40724349 -0.0037869811 8879728
1.8990932 0.40937543 -0.0060895085 8088903
1.905637 0.41445094 -0.0081444383 7825484
1.9075373 0.41627246 -0.0080769658 7101246
1.9103683 0.41786218 -0.0084670186 6903868
1.9122474 0.41984653 -0.008603096 6640702
1.9147253 0.42179304 -0.0089120269 6377530
1.917521 0.42423326 -0.0094251037 6114100
1.9191927 0.42556882 -0.0094746947 6114351
1.9216521 0.42764384 -0.010634542 6113848
1.9233981 0.42867833 -0.0097844005 6179376
1.8901179 0.40471977 -0.0049232841 9470038
1.892661 0.40768504 -0.0055699944 9207904
1.8944649 0.40780717 -0.0067035556 9601626
1.8969226 0.41016608 -0.0070667863 8878423
1.898767 0.41213143 -0.0074759126 8877907
1.9019434 0.41381776 -0.0085657835 8679752
1.9038881 0.41619223 -0.0086909533 8022344
1.9063439 0.41756523 -0.0086821914 7561789
1.9088006 0.41983366 -0.0087490082 7232830
1.9112647 0.42181301 -0.0088589191 7430217
1.9125347 0.42325938 -0.0099918246 6508852
1.9147071 0.42456764 -0.0097648501 6179645
1.8910236 0.40789586 -0.0076478124 9601106
1.8932927 0.41031879 -0.007984519 9732186
1.8953123 0.41161287 -0.0087159872 9600591
1.8976147 0.41385877 -0.009109199 9337161
1.8998766 0.41571629 -0.0093200207 9139780
1.9018621 0.41734779 -0.0095653534 8219718
1.9041526 0.41981119 -0.0097609758 8612924
1.8914034 0.41176176 -0.0093069673 9402440
1.8932734 0.41343951 -0.0095944405 9205060
1.8957263 0.41492081 -0.0096057057 9468225
1.8990768 0.41769743 -0.010148942 8942931
1.8916404 0.41525471 -0.010440469 8875832
1.9043486 0.40017676 0.0058462024 6316124
1.9478898 0.43676168 -0.0064492822 8548680
1.897024 0.39782155 0.0052675605 5523789
1.8985119 0.39763141 0.0052660704 5589839
1.8999081 0.40014648 0.004884541 5458509
1.9061533 0.40366513 0.0038990378 5855306
1.9139568 0.41203493 0.0005710125 7895665
1.9162958 0.41481769 0.0014737248 7368305
1.9439974 0.43579686 -0.0072202086 8745294
1.9457591 0.43766707 -0.0070086718 9601109
1.8944427 0.39840496 0.004214406 6905423
1.8968003 0.40028334 0.0047665238 6115666
1.8990057 0.40294766 0.0047408938 5786704
1.9013388 0.40266699 0.0046400428 5458509
1.9040077 0.40516311 0.0023704171 5788236
1.9064178 0.40719742 0.0020455122 5657921
1.9082177 0.41024321 0.001358211 5657673
1.9111202 0.41061682 2.9146671e-05 6646116
1.9128175 0.41311264 0.0004119277 7631731
1.9147928 0.41450036 0.00087964535 7302770
1.9378097 0.43397719 -0.0079835057 7233090
1.939865 0.43553072 -0.0075601935 7298368
1.9418086 0.43745106 -0.0077100992 7495220
1.8885932 0.39628798 0.0034373999 7826522
1.8909633 0.39837271 0.0036313534 7497557
1.8929354 0.39954668 0.0033425093 7300444
1.8946166 0.40196973 0.0027592778 7300186
1.8971407 0.4038316 0.0025101304 6840138
1.8998607 0.40497768 0.0013654828 6905696
1.9021842 0.40589076 0.0015950203 6643298
1.9046834 0.40974629 0.00035196543 5985628
1.9063118 0.41216511 0.00073689222 5788002
1.9078894 0.41215205 0.0006325841 5788754
1.9109814 0.41426194 0.00035208464 5262665
1.9245977 0.42541915 -0.0066685081 6443840
1.9288778 0.43020672 -0.0076790452 6311990
1.9309251 0.43183786 -0.0076357722 6443568
1.9335589 0.43376154 -0.0081860423 6706487
1.9356861 0.43552405 -0.008361876 6838330
1.9375319 0.43705356 -0.0081686378 6968882
1.9403443 0.43892342 -0.0095052123 6968115
1.8912501 0.40165907 0.001840651 8287329
1.8930358 0.4035328 0.001845181 8155742
1.8957629 0.40552592 0.00025743246 7828069
1.8977247 0.4066788 0.00022751093 7564136
1.8995464 0.40892935 -9.2089176e-05 7038060
1.9024358 0.40945202 -0.00022000074 6642799
1.9036946 0.41326725 -0.001496017 7495987
1.9166855 0.42267323 -0.0074116588 6378304
1.9179592 0.4238289 -0.0068126321 6312505
1.9205589 0.4256357 -0.0070319772 6246967
1.9226391 0.42767799 -0.0079714656 6180406
1.924817 0.42940432 -0.0082191229 6180411
1.9271053 0.43129504 -0.0085183978 6311728
1.9293523 0.43355656 -0.0088048577 6443568
1.9320111 0.43517369 -0.0091089606 6508080
1.889338 0.4021399 0.00084477663 9010537
1.8913581 0.40456003 -0.0019761324 9734733
1.8929404 0.4064256 -0.0021953583 9208662
1.8960369 0.40804321 -0.0024932027 8944492
1.8977017 0.41213757 -0.0029342771 8878692
1.9004297 0.41272825 -0.0051769614 8219977
1.9076585 0.41803229 -0.0068480372 6575673
1.9086919 0.42046171 -0.0061861873 6443574
1.9113126 0.42165375 -0.0075997114 6706494
1.914306 0.42338747 -0.0079980493 6575169
1.9163816 0.42548853 -0.0080878139 6378302
1.9185823 0.42746043 -0.0081186891 6180670
1.9207759 0.42922515 -0.0086575747 6048057
1.9227774 0.43088156 -0.0092810988 6244660
1.9246252 0.43240398 -0.0091029406 6310968
1.9271917 0.43417299 -0.0096508265 6179370
1.8899409 0.40635473 -0.0020340085 9733981
1.8922663 0.40877831 -0.0023779273 9602908
1.89481 0.41081673 -0.0040864348 9339989
1.896539 0.41180801 -0.0037714839 9010517
1.8980731 0.41322386 -0.0056992173 8944712
1.9009758 0.41568422 -0.004924953 8088641
1.9029505 0.41827559 -0.0077171922 8878682
1.905944 0.41925246 -0.0079081655 7299138
1.9077162 0.42155808 -0.0080462098 7101245
1.9098969 0.4232673 -0.0083740354 7364418
1.9124665 0.42518979 -0.0085983872 6903872
1.9142866 0.42675585 -0.0090715289 6508592
1.9167058 0.42826223 -0.0095333457 6245422
1.9195945 0.43073815 -0.01031363 6375979
1.9208701 0.43256372 -0.0096732974 6375474
1.890263 0.40996218 -0.0061064363 9470044
1.89221 0.41214937 -0.0061143637 9601372
1.8946431 0.41310734 -0.0065394044 9535836
1.8970115 0.41574103 -0.0073031783 9338196
1.8991979 0.4179306 -0.0084255338 9074763
1.9014478 0.41910839 -0.008741796 9008718
1.9037199 0.42103767 -0.0086880326 8153668
1.9060178 0.42311251 -0.0088438392 7627577
1.9080648 0.42504615 -0.0090354085 7891012
1.9100168 0.42634594 -0.0098381042 7298626
1.9127272 0.42879987 -0.0099882483 6640167
1.8929102 0.41510171 -0.0084248185 9666388
1.8951963 0.41709018 -0.0087863207 9535056
1.8974851 0.41893315 -0.0090801716 9402693
1.8997853 0.42091876 -0.009342134 9205575
1.901801 0.42291212 -0.0096051097 8548169
1.9045265 0.42444593 -0.0094252825 8218941
1.8914198 0.41699183 -0.0094493628 9468229
1.8934823 0.41906285 -0.0093235373 9600073
1.8953274 0.42016971 -0.0093368292 9337162
1.8979124 0.42246097 -0.010398567 9271381
1.9156263 0.41561687 0.0028497577 6908004
1.9180307 0.41773736 0.0025227666 7499890
1.8999822 0.40387636 0.0057342052 5457739
1.9006071 0.40561467 0.005286634 5523785
1.9028492 0.4076457 0.0052960515 5194821
1.9050499 0.41001326 0.0049737096 4997700
1.9076774 0.41283917 0.0032845736 4998211
1.9091537 0.41282189 0.0032789111 4866625
1.9118081 0.41519278 0.0023575425 5328203
1.9134874 0.41781408 0.0026771426 5460306
1.9157656 0.41776121 0.0025807023 5591898
1.9413829 0.43896949 -0.0072873235 7362600
1.8923037 0.40144658 0.0054481626 6905681
1.8944347 0.40376371 0.0060150027 6576718
1.8965671 0.40464288 0.0043905973 6576722
1.8984008 0.4072569 0.0038976073 6248518
1.9014145 0.40895975 0.0045569539 5787714
1.9030696 0.41124022 0.0019551516 6249056
1.9055542 0.41341096 0.0024815798 5655623
1.9077981 0.41485167 0.0014494061 5590603
1.9092723 0.41718459 0.0014644265 5722447
1.9350531 0.43703455 -0.0075861812 6969659
1.9373111 0.43892759 -0.0075617433 6969395
1.890342 0.40386111 0.0036166906 8155235
1.8928533 0.40512681 0.00374192 7695195
1.8948169 0.40674949 0.0031936169 7497565
1.8966534 0.40874732 0.0033428073 6971223
1.900147 0.41020101 0.0011640191 6578273
1.900988 0.41318929 0.0011458397 6643539
1.9039814 0.41540104 0.0013602376 6314325
1.9080665 0.41643631 0.00019305944 5656151
1.9262174 0.43332183 -0.0070723295 6180147
1.9292219 0.43592846 -0.0073025823 6246199
1.9313262 0.43620962 -0.0080652833 6641211
1.9332005 0.43869406 -0.008171618 6706228
1.8909552 0.40599537 0.0020483136 8616291
1.8931534 0.40806466 0.0015437603 8419171
1.8957607 0.41121101 -5.9604645e-08 8155490
1.8973963 0.41213089 0.00040215254 7827296
1.8996266 0.41455078 0.00056880713 7433053
1.9018878 0.41561341 -0.0024029016 7694137
1.9178727 0.42907548 -0.0076329112 6509379
1.9200046 0.43058151 -0.0075498819 6443581
1.9223974 0.43279696 -0.0076466799 6246710
1.9246857 0.43481719 -0.0080423355 6245941
1.9270436 0.43694848 -0.0083580613 6377787
1.9287992 0.43867999 -0.0084343553 6377780
1.931427 0.44022465 -0.0087755322 6443825
1.8906531 0.40955186 -0.00065404177 8878944
1.8930629 0.41158378 -0.0010638833 9077092
1.8952918 0.41439974 -0.0024698377 9471827
1.8979907 0.41548938 -0.0023542047 8879451
1.899863 0.41701013 -0.0031964779 8286284
1.901371 0.42021352 -0.0034227967 7892033
1.9080485 0.42344952 -0.0065119863 6641461
1.9097888 0.42391878 -0.0062757134 6444338
1.9109833 0.42659259 -0.0077337623 7035713
1.913818 0.42855436 -0.0080086589 6706742
1.9158378 0.43068802 -0.0083245635 6509372
1.9182843 0.43283093 -0.0085231662 6508859
1.9204895 0.43401605 -0.0087068081 6310965
1.922212 0.43648779 -0.0090847611 6245170
1.9250709 0.43834597 -0.0087538958 6246196
1.8912144 0.41330814 -0.0030292869 9733476
1.8932924 0.41531283 -0.0042545199 9667427
1.8958755 0.41697007 -0.0046803355 9404251
1.8984488 0.41990459 -0.0045359731 9074768
1.8994417 0.42026377 -0.0067706108 8615498
1.9029772 0.42322117 -0.0079272389 8614479
1.9055321 0.42469829 -0.0084324479 7627839
1.9071387 0.42636341 -0.0083864927 7561785
1.9096076 0.4284969 -0.0084715486 7364666
1.9120052 0.4305653 -0.0087010264 6903865
1.9145546 0.43236959 -0.0091559887 6640689
1.9169948 0.43453509 -0.0092054009 6771764
1.918628 0.43579376 -0.0095341206 6639671
1.8918936 0.41710925 -0.0054846406 9667169
1.8944762 0.41867608 -0.0060586333 9601627
1.8967304 0.42064381 -0.0072394609 9469777
1.8988276 0.42242455 -0.0079786181 9205835
1.9012253 0.4245671 -0.0087257028 9271631
1.9032891 0.4264105 -0.0089359879 8416835
1.9055521 0.42836684 -0.0090453029 8219459
1.9078145 0.43015361 -0.009345293 7759170
1.9099358 0.43203497 -0.0097202063 7298363
1.911814 0.43428224 -0.010531247 7100989
1.8923612 0.42022532 -0.0085421205 9600589
1.8947586 0.42213845 -0.0090150237 9468745
1.8967916 0.4240635 -0.0091990829 9534286
1.8993189 0.42617708 -0.0096636415 9402960
1.9013438 0.42777711 -0.0092847347 8745547
1.9032962 0.43005043 -0.010024846 8810563
1.9055817 0.43152726 -0.010309994 8350007
1.9073101 0.43296194 -0.010803699 8021313
1.8932546 0.4238891 -0.0099316835 9336129
1.8949999 0.42588156 -0.0097762942 9467723
1.8974385 0.42749476 -0.010163963 9600858
1.9042137 0.41149044 0.0049408078 5129024
1.9070976 0.41381538 0.0045577884 4867392
1.9073794 0.41495943 0.0056074262 4932161
1.9121041 0.41724128 0.0031579733 4670277
1.914335 0.42036861 0.003052175 5394240
1.8960042 0.40719718 0.0056493878 6313806
1.8992558 0.40924639 0.004820466 6314070
1.9003038 0.41095889 0.0049243569 5853005
1.9026737 0.41298544 0.0045917034 5852994
1.9052849 0.41475016 0.0045374036 5261373
1.9072974 0.41643798 0.0035606623 5063738
1.9096371 0.41857922 0.003066659 5129274
1.9116361 0.41976559 0.002332747 5196101
1.912963 0.42135268 0.00087577105 5459538
1.8915966 0.40741909 0.0054596066 7365975
1.8944083 0.40856338 0.0051189661 7366229
1.8961036 0.41087949 0.0044697523 7169110
1.8983417 0.41250336 0.0042284727 6510667
1.9006801 0.41461885 0.0033366084 6313553
1.9031281 0.41659993 0.003021419 6182221
1.9054539 0.41727507 0.0021776557 5853265
1.9072986 0.41993666 0.0015265346 6049875
1.9094107 0.42221534 0.00088232756 5984597
1.912716 0.4238258 0.00090914965 5327173
1.9139608 0.42574799 0.00037115812 5786961
1.8922665 0.41015226 0.0036658645 8287074
1.8940668 0.41204309 0.0031645894 7629147
1.8968263 0.41438842 0.0015898347 7497302
1.8989024 0.41607958 0.0016366839 7235153
1.9012852 0.41753286 0.0010653138 6907234
1.9036837 0.41947109 0.0013529658 6577245
1.9053066 0.4216556 0.0010374784 6707802
1.9234324 0.43629354 -0.0073332191 6509890
1.9282256 0.4404124 -0.0079782009 6311993
1.893011 0.4137947 0.00056439638 8484198
1.8948166 0.41512138 0.0015360713 8418403
1.8965507 0.41758591 -0.0018472075 8945500
1.8989203 0.41930127 -0.0020757914 8550485
1.9012637 0.42107475 -0.0022272468 8154696
1.9156661 0.43337172 -0.0073762536 6312236
1.9173007 0.43432444 -0.0068048239 5983785
1.919697 0.43587554 -0.0077793002 6378301
1.921784 0.43802953 -0.0081757903 6444088
1.9241712 0.43995053 -0.0084376335 6443574
1.8933121 0.41682386 -0.0010743737 9340003
1.8950753 0.41945392 -0.0018935204 9537129
1.8971928 0.42078102 -0.0031250715 9338716
1.8997178 0.42246312 -0.0033731461 8681293
1.9020033 0.42464209 -0.0039462447 8089420
1.9032241 0.42710328 -0.0048652291 8089920
1.9092698 0.43039024 -0.0076882243 7759705
1.9118032 0.43225753 -0.0075681806 7233088
1.9134215 0.43405867 -0.0081141591 6903611
1.9156632 0.43613631 -0.0082709193 6772036
1.9178905 0.43757004 -0.0085703135 6509112
1.9200231 0.43959433 -0.0090961456 6574650
1.8914092 0.41838366 -0.0029950142 9864799
1.8935627 0.42085075 -0.0045682788 9601638
1.8955117 0.4229756 -0.0042641163 9536616
1.8980896 0.42413092 -0.0046923757 9338972
1.9007059 0.42692959 -0.0056842566 8747339
1.9023702 0.42792964 -0.0066181421 8088152
1.9037955 0.42982632 -0.0081126094 8153922
1.9069419 0.43159527 -0.0088638663 7956806
1.9094312 0.43365502 -0.0086695552 7693122
1.9116056 0.43555892 -0.0086340308 7495746
1.9136463 0.43766379 -0.0096299052 7364166
1.9158616 0.43939149 -0.0096976161 6903605
1.9180886 0.44104046 -0.0096870065 6837555
1.8939314 0.42390883 -0.0067752004 9799001
1.8962818 0.42582279 -0.0067273974 9601622
1.8986201 0.42761278 -0.0085565448 9403218
1.900586 0.42960155 -0.0087938905 9074252
1.9027485 0.43128258 -0.0088270903 8877133
1.9051013 0.43322086 -0.00906986 8482118
1.9072484 0.43478978 -0.0096892118 7956034
1.9099839 0.43710041 -0.010465384 7824707
1.9116654 0.4391712 -0.010680258 7495747
1.8921998 0.42538011 -0.0084499717 9666386
1.8942943 0.42751044 -0.0092422366 9534281
1.896961 0.42931533 -0.009583652 9403213
1.8989856 0.43121153 -0.0094333291 9403216
1.9009221 0.43314582 -0.0094966888 9205061
1.9028754 0.43427879 -0.0099249482 8678459
1.9053993 0.43694741 -0.0111292 8481089
1.9088557 0.43875206 -0.011393905 8020800
1.8945785 0.43098289 -0.01026696 9336388
1.8976843 0.43336886 -0.010479391 9732167
1.9075859 0.41604125 0.0066786408 4669760
1.9089561 0.41861409 0.0063741803 4800828
1.9043521 0.4159171 0.0062929392 5195587
1.9066099 0.41892391 0.0065136552 4998206
1.9108033 0.42269552 0.0049027801 5063990
1.913779 0.42403138 0.0040630102 5326914
1.8979156 0.41506308 0.0049183965 6510670
1.899491 0.41556162 0.0044288039 6313539
1.9022462 0.41805393 0.0049347281 5786954
1.9052086 0.41967845 0.0044999123 5918276
1.9087036 0.42334539 0.0031201243 5458494
1.9102881 0.42591494 0.0024372935 5458761
1.9136688 0.42726719 0.0013551116 5459017
1.9151425 0.42940271 0.0010365844 5195333
1.8912959 0.41156232 0.004489243 8024165
1.8936341 0.41410744 0.0041553974 7760988
1.8959281 0.41555959 0.0039280057 7234648
1.8984468 0.4174881 0.0038095117 6839888
1.9000393 0.42001486 0.0031175017 6840144
1.9029629 0.42190111 0.0022630095 6511191
1.9055519 0.42293859 0.0017110705 6248528
1.9070088 0.42480725 0.0014041066 6181968
1.9093683 0.42609268 0.00097686052 6116693
1.9117448 0.42931098 0.00063604116 5260360
1.8920863 0.41578251 0.0029043555 8220768
1.8937798 0.41720408 0.0026493669 8155486
1.8964679 0.41871291 0.0021862984 7892831
1.8981993 0.42119163 0.0014757514 7630430
1.9005456 0.42270029 0.0015351176 7499103
1.8927701 0.41952717 0.0018939376 8616035
1.8961592 0.42186123 0.0012862086 8485998
1.9033132 0.42818409 -0.0035091043 8023892
1.9049935 0.43002844 -0.0036791563 7892813
1.9083247 0.43242031 -0.002535522 7299668
1.913481 0.43625319 -0.0066532493 6376755
1.9172628 0.43982553 -0.0081889033 6049333
1.8927805 0.42069149 -0.0018293262 9931619
1.8941963 0.42415881 -0.0035683513 9931619
1.8976009 0.4255591 -0.0037282109 9404523
1.8999419 0.42810577 -0.0041248202 9206864
1.9023414 0.42984128 -0.004099071 8286810
1.9050372 0.43234396 -0.0037853122 7826770
1.905045 0.43373787 -0.0059971809 8154194
1.9107907 0.43756318 -0.0080736876 7232314
1.9137632 0.43939686 -0.0084678531 7429701
1.9151659 0.44097871 -0.0080530047 7167297
1.893061 0.4256022 -0.0041632056 9931100
1.8948894 0.42730254 -0.0047163367 9864541
1.8976002 0.42961359 -0.0057888031 9601638
1.8996459 0.43100983 -0.0057604909 9075554
1.9024241 0.43358654 -0.0074023604 8680786
1.9045208 0.43497467 -0.0078498721 8482381
1.9063678 0.4370454 -0.0084194541 8022087
1.9090528 0.43907213 -0.0088088512 7758403
1.9112058 0.44082355 -0.0093823075 7824966
1.9133488 0.44250876 -0.0093619227 7495488
1.8937163 0.42858535 -0.0070592761 10127439
1.8958261 0.4313969 -0.0072019696 9667419
1.8984714 0.43306929 -0.0085944533 9140301
1.9002199 0.43480128 -0.008716166 9206097
1.9026796 0.43649256 -0.0089411139 8745034
1.9047589 0.43865192 -0.0092576146 8547655
1.9071956 0.44019186 -0.010269344 8350281
1.9092839 0.44193077 -0.010382593 7955779
1.8942676 0.43250442 -0.0092145801 9402960
1.8961477 0.43451715 -0.0093327165 9469263
1.8986697 0.43618947 -0.0098580122 9336904
1.9004707 0.43834084 -0.010034502 9336382
1.9034568 0.43988729 -0.010575354 8744516
1.9055438 0.44175863 -0.010757625 8415554
1.8942819 0.43593693 -0.010969818 9269832
1.8965356 0.43727118 -0.011080563 9204537
1.9114263 0.42533785 0.0047469139 4932414
1.914506 0.42826879 0.0049465299 4932161
1.9187838 0.43269664 0.0039076209 5130042
1.9032054 0.42095554 0.005389154 5785928
1.9061313 0.42334336 0.0051024556 5457990
1.9082887 0.42576605 0.0047886968 5392196
1.9102758 0.42738068 0.0046359897 5195330
1.9124577 0.42873061 0.0037764907 5261126
1.9149966 0.43123853 0.0033145547 5524809
1.9168618 0.43310833 0.0034984946 5459781
1.8977624 0.41912585 0.0050087571 6576471
1.899264 0.42120981 0.0052570701 6378068
