# .PCD v0.7 - Point Cloud Data file format
VERSION 0.7
FIELDS x y z rgba
SIZE 4 4 4 4
TYPE F F F U
COUNT 1 1 1 1
WIDTH 87
HEIGHT 1
VIEWPOINT 0 0 0 1 0 0 0
POINTS 87
DATA ascii
2.073658 0.15541041 0.053583682 8486775
2.0756197 0.15611088 0.053417623 8618109
2.0716722 0.1565057 0.052833319 8486777
2.0863786 0.16640109 0.056143463 5593937
2.0806191 0.16187847 0.054534435 8092267
2.0822644 0.16348761 0.055047095 7631977
2.0846226 0.16512239 0.055208147 7369322
2.0726037 0.15737569 0.053940475 8421500
2.0747576 0.15855318 0.054527164 8355448
2.0766311 0.16032112 0.054804623 8224118
2.0913458 0.172791 0.056852162 6515313
2.0935166 0.17450428 0.056796193 6383985
2.0958388 0.17681146 0.057744741 6449519
2.0818515 0.16591775 0.056041539 7106420
2.0848048 0.16704106 0.056495011 6909039
2.0871382 0.16902214 0.056479931 6514284
2.0289707 0.19708365 0.052464724 9342600
2.026773 0.19979477 0.052354813 9408390
2.0248377 0.20245606 0.051774621 9737095
2.0264351 0.20306271 0.052446663 9408134
2.0249369 0.20537812 0.05313015 9408132
2.0220048 0.20442021 0.051873744 9802888
2.0238535 0.2067163 0.052699447 9539719
2.0263555 0.20898134 0.055207074 8684928
2.0284152 0.21142417 0.055777133 8159354
2.0353189 0.21950102 0.05484581 8949906
2.0404282 0.22460461 0.054377675 9740459
2.0241883 0.20986533 0.053625405 9408389
2.0295599 0.21389657 0.056046546 8355963
2.0312073 0.21554565 0.056779087 8554371
2.0522492 0.19217628 0.30046821 5925506
2.0680065 0.1906969 0.30887794 7634855
2.0650883 0.19178748 0.30893165 8161701
2.054419 0.18909919 0.30491716 7371926
2.0534668 0.19020063 0.30490714 7174807
2.0510595 0.19164753 0.3035284 5923966
2.052727 0.1915912 0.30350202 5793403
2.059721 0.1872012 0.31094435 8030624
2.0625753 0.19169122 0.31062901 7898022
2.0603361 0.19152242 0.30894345 7306397
2.0611408 0.19312143 0.3097679 7174041
2.0521853 0.19290453 0.30474553 5662588
2.0615022 0.19257736 0.311409 6910613
2.0621657 0.19564515 0.32007396 5663344
2.0612915 0.19671881 0.31956834 6782853
2.0606377 0.1989007 0.31813255 5137521
2.0671856 0.20002061 0.32387474 10927851
2.0637598 0.19859397 0.32246721 5402249
2.0605972 0.19824195 0.31943417 5665649
2.0613716 0.19893956 0.3207671 3362656
2.0595305 0.20077813 0.31884664 7899306
2.0705652 0.20104182 0.32647952 11584758
2.0712895 0.20403534 0.32720321 11650553
2.0667434 0.20098454 0.32550657 12308477
2.0689678 0.20275551 0.3263638 11651065
2.062346 0.19982398 0.32313246 8691915
2.0647135 0.20144069 0.32445595 11322100
2.0607576 0.20115221 0.32238534 9347796
2.0626552 0.20223844 0.32360107 10729969
2.0587971 0.20257825 0.32124433 9413331
2.0598516 0.2042436 0.3214426 11322091
2.0577056 0.20434105 0.32053369 9413588
2.0716906 0.20653254 0.3280651 12044023
2.0729692 0.20580363 0.32800487 11846131
2.0675402 0.20432568 0.32627267 11650810
2.0699415 0.20580143 0.32709867 11716345
2.0642872 0.20404077 0.32566965 12045565
2.0659306 0.20539266 0.32706219 11847932
2.0604968 0.20300508 0.32357091 10729964
2.0616193 0.20443434 0.32473409 11913982
2.0587804 0.20434588 0.32270563 10007266
2.0600405 0.20396698 0.3229911 11585785
2.0644097 0.20644033 0.32827872 11781881
2.0618253 0.20666033 0.32562405 11651071
2.062386 0.20721745 0.32691219 11848190
2.0644057 0.2092191 0.32768387 11848186
2.0582399 0.20540756 0.32510841 11847935
2.059068 0.20737523 0.32562333 11979518
2.0600679 0.20900309 0.32703182 12045310
2.0566766 0.20876372 0.32460356 10992865
2.0588398 0.21133852 0.32516402 11716342
2.0590296 0.21345717 0.32445997 9352408
2.0567832 0.21255946 0.32350516 4086922
2.0606403 0.20974928 0.32866442 11651320
2.0594516 0.21106142 0.32772416 10993648
2.0564086 0.21488065 0.3248145 331064
2.0577176 0.21423084 0.32460326 470353
