# .PCD v0.7 - Point Cloud Data file format
VERSION 0.7
FIELDS x y z rgba
SIZE 4 4 4 4
TYPE F F F U
COUNT 1 1 1 1
WIDTH 1186
HEIGHT 1
VIEWPOINT 0 0 0 1 0 0 0
POINTS 1186
DATA ascii
1.9090127 0.36040011 0.066856652 8615004
1.9111698 0.36278865 0.066769868 8418918
1.9125805 0.36575109 0.066258639 8418145
1.9147116 0.36690417 0.067396104 7430738
1.8909242 0.34112492 0.066682875 8680542
1.8928291 0.3436206 0.066658914 8681054
1.8941197 0.34636563 0.066269785 8418661
1.8962198 0.34785938 0.066291511 8484196
1.8981643 0.34987193 0.066382408 8484710
1.9002024 0.35268292 0.065888345 8745819
1.9022051 0.35546589 0.06623894 8614748
1.903477 0.35736895 0.065901905 8549471
1.9058582 0.35942101 0.065670699 8549473
1.9071257 0.36139017 0.06592682 8549473
1.9086103 0.36366659 0.065869212 8483937
1.891252 0.34508523 0.064982563 8615010
1.892403 0.34683916 0.0653615 8614752
1.8945432 0.3485207 0.065269619 8680543
1.8955748 0.35103047 0.06519112 8615006
1.8984499 0.3539353 0.065212667 8680799
1.9208567 0.36158168 0.077204823 7831422
1.9228375 0.36352941 0.076594532 8028804
1.9187964 0.36162618 0.074739873 6512715
1.9212037 0.36448765 0.074852318 7566440
1.9224107 0.3657403 0.074162573 7959655
1.9155732 0.36040029 0.073821098 7432271
1.9175392 0.36304468 0.073719531 6840122
1.9195225 0.36550874 0.073613226 6710098
1.9204885 0.36747816 0.073334992 7825998
1.9081054 0.35471672 0.071158141 8484186
1.9097333 0.35693264 0.071618259 8418649
1.9117603 0.36002991 0.072081 8221783
1.9142253 0.36146298 0.07221505 8352591
1.915446 0.36434248 0.072047889 8021555
1.9172626 0.36651012 0.071302861 5460033
1.9187343 0.36854571 0.071914047 6445123
1.9221327 0.37147659 0.071494281 7629139
1.9207814 0.37350202 0.071237415 7432011
1.8929665 0.33957776 0.071609527 8549979
1.8947222 0.34280995 0.071081817 8615769
1.8970872 0.3458817 0.070627183 8616026
1.8987931 0.34700885 0.07112658 8615773
1.9005659 0.3491883 0.070514143 8483411
1.9022678 0.35186163 0.070993125 8221016
1.9041722 0.35378927 0.070676714 8417617
1.9062248 0.35623741 0.070541769 8549199
1.9079072 0.3587274 0.070778757 8221264
1.9098556 0.36080182 0.070372581 8746572
1.9118886 0.36313206 0.070075125 9467715
1.9137679 0.36569399 0.069841623 7759172
1.9156024 0.36783141 0.069850206 5656122
1.9169307 0.36926809 0.070099384 6311461
1.8907812 0.34159642 0.070546001 8943441
1.8929386 0.34380552 0.070313841 8811340
1.8952734 0.34583113 0.070234776 8680271
1.8966035 0.34830049 0.070204854 8483153
1.8985716 0.35038781 0.070064723 8876875
1.9004185 0.35275915 0.070043892 8745547
1.9023693 0.35504302 0.069231838 9335619
1.9041326 0.35753772 0.069442362 9466944
1.9062837 0.35998809 0.068942994 9073994
1.9081442 0.36240485 0.068308175 9073739
1.9098201 0.3645055 0.068281084 8811089
1.911727 0.36715594 0.068383276 7760728
1.9134264 0.3688674 0.068120003 7364679
1.914712 0.37120005 0.068449944 5261886
1.8908157 0.34485301 0.069213271 9073735
1.8931048 0.34702218 0.068833947 8942411
1.8951055 0.34944695 0.068263531 8877393
1.8968618 0.35163373 0.067902774 9139534
1.898743 0.35390037 0.067587674 8811863
1.9002397 0.3565892 0.066939414 8484193
1.9024169 0.35880449 0.067296296 8549985
1.9046361 0.36132383 0.066930771 8680797
1.9058318 0.36357784 0.066856414 8549728
1.9077044 0.36594468 0.066669673 8352865
1.9101021 0.3678523 0.06638658 8221793
1.9115686 0.37036145 0.066442281 8154972
1.9127285 0.37193409 0.067000359 7366226
1.8911396 0.34857732 0.066709369 8680798
1.8929541 0.35097775 0.066159517 8418402
1.8947779 0.35325569 0.066082418 8418403
1.8967471 0.35556278 0.066069484 8483679
1.8982295 0.35811171 0.066137075 8353381
1.8999858 0.360145 0.065601826 8549472
1.9015709 0.36245301 0.065389663 8549730
1.9035957 0.3640658 0.065596968 8681313
1.9058391 0.36742151 0.06568712 8418397
1.892514 0.3534745 0.065022558 8615007
1.8947411 0.35670736 0.06504494 8549475
1.9184134 0.36723015 0.075503021 7435380
1.9190645 0.36815223 0.074561775 7500913
1.9111487 0.36159113 0.072858453 6578771
1.9122798 0.36351803 0.073871344 6446673
1.9142081 0.36549267 0.074270785 6381133
1.9162716 0.36779499 0.07429257 6578248
1.9173861 0.37009895 0.0731408 6970171
1.906342 0.36028522 0.07184568 8156254
1.9088204 0.36218005 0.072287351 7630687
1.9104173 0.36459643 0.073065788 7761498
1.9124396 0.36667237 0.072036177 8154694
1.9140366 0.36906302 0.071990967 6378802
1.9160073 0.3712413 0.071996331 6247739
1.9169294 0.37348151 0.072186708 6641213
1.897709 0.35201684 0.070459783 8287322
1.8992466 0.35414413 0.070611149 8483925
1.9004446 0.35622177 0.070957124 8418392
1.9028693 0.35812104 0.070832402 8352856
1.9046166 0.36117467 0.070622921 8221528
1.9064894 0.36363462 0.070442975 8614990
1.908319 0.36548528 0.070842326 8418127
1.9102073 0.36807108 0.070788175 9139264
1.9129008 0.37034166 0.069894046 6510912
1.9137945 0.37291873 0.07029596 5393722
1.8918524 0.34841368 0.069888175 8680270
1.8936449 0.3508378 0.070207179 8483925
1.8956499 0.35329762 0.069886744 8811854
1.8974559 0.35570362 0.070013434 8811341
1.8991383 0.3580415 0.069842935 9007944
1.9009502 0.36008343 0.069810152 8877131
1.9028326 0.36245129 0.06942296 8680784
1.9043156 0.36484131 0.068839788 9271113
1.9064178 0.36701676 0.068697482 8811856
1.9089615 0.3693527 0.06822443 8352085
1.9103831 0.37171477 0.068329483 7431504
1.9117208 0.37405595 0.06855005 6051401
1.9137696 0.37601373 0.068445027 4670266
1.9144108 0.37915471 0.068321913 4737350
1.891522 0.35198894 0.06869787 9008204
1.8936757 0.35457984 0.068657488 9073738
1.895471 0.35681918 0.068001956 9074257
1.8971682 0.35911 0.067260683 9074258
1.8989646 0.36134735 0.067116171 8877657
1.900697 0.36360472 0.067044884 8746330
1.9028291 0.36614126 0.066944152 8812121
1.9043499 0.36870784 0.067203283 8352863
1.906709 0.37082687 0.067107201 8417366
1.9081762 0.37275794 0.066953897 7892316
1.9101467 0.3749736 0.066768885 7431510
1.9122357 0.3772985 0.067707866 5459520
1.8934669 0.35848114 0.066561848 8550244
1.895436 0.36041909 0.066059828 8418662
1.897023 0.36217532 0.066159904 8353640
1.8991334 0.3649593 0.066286623 8418917
1.900642 0.36694908 0.065932781 8680540
1.9026061 0.36974302 0.065486729 8484191
1.9052093 0.37231183 0.065739751 8220764
1.9063683 0.37412733 0.066152811 8089434
1.8939569 0.36148906 0.065330505 8615267
1.895597 0.36350986 0.065257609 8615523
1.8969729 0.36575416 0.065284193 8549729
1.9157135 0.36887065 0.078398585 6646129
1.917719 0.36946756 0.076768696 7565159
1.911587 0.36549854 0.07539615 5199431
1.9131941 0.36763743 0.074969769 5724225
1.9143156 0.36976814 0.076047987 6579292
1.9159898 0.37160891 0.07594943 7235934
1.9189886 0.37527248 0.074345797 7367254
1.9095352 0.36566505 0.07435286 5723983
1.9105153 0.36809835 0.074376017 5920837
1.9128563 0.37098891 0.074868828 6249285
1.913995 0.37189931 0.072655141 5855038
1.9166845 0.37485141 0.072929353 6772792
1.9184083 0.37722149 0.073750377 7431508
1.9052701 0.36488941 0.071514487 7959647
1.9073349 0.36743501 0.072730601 7170134
1.9088142 0.36972305 0.073553562 6709582
1.9108421 0.37183267 0.071939051 7955766
1.9124165 0.37419501 0.072208107 5657148
1.9138954 0.37619093 0.072296828 6115378
1.9163276 0.37779236 0.073061615 6444100
1.8938842 0.35454279 0.070937246 8221274
1.8952744 0.35643506 0.070788294 8155737
1.8971567 0.35879412 0.070683181 8221785
1.8995116 0.36169142 0.070534319 8615249
1.901666 0.36369082 0.070688784 8287062
1.9036157 0.36647305 0.071120113 8155734
1.9049828 0.36858812 0.071122557 8221008
1.9073336 0.3708593 0.07039696 9204284
1.9088687 0.37343606 0.070519835 8745028
1.9111874 0.37593189 0.069745004 6378556
1.9118699 0.37741363 0.070363373 5131847
1.9138434 0.37991929 0.07001698 4738124
1.9162023 0.38262239 0.069887727 6250839
1.9185575 0.38383624 0.06924206 6448735
1.9193794 0.38736421 0.069283098 6383468
1.8938906 0.35807091 0.070375919 8549457
1.8958992 0.36064431 0.070151687 9074251
1.8977705 0.363143 0.070283324 8877648
1.8995018 0.36506546 0.070183635 8877390
1.9014307 0.367255 0.069702446 9336132
1.9032232 0.36972478 0.069277316 9336646
1.9051032 0.37177226 0.068558991 9007945
1.9073431 0.37466085 0.068018913 8023381
1.908928 0.37679309 0.068670303 7233870
1.9102856 0.37887052 0.068473309 5461073
1.9120809 0.38121638 0.068268031 4671039
1.8922951 0.35936603 0.068539917 9664328
1.8939164 0.3614859 0.06824249 9402448
1.8960791 0.36400166 0.067180097 9074521
1.8979667 0.36671814 0.067213714 8943708
1.8997848 0.36919421 0.067149311 8746845
1.901137 0.37104166 0.067201078 8483678
1.9029311 0.37326181 0.066865534 8221022
1.90504 0.37588257 0.067165971 8089435
1.9071516 0.37803045 0.066575408 7629915
1.9092529 0.38114652 0.067407221 6642772
1.8936852 0.36504257 0.066222966 8418917
1.895599 0.36748093 0.066089541 8549473
1.8978841 0.36986122 0.065475911 8418915
1.9000489 0.37295112 0.065410614 8352606
1.9015867 0.3749567 0.065634668 8221278
1.9026666 0.37681431 0.065842837 8089694
1.9041514 0.37896961 0.065857708 7958621
1.9139669 0.37062457 0.078653783 6645614
1.9146713 0.37162697 0.07888025 6973016
1.9098721 0.37011468 0.076373965 5593686
1.913272 0.37415159 0.075668365 6578517
1.9077482 0.37094608 0.074329823 5460811
1.9095044 0.37273404 0.074886769 5526856
1.9120128 0.37559903 0.073841095 6182193
1.9135203 0.3792724 0.073622167 6708027
1.9157344 0.38056839 0.072885305 6510917
1.9154391 0.38210303 0.072973281 6313024
1.9018058 0.36763239 0.07171014 8484443
1.9043779 0.37001967 0.072328299 7039062
1.9061155 0.37226385 0.072703302 7366478
1.9076756 0.3747347 0.072970152 7168320
1.9096363 0.3767027 0.072748542 6444853
1.9115245 0.37940863 0.072180897 5853502
1.9131682 0.38118792 0.072315097 5984835
1.9141476 0.38374314 0.07094571 5658197
1.9167871 0.38708732 0.070693076 6448745
1.9181533 0.38906628 0.071792066 6186863
1.8938591 0.36194316 0.070913821 8221786
1.8963795 0.36446589 0.070815295 8221532
1.8980252 0.36675423 0.071059078 8549977
1.9001602 0.36858657 0.071262598 7958872
1.9018211 0.37120414 0.071052819 8221265
1.9037021 0.37346342 0.071256906 8549198
1.9058534 0.37573835 0.070573032 9007681
1.9077544 0.37818721 0.070491374 8153667
1.9096457 0.38041064 0.070538163 6509884
1.9116542 0.38385203 0.069853812 4475468
1.9126407 0.38523063 0.069490969 4803145
1.9143007 0.38754252 0.070088834 5790551
1.9168355 0.3894991 0.070730835 6317924
1.8943808 0.36546105 0.070031077 8942926
1.8961229 0.3677015 0.070389569 8746065
1.8977779 0.37000501 0.070206046 9271372
1.9001101 0.37256637 0.069394946 9467460
1.9020386 0.37514195 0.068997085 9008459
1.903795 0.37726009 0.068695933 8877133
1.9056799 0.37955612 0.068148255 8154709
1.9075663 0.38171887 0.068372786 6840918
1.9096854 0.38430247 0.06806764 5198165
1.9105009 0.38671681 0.06869185 4672074
1.9166965 0.39203522 0.068083227 5593946
1.8946571 0.36916089 0.067466617 9205844
1.8967552 0.37149781 0.06695202 8615264
1.8986726 0.37385851 0.067178369 8746330
1.9000095 0.37602493 0.067239761 8615002
1.901793 0.37836063 0.067035735 8418139
1.9036412 0.38070399 0.066878259 8089692
1.9054626 0.38333282 0.066921145 7236963
1.9078701 0.38583842 0.066856056 7037783
1.8946848 0.37291253 0.066343844 8484193
1.8964189 0.37498221 0.066345781 8221797
1.898288 0.37715369 0.066190958 8221539
1.8997024 0.3794252 0.066159368 8090211
1.9018946 0.38245285 0.06549409 8089696
1.9044362 0.38480458 0.065970421 7892830
1.9055789 0.38661841 0.066243023 7761247
1.8949162 0.37615472 0.065190881 8483939
1.9071611 0.37455532 0.076236337 5132880
1.9118404 0.37913659 0.074781448 6380359
1.9027563 0.37172642 0.075040102 5986634
1.9037403 0.37350675 0.076221466 4868668
1.907692 0.37824744 0.073176831 5526093
1.9101833 0.38071981 0.073900938 6116929
1.9112681 0.38291991 0.073848486 6246968
1.9137492 0.38530535 0.072137266 6772539
1.9175082 0.38977659 0.07360366 6121065
1.9007033 0.37360904 0.072962373 7170389
1.902483 0.37486339 0.073398203 6972499
1.9040098 0.37695861 0.072554618 7695700
1.9058684 0.37947378 0.072319806 7234635
1.9080946 0.38179103 0.072609991 7036220
1.9097915 0.38416946 0.072361052 6247487
1.9116085 0.38661048 0.071850419 6117961
1.9134612 0.38975722 0.071454823 6054235
1.9155412 0.39096224 0.072289288 6055011
1.8951943 0.36940038 0.071324021 8090460
1.8972384 0.37163469 0.071468323 7695963
1.8987757 0.37381315 0.071797282 7761495
1.9004158 0.37688714 0.072246134 7301716
1.9020718 0.37808058 0.070857853 9073732
1.9043521 0.38054258 0.070693105 8876869
1.9061631 0.38333723 0.071018517 8153926
1.9077048 0.38605386 0.070465803 6970440
1.9098203 0.38758704 0.07040599 5197898
1.9121252 0.39027399 0.069018245 4869198
1.9127806 0.39224392 0.070105433 5264215
1.8934702 0.37043506 0.070513695 8614998
1.8950859 0.37278956 0.070249289 9074252
1.8966374 0.374888 0.070263892 8942923
1.898846 0.37756491 0.069184452 9598789
1.9006524 0.37999094 0.068996429 9336906
1.9026928 0.38206676 0.069075435 9139787
1.9042404 0.38452926 0.068577498 8745810
1.9060946 0.3869451 0.068654925 7235419
1.9076983 0.38905963 0.067946047 6052952
1.9097248 0.39124238 0.068445504 5000528
1.9115661 0.39447066 0.068530768 5000525
1.8951489 0.37664083 0.067558438 9074518
1.8965886 0.3788116 0.067590922 8681050
1.8985207 0.38140321 0.067200392 8615517
1.9005768 0.38331547 0.067133516 8418656
1.902084 0.38576677 0.066919774 7828071
1.9041811 0.38839486 0.067016572 7499365
1.9058059 0.39088699 0.066629827 7302240
1.9077433 0.39284083 0.067270517 6644060
1.9091197 0.39484242 0.067442119 6117977
1.8948696 0.37975809 0.066037506 8221539
1.8965697 0.38249052 0.065839499 8221283
1.8990335 0.38498929 0.065589428 8024679
1.9013425 0.38730595 0.065484732 8155746
1.9021989 0.38926974 0.066216081 7763050
1.9030658 0.39119527 0.066056848 8156513
1.9056809 0.3714861 0.079791337 5593431
1.9039069 0.37357646 0.079369545 5133133
1.9032354 0.37542737 0.076543212 4540484
1.9042398 0.37656322 0.077266872 4869711
1.906711 0.38108823 0.076142192 5461592
1.9092449 0.38130549 0.076768786 6314060
1.9098421 0.38407198 0.075812548 5985866
1.9016348 0.3761175 0.075156152 5460816
1.9026744 0.37907955 0.075641006 5066061
1.9052225 0.38193005 0.075214952 5263692
1.9073846 0.38394111 0.073538363 6051912
1.9091741 0.38559398 0.074406356 6182464
1.9102457 0.38790956 0.074581742 6445116
1.9117225 0.39019263 0.074121386 6053203
1.9142389 0.39236408 0.073813766 5857374
1.8991449 0.37760475 0.072511107 6842194
1.9011739 0.38022274 0.072599381 6841429
1.902869 0.38218185 0.073332399 6380881
1.9048342 0.38455543 0.073544919 6052431
1.9071532 0.38743904 0.072589278 6774338
1.9087502 0.38902652 0.072510749 6379589
1.9096541 0.39126936 0.072832048 6445634
1.9109602 0.39339012 0.072583437 6511438
1.8956156 0.37677965 0.071552426 7695960
1.8972044 0.37858805 0.071758479 7564887
1.8989862 0.38144475 0.071746588 7761237
1.900931 0.38392714 0.070894063 8614992
1.9033618 0.38568932 0.07103917 8417612
1.9050225 0.38804454 0.070474476 8811080
1.9065595 0.39044541 0.070485264 7168338
1.9078 0.39286759 0.07100141 7891023
1.9121015 0.3982414 0.069599271 5723477
1.9135426 0.40160456 0.070050389 6183758
1.9166589 0.40472984 0.068510383 7234374
1.8954399 0.38046339 0.06973809 9402183
1.8972883 0.38249168 0.069693208 9205835
1.8991119 0.38517082 0.069120705 9468491
1.9011134 0.38790944 0.068993241 9402960
1.9029037 0.38978401 0.06872645 9534030
1.9049227 0.3919242 0.068686128 8024156
1.9059676 0.3943446 0.068471819 7892319
1.9086345 0.3968437 0.067760557 6512218
1.9098773 0.39893177 0.068445444 5854549
1.8955262 0.38400441 0.067349672 9008726
1.8971536 0.3860139 0.067271292 9008728
1.8990014 0.38831919 0.067001671 8418913
1.9012306 0.39089215 0.067129433 8221796
1.9029887 0.39348853 0.066802144 7959396
1.9045908 0.39592749 0.066695809 7434599
1.9063148 0.39724413 0.066995054 7564384
1.8954891 0.38756284 0.066012233 7893861
1.8972408 0.38943815 0.066260368 7959397
1.8988538 0.3921175 0.065874428 7959397
1.9000192 0.39385879 0.065634876 8155745
1.9029812 0.39651504 0.065791547 8156259
1.9026374 0.37675285 0.079659343 5198677
1.9092681 0.38969272 0.074675471 6052163
1.9120367 0.3929188 0.075097322 7036999
1.9021062 0.38331574 0.074964285 4933960
1.9023207 0.38544932 0.075466216 4802381
1.9051878 0.38859269 0.074026376 5658192
1.9072123 0.39094096 0.074189544 6117448
1.9097357 0.39291298 0.074180007 6445373
1.9108951 0.39504203 0.073582977 6709065
1.9128608 0.39721036 0.074049443 6577745
1.898492 0.38293877 0.072525799 6710361
1.8996738 0.38495833 0.073521048 5986644
1.9016105 0.38667849 0.073161811 6775381
1.903447 0.38983303 0.073123991 5723732
1.9048221 0.39131778 0.072661221 7103311
1.9075491 0.39432698 0.072544575 7233864
1.9092778 0.39672986 0.072233111 7233857
1.910495 0.39899319 0.071950108 6709075
1.9120404 0.40136844 0.071919799 6512207
1.9138366 0.40428349 0.072049618 6643530
1.9154235 0.40616319 0.070845485 6381902
1.8947212 0.38173923 0.071467906 7696218
1.8964317 0.38406017 0.071600407 7696220
1.8978987 0.38624352 0.071745306 7301978
1.8996749 0.38810527 0.071928859 7301976
1.9013941 0.39082325 0.070932001 8549976
1.9036622 0.39251849 0.070931852 8614734
1.9047126 0.39542219 0.070717663 8549201
1.9068216 0.39726534 0.070266485 8482895
1.908831 0.40019134 0.070167035 7497042
1.9103037 0.40260127 0.070263386 6708818
1.9130943 0.4065091 0.070401996 6053722
1.9155623 0.40671992 0.070466757 7694408
1.8958648 0.38734266 0.069955617 8811854
1.8979052 0.38991472 0.069222838 9337166
1.899492 0.3923085 0.069697559 9206097
1.9017032 0.39454785 0.068829536 9336655
1.9037386 0.39654136 0.068499625 8811861
1.9052442 0.39902183 0.068354547 7958880
1.9068998 0.40155968 0.0679802 7892315
1.9087758 0.40380216 0.068375498 7694931
1.9107757 0.40630406 0.06827867 6577746
1.9119213 0.40867773 0.068591803 6644052
1.8956425 0.3911224 0.067526281 8746329
1.8973335 0.39303178 0.06730637 8549471
1.8990839 0.39560428 0.067112446 8483678
1.9013649 0.39813089 0.066887587 8221793
1.9035383 0.40065843 0.066897631 7893602
1.9049631 0.40293714 0.067016095 8221274
1.9062093 0.40549344 0.066876233 7695964
1.9088759 0.4080309 0.067318022 7432278
1.8970232 0.39716396 0.065780997 7827811
1.9000925 0.39926487 0.06592682 7762278
1.9009941 0.40213013 0.066030234 7892577
1.9083853 0.393868 0.078219056 5725276
1.9055763 0.39159673 0.076776296 5592661
1.9079859 0.39300692 0.076780677 5724762
1.9119221 0.3987354 0.07504335 6709331
1.9124473 0.40070903 0.075172663 5789528
1.8995191 0.38756928 0.074203163 5723731
1.9028921 0.39176285 0.073759973 4736845
1.9043044 0.39343709 0.074761897 5395278
1.9055054 0.3952235 0.075217694 5526610
1.9082828 0.39861488 0.073619515 8153399
1.910202 0.40126351 0.073079497 7889974
1.9113286 0.40250438 0.073289245 7168072
1.9126326 0.40507892 0.073765486 6446675
1.898258 0.39002186 0.071972847 6579284
1.8997161 0.39113161 0.072857231 5986898
1.9019486 0.39425597 0.073111713 6117971
1.9039778 0.39744458 0.072831452 7563858
1.9066002 0.39892185 0.072246432 8154444
1.9077891 0.40145656 0.072380632 7760199
1.9093733 0.40391862 0.072196305 7628102
1.911155 0.40633675 0.071983635 8022598
1.9135334 0.40844238 0.071459532 7234636
1.91537 0.41152996 0.071871877 6840648
1.9160922 0.41250303 0.071548104 5986646
1.9170712 0.41564101 0.071326077 5658446
1.9189939 0.41809705 0.071428686 5658189
1.8963195 0.39095691 0.071547925 7039318
1.8982344 0.3936716 0.071600914 7236440
1.9002248 0.39596197 0.071260989 8419164
1.9022866 0.39842695 0.071083754 8811854
1.9038421 0.40093103 0.070671022 9271368
1.905735 0.4032658 0.071186721 9008712
1.9076419 0.40520406 0.069761604 9139016
1.9095826 0.4072156 0.069855452 8745295
1.9112169 0.41006848 0.070053548 8219988
1.9128743 0.4121902 0.069685549 7563606
1.9148464 0.41483766 0.070186049 7235413
1.9169569 0.41658694 0.069050252 6118744
1.9177846 0.42000493 0.068700224 6906967
1.9204327 0.42269751 0.068644047 6644821
1.9220425 0.42500818 0.068642557 6579027
1.9234484 0.42708406 0.068525165 6513244
1.9258498 0.43071648 0.067561358 6645085
1.8965708 0.3945449 0.069592983 8943438
1.8984114 0.397214 0.069510251 9337164
1.9002498 0.39919999 0.06898731 9271116
1.9017469 0.40192175 0.068365306 9467980
1.9041336 0.40424511 0.067898959 8942932
1.9059559 0.4064382 0.067998558 8745554
1.9075223 0.40861997 0.068507135 8482386
1.9093637 0.41093057 0.068252683 8088662
1.9115107 0.41352192 0.068049818 7563864
1.9132565 0.41658407 0.067869335 7498580
1.9157593 0.41857421 0.0683842 7235925
1.9189051 0.42318788 0.067749172 7235925
1.9213511 0.4266319 0.067779005 7367510
1.8967735 0.39873734 0.067600816 8615259
1.8982588 0.40071052 0.067114353 8549723
1.9001807 0.40311661 0.066736996 8090211
1.9017115 0.40527287 0.067110121 8811607
1.9035529 0.40755945 0.066693246 7958107
1.9055083 0.41048712 0.066758037 7694937
1.9075958 0.41305718 0.066958785 7694683
1.9092829 0.41550291 0.066792399 7563866
1.9109269 0.41682044 0.067403525 7564122
1.8979926 0.40463373 0.065960795 7893346
1.9001976 0.40659314 0.065644622 7892829
1.9022079 0.40957922 0.065944374 7826779
1.9057245 0.39272356 0.080038846 5790297
1.9059148 0.39552823 0.077563345 5789527
1.9020158 0.39398909 0.075972617 4934734
1.9052986 0.39742386 0.076189578 5788759
1.9054909 0.39914268 0.076859146 5789012
1.9065685 0.40172857 0.076631874 5921107
1.9126574 0.40615064 0.075868368 6578774
1.9147205 0.41219181 0.075628102 7891783
1.9224383 0.42114025 0.075262398 6970422
1.9000754 0.39577043 0.073793918 5921102
1.9026731 0.39853024 0.074718237 5526094
1.904524 0.39997485 0.074328274 6446161
1.905491 0.40256432 0.073900342 6380370
1.9073303 0.40503797 0.07394138 6774606
1.9103709 0.40800816 0.073302001 7235149
1.9117984 0.41049325 0.073260576 7235402
1.9155359 0.41422808 0.072874784 6511689
1.9180318 0.41801491 0.072467893 7102529
1.9187112 0.41958979 0.073651701 7824446
1.9197508 0.42182916 0.072293788 6840900
1.9211737 0.42366388 0.072462022 6972226
1.8992501 0.39750105 0.072719365 6447698
1.9005734 0.40022856 0.073773056 5986896
1.9026513 0.40202531 0.073081911 7169623
1.9045649 0.40474519 0.072868049 6775123
1.9061995 0.40600878 0.072410673 7366478
1.9078157 0.40837526 0.072605014 6971978
1.9098107 0.41152573 0.072302371 7891782
1.9122565 0.41310474 0.071847677 7761228
1.9137784 0.41567394 0.071489543 8877125
1.9150691 0.41826025 0.07158342 8811332
1.9173148 0.42057806 0.071160436 7760457
1.9188102 0.42324004 0.071580499 7694922
1.9218154 0.42591003 0.071186185 5658198
1.9224589 0.42767063 0.070200503 6577241
1.9243808 0.43049097 0.070085406 6314073
1.8970903 0.39866957 0.071199447 7433305
1.8987079 0.40081021 0.071172208 8090199
1.9005193 0.40286788 0.070613563 8746578
1.9022361 0.40567166 0.07017681 9205835
1.9040999 0.40785927 0.070527405 9008457
1.9061787 0.41037664 0.070612609 9139269
1.908154 0.41269711 0.070338786 9270856
1.9099573 0.41500321 0.070041806 9073739
1.9116007 0.4171339 0.070014656 8942417
1.913851 0.41942057 0.069423586 8220245
1.9158219 0.42236707 0.069657207 8220243
1.9179583 0.42542499 0.069222361 8154968
1.920076 0.42651391 0.068736464 7563868
1.9220085 0.42888471 0.068512589 7366747
1.9238838 0.43186998 0.067778051 7433049
1.8970115 0.40260196 0.069182068 9402444
1.8979746 0.40457082 0.069393039 9271372
1.8998972 0.40675545 0.069280446 9533769
1.9022801 0.4093093 0.068662375 9336393
1.90425 0.41157678 0.068587244 9204812
1.9060943 0.41392741 0.067824453 8810837
1.9079487 0.41571039 0.068352282 8810836
1.909289 0.41815665 0.067579746 7891545
1.9117618 0.4205938 0.067831725 7826007
1.9131912 0.42304587 0.0667817 7563865
1.9150919 0.42452833 0.067254215 7563865
1.9167012 0.42708167 0.067107469 7563867
1.9183505 0.42943195 0.06717205 7629915
1.8983477 0.40796506 0.066984296 8745302
1.9002252 0.40984157 0.066944629 8416855
1.9026408 0.412774 0.066660255 8088663
1.9048727 0.41593978 0.066603243 7957084
1.906546 0.41751862 0.066498339 7760473
1.9081819 0.42027092 0.066367716 7563865
1.9101105 0.42300609 0.066110343 7563864
1.9118372 0.4253498 0.066094756 7563862
1.9139245 0.4270401 0.066293776 7498327
1.9153168 0.42916462 0.066533387 7563864
1.8983642 0.41153076 0.065920621 7694937
1.9010458 0.41378397 0.065818101 7563863
1.9032657 0.41728386 0.065873832 7629659
1.9050008 0.41962838 0.065928489 7695450
1.9049027 0.39463407 0.08089599 5658457
1.9054298 0.39792201 0.081294656 5856088
1.9057572 0.40114033 0.079510361 5987411
1.9028789 0.40064615 0.076079369 5000006
1.9118638 0.4127064 0.075814039 5066316
1.9149609 0.41547972 0.075063586 6511690
1.9186627 0.41961333 0.074725062 7759167
1.9212979 0.42268327 0.07509315 7496245
1.9214017 0.4249256 0.073951483 7562557
1.9230393 0.42704943 0.076049328 6052440
1.9016967 0.4031778 0.073981315 5920844
1.9029946 0.40497875 0.074093342 5591884
1.9046643 0.4071953 0.073658735 5394758
1.907135 0.40910965 0.074023932 5986638
1.9089543 0.41193405 0.073778331 5856082
1.9110087 0.41498712 0.072915196 6250323
1.9129921 0.41682756 0.073441386 6447702
1.9136842 0.42005196 0.073071539 6513491
1.9155687 0.42181322 0.072907835 6447443
1.9178835 0.42396495 0.072548509 7629645
1.9199502 0.4264794 0.072461814 7694922
1.9214759 0.42909497 0.072904795 7497803
1.9233361 0.43169683 0.072934717 7628875
1.8980461 0.4020564 0.072949886 6776149
1.8993593 0.40482837 0.072722673 7039064
1.9006057 0.40714145 0.073450685 6512977
1.9036293 0.40922502 0.073613822 6118220
1.9050148 0.41163361 0.072628796 7235666
1.907277 0.41438866 0.072173357 7366737
1.908783 0.41623968 0.072093189 7564115
1.9108278 0.4182435 0.072107852 8154959
1.9127237 0.42034331 0.071524084 8548937
1.9142364 0.42298833 0.071296811 8746061
1.9160622 0.42569619 0.071201235 9008459
1.9178364 0.42816383 0.071241111 8877389
1.9197055 0.43043473 0.07093367 9140045
1.8993776 0.40839463 0.071087927 8090198
1.90133 0.41069511 0.070434213 8483407
1.902537 0.41255695 0.070428073 8614475
1.9044412 0.41476992 0.070224166 8745804
1.9066825 0.41706693 0.070057064 9073736
1.9085128 0.41962793 0.069958538 9205066
1.9106421 0.42224506 0.069589198 9270344
1.9124138 0.42453668 0.069641054 9007945
1.9138761 0.42677796 0.069536895 9139018
1.9158713 0.42916125 0.069501579 9139018
1.9182439 0.43140656 0.069084048 8482904
1.8990942 0.41213986 0.068762064 9270343
1.9009087 0.4145627 0.068760037 9270344
1.9029952 0.41677979 0.06909743 9336135
1.9045472 0.41896614 0.069003224 9073483
1.906724 0.42132255 0.068616152 9007690
1.9083763 0.42356327 0.068663388 8876364
1.9100978 0.42580807 0.068155915 8613715
1.9120164 0.4281508 0.067885369 8285525
1.9141127 0.43045616 0.067964613 8351572
1.8993964 0.41607469 0.066653728 8154456
1.9015257 0.41834572 0.066335618 7826010
1.9025054 0.42065758 0.066422105 7826011
1.9049035 0.42262006 0.066385806 7628887
1.9064741 0.42502502 0.06637004 7563351
1.9089867 0.42710415 0.065873951 7432535
1.91027 0.4293178 0.066125423 7432536
1.9120286 0.43157887 0.066178232 7498327
1.8992376 0.41975278 0.065889478 7498074
1.9008932 0.42226067 0.065666556 7563866
1.9068935 0.42838067 0.065676868 7432535
1.9064643 0.4024674 0.082829654 5790555
1.9235003 0.42823103 0.077334374 6052447
1.9235536 0.43032202 0.07559517 6512472
1.9199967 0.43077761 0.073549777 6775890
1.9013402 0.41039875 0.073796988 6644303
1.9032437 0.41280267 0.073261678 6709838
1.9050584 0.41555524 0.073515773 6775887
1.9077092 0.41752699 0.073562592 6512718
1.9097906 0.42039862 0.0731197 7104338
1.9108409 0.42218205 0.073616862 6579027
1.9128901 0.42446738 0.073065937 7170132
1.9144884 0.42659822 0.072901726 7235924
1.9164134 0.42938212 0.073038191 7235670
1.9180211 0.43157497 0.072757095 7958099
1.8980101 0.40961635 0.072320789 6841173
1.9002084 0.41206047 0.07237947 6709843
1.9014828 0.41388401 0.072529584 6775635
1.9034413 0.41671225 0.072524011 7104084
1.9054387 0.41939524 0.072335243 7235668
1.9067416 0.42127755 0.07244572 7235667
1.909346 0.42315003 0.072128773 7761491
1.9112616 0.42598799 0.072218269 7695700
1.9127406 0.42832482 0.072077572 7761234
1.9149215 0.43076029 0.071616322 8155220
1.9163182 0.43247256 0.07084921 9074253
1.8996584 0.41547644 0.071097195 7826516
1.9018117 0.41820848 0.070459366 8417358
1.9032779 0.42026472 0.070412308 8614477
1.9046651 0.42224213 0.070440769 8614477
1.9067951 0.42463991 0.070145965 8614477
1.9087932 0.42622316 0.069224685 9336132
1.9109929 0.42911425 0.069590122 9205063
1.9128922 0.43226713 0.069178164 8942411
1.8993584 0.41901714 0.069292307 9336390
1.9017434 0.4213607 0.068842441 9204810
1.9035113 0.42396224 0.068591923 9139275
1.9053631 0.42621064 0.068586588 9073482
1.9070324 0.42807889 0.068547577 9007950
1.9087601 0.4306719 0.068208665 9007950
1.9106144 0.43293974 0.067680746 8811348
1.8995894 0.42272541 0.067047805 8219992
1.9017011 0.42536506 0.066832006 8154199
1.9035541 0.42739239 0.066245109 7628890
1.9050654 0.42953354 0.066328347 7629147
1.906844 0.43239251 0.066462129 7563866
1.9014111 0.42852592 0.065533578 7563864
1.9030207 0.4308365 0.065531939 7629913
1.9047866 0.40106389 0.087242901 5395804
1.9077426 0.42497939 0.073258847 6972497
1.9122916 0.42992613 0.072645575 7169619
1.912498 0.43192497 0.073025554 7103830
1.8987584 0.41696173 0.07238552 6972499
1.899377 0.41911241 0.072466165 6906962
1.9016042 0.42138481 0.072535306 6906706
1.9040171 0.42312431 0.072838068 6906961
1.9054236 0.4260596 0.072734445 6906961
1.9076779 0.42876264 0.071604013 7366995
1.9100584 0.43101969 0.071683794 7366996
1.9002078 0.42275774 0.070635915 8286545
1.90222 0.42502087 0.070691079 8286028
1.9039506 0.42714897 0.070004791 8614474
1.9054523 0.4297148 0.069766283 8877131
1.9074882 0.43227321 0.069567084 8745804
1.9003352 0.4264949 0.069110543 9467720
1.9020841 0.42898911 0.068703085 9073742
1.9033941 0.43122116 0.068355501 9205327
1.9056342 0.4332267 0.068437994 9336398
1.9023355 0.4326607 0.066611528 8023132
1.9002062 0.43370503 0.065567076 7629402
1.9026861 0.39525065 0.091792285 5000289
1.9075271 0.43153578 0.072330058 6906963
1.8991911 0.42407176 0.072288215 6840912
1.9005675 0.42607328 0.072459996 6906706
1.9021996 0.42815405 0.072280526 6906962
1.9040782 0.43121764 0.071906507 6906706
1.9061645 0.43341139 0.072396517 6972499
1.8998556 0.43041402 0.070950389 7891793
1.9027066 0.43223298 0.070465267 8351565
1.9004155 0.43392015 0.068791419 9205325
1.9013087 0.43376443 0.071679056 7038036
1.9428657 0.35127115 0.23487264 5261639
1.9398825 0.34993768 0.23427615 4406601
1.9384551 0.35092551 0.23245594 3617875
1.9432876 0.34959137 0.24046746 5391178
1.9410408 0.35084394 0.23795694 5064777
1.9421537 0.35201156 0.23767674 4867665
1.9369032 0.34913287 0.23566628 5194823
1.9395288 0.35148928 0.2357749 4604494
1.9341192 0.35134032 0.23475611 5856101
1.9370569 0.35188904 0.2342816 3948373
1.9333375 0.35218391 0.23272562 5658978
1.9358084 0.35180217 0.23248854 4079185
1.930896 0.35258678 0.23024186 5262686
1.9277797 0.35291475 0.22942793 4801366
1.9472394 0.35439944 0.24415007 5394268
1.9423212 0.35039476 0.24071369 5391944
1.9430915 0.3525975 0.24223572 5392717
1.9400445 0.35200542 0.24024945 6577502
1.9410642 0.3531357 0.24002209 4868446
1.9372742 0.35229906 0.23809013 6512747
1.9394331 0.35294199 0.23796052 4605533
1.9342791 0.35194302 0.23578662 6774889
1.9348124 0.35301632 0.2370052 7367289
1.9318578 0.3527025 0.23490211 6380391
1.929728 0.35341117 0.23259133 5394278
1.9269764 0.35390228 0.23022246 4736088
1.9274514 0.35506949 0.23188576 4933471
1.9249473 0.35500541 0.23009101 4406872
1.9448671 0.35441947 0.2457802 5327439
1.9415814 0.35339159 0.24421474 5393498
1.9420981 0.3555215 0.24488109 5066078
1.9384145 0.35335696 0.24205309 6117220
1.9399304 0.35361722 0.24285474 6051166
1.9362055 0.35384211 0.24052194 6445931
1.9330401 0.35398924 0.23698774 7170438
1.933705 0.35461494 0.23913351 6314085
1.930872 0.35465196 0.23677489 6050653
1.9316626 0.35535848 0.23763147 5722731
1.9286377 0.35615379 0.23508373 5131361
1.9269009 0.35668334 0.23311812 5131108
1.9231323 0.35693225 0.23024553 4144466
1.9245207 0.35725725 0.23158157 4407641
1.9220103 0.35883051 0.23053288 4144212
1.9423318 0.35535178 0.24748993 6181465
1.9440181 0.35591823 0.24801597 5984596
1.9465132 0.35870481 0.24646357 5131855
1.9406699 0.35537431 0.24601987 6051166
1.9422891 0.35692599 0.24621904 5394274
1.9441994 0.35782376 0.24610379 4934747
1.9371192 0.35535806 0.24473578 6510426
1.9385478 0.35557318 0.24500224 6051169
1.9353249 0.35565174 0.24299619 6445151
1.9310597 0.35564807 0.24004814 6378060
1.9327607 0.35621464 0.24129772 6248286
1.9274234 0.35371384 0.23793286 6050134
1.9291875 0.35607529 0.23898071 6116181
1.9306837 0.35745245 0.2391974 5394015
1.9259293 0.35515502 0.2369518 5393228
1.9275974 0.35709223 0.2372835 5262423
1.928385 0.35881674 0.23769009 5000029
1.924387 0.35691035 0.23654249 5261394
1.9261078 0.35861319 0.23508734 4934241
1.9258823 0.3600488 0.2355836 4736866
1.9237373 0.35945621 0.23375276 4407899
1.9212248 0.35969898 0.23179659 4341850
1.9185028 0.36032531 0.23056999 4276057
1.9203851 0.36138225 0.23012397 4472661
1.942157 0.35748091 0.24997768 6445662
1.9448813 0.35860088 0.25052422 6445397
1.9391352 0.35675502 0.24764845 6773592
1.9403615 0.35808 0.24873665 6117476
1.9368331 0.35745543 0.24686748 6313562
1.9336904 0.35707736 0.24465427 6444889
1.9348981 0.35794839 0.24594456 6313307
1.9301093 0.35627779 0.24303547 6246735
1.931452 0.35770395 0.24337369 6314083
1.9326003 0.36049375 0.24401242 5921128
1.9278616 0.35684144 0.24141726 6314070
1.9292986 0.35882491 0.24142787 5854304
1.93143 0.36005831 0.24154374 6118004
1.9263673 0.35862985 0.23961562 5722194
1.927142 0.35996172 0.23937082 5197667
1.9223611 0.35860786 0.23718691 5722197
1.9240947 0.35992491 0.23758122 5065304
1.9255226 0.36088404 0.23739582 4671069
1.9212857 0.35950035 0.23744488 6051676
1.9221082 0.36071903 0.23574144 4408411
1.9182703 0.360616 0.23358402 5066082
1.9204681 0.3614668 0.23429608 4539998
1.9170246 0.36078224 0.23237514 5066335
1.9167755 0.36284271 0.23230925 5592169
1.9454024 0.36129272 0.25396818 6774115
1.9414575 0.35967764 0.25252604 7299934
1.942928 0.36097154 0.25280896 6643302
1.9450489 0.36165032 0.25222549 6774112
1.937969 0.35871765 0.24978888 6641749
1.9392329 0.3597523 0.2509234 6708579
1.935699 0.35910442 0.24887872 6247768
1.9369467 0.36017591 0.24971586 6642523
1.9326707 0.35853279 0.24655455 6313563
1.933423 0.3598465 0.24770305 5918542
1.9343634 0.36235136 0.2475937 5461101
1.9305158 0.3595807 0.24536654 5919579
1.9315882 0.36135581 0.24583849 5788262
1.9273602 0.35865632 0.24327984 6116173
1.9282734 0.3606056 0.24375677 5788510
1.9296823 0.36158779 0.24434119 6315142
1.9253812 0.36013982 0.24115887 5721933
1.9258429 0.36148924 0.24186566 5525597
1.9229754 0.36147821 0.23957372 5065306
1.9236606 0.36242533 0.24006647 5394531
1.9208888 0.36226454 0.23811799 5065566
1.9211161 0.36503267 0.23732936 4343125
1.9183427 0.36326542 0.23593009 4934759
1.9211837 0.36478961 0.23554438 3685967
1.9157861 0.36330798 0.23405713 5855856
1.9160845 0.36415204 0.23426157 5790067
1.9179968 0.36642116 0.2352576 3159628
1.9440331 0.3621937 0.25653878 7234663
1.9457316 0.36210388 0.25683928 6906724
1.9395404 0.36134994 0.2543686 7168864
1.9414027 0.36223689 0.25474054 7300197
1.9365063 0.36017117 0.25241151 6379615
1.9383045 0.3613134 0.25288621 6970969
1.9400004 0.3635301 0.25352058 6972270
1.9334775 0.35887387 0.24998039 7037036
1.9346302 0.36090341 0.25126544 6182749
1.9358475 0.36218223 0.25143757 6510420
1.9310158 0.35943505 0.24965665 6511464
1.9325036 0.36177552 0.24946448 5656147
1.933934 0.36369139 0.24943388 5591903
1.9370227 0.36701989 0.24925774 5132654
1.9295009 0.36107552 0.24725184 6050388
1.9305217 0.36273396 0.24765223 5459548
1.9273362 0.36237863 0.24557817 5590871
1.9281473 0.36359009 0.24652678 5525082
1.9248797 0.36325097 0.24383274 5196892
1.9264655 0.36473781 0.24418268 5786444
1.9216998 0.36332789 0.24172372 4671063
1.9225447 0.36400843 0.24192056 5262432
1.919627 0.36444086 0.23989058 5262697
1.9208328 0.36466399 0.24021482 5000543
1.9175084 0.36523956 0.23846117 4803694
1.9193726 0.36569408 0.23823792 3817049
1.9152298 0.36582685 0.23659685 5395832
1.9155834 0.36860111 0.23629799 4409184
1.9133822 0.36473203 0.23410833 5920885
1.9132307 0.36736107 0.23468307 5921400
1.9152062 0.37000635 0.23575625 4805217
1.9107057 0.36688587 0.23290145 5526374
1.91153 0.36803257 0.23357493 5724013
1.9421033 0.36369106 0.25845587 7103069
1.9439285 0.36484283 0.25867397 7168093
1.9385742 0.36278534 0.25663659 7037019
1.9405123 0.36351287 0.25714239 7365982
1.941672 0.3657085 0.25730821 7104624
1.9369885 0.36283353 0.25531924 6642775
1.9381621 0.3647826 0.25528038 7169375
1.9329631 0.36220387 0.25300404 6248280
1.9348465 0.36390972 0.25346407 6050901
1.9356523 0.36596367 0.25360715 5395046
1.9297001 0.36128911 0.25018075 6315367
1.9310851 0.36300784 0.25153354 6116441
1.9325733 0.36533794 0.25172007 5590871
1.9342244 0.36648664 0.25154927 5263725
1.9280156 0.36248985 0.24953336 5986145
1.9294996 0.36434397 0.24953648 5590878
1.9306926 0.36653772 0.24982592 5721939
1.9312652 0.36940876 0.24997479 6311997
1.9260652 0.36391675 0.24790072 5394789
1.9273267 0.3654902 0.24765086 5327960
1.929132 0.36686045 0.24861646 5917250
1.9238219 0.36521897 0.24575028 5263200
1.9251574 0.36682323 0.24685103 5590880
1.9218568 0.36372039 0.24395055 5197404
1.9217477 0.36604294 0.24415901 5328738
1.9184668 0.36593899 0.24158046 5526895
1.9195621 0.36653787 0.24258846 5329510
1.9167982 0.36677933 0.24048948 5658741
1.9175062 0.36808148 0.24040774 5461102
1.914571 0.36775178 0.23822394 6250879
1.9151529 0.36911768 0.2391279 5724534
1.9128544 0.36938024 0.23630562 5921917
1.9133661 0.37064126 0.23710337 5791350
1.9112313 0.3704809 0.23436472 5592943
1.9112877 0.37172362 0.23589218 5791097
1.9090198 0.37079579 0.23269734 4869469
1.9098547 0.37331811 0.2336742 5132392
1.9436921 0.36644161 0.26286605 7497833
1.9394817 0.36415017 0.26153409 6512230
1.9419765 0.36588845 0.26132873 7826275
1.9390129 0.36527556 0.25905105 7497308
1.9413863 0.36616904 0.25938925 7826269
1.9354377 0.36448696 0.25724187 6445403
1.9369899 0.36615935 0.25743786 6906205
1.9319369 0.36386883 0.25481609 6379612
1.9332963 0.36492571 0.25591215 6313817
1.9350957 0.3673439 0.25544572 6050905
1.9370776 0.36845315 0.25592723 5789804
1.9301355 0.36440805 0.25355858 6116439
1.9313152 0.36705124 0.25395972 5788509
1.9333735 0.36790243 0.25461078 5722462
1.9282361 0.36607227 0.25194219 5657181
1.9296012 0.36750624 0.25187451 5262950
1.9312918 0.36907557 0.25189796 6509376
1.9249631 0.36540604 0.24983299 5328737
1.9262938 0.36695984 0.25011238 5394273
1.9274297 0.36955002 0.25002331 5721687
1.928712 0.37082493 0.25125396 5525098
1.9224133 0.36676076 0.24839112 4671324
1.9239588 0.36821771 0.24811867 5591396
1.9257683 0.37053484 0.24864706 5130854
1.9208909 0.36768532 0.24609333 5066340
1.9216647 0.36930007 0.24752527 5789032
1.9242873 0.37194026 0.24762937 5000038
1.9186904 0.36858875 0.24490109 5460844
1.9165517 0.36958081 0.24286598 5724791
1.9139825 0.36902645 0.24032503 7501180
1.914342 0.37067589 0.24104714 6119805
1.9125065 0.36954349 0.23885423 7434873
1.9123305 0.37221354 0.2389752 6382717
1.9096171 0.37245494 0.23588347 6185594
1.91047 0.37326601 0.23719043 6119547
1.9082586 0.3730334 0.23589331 6251634
1.9088748 0.37492198 0.23530102 5330284
1.9433602 0.36660478 0.26493213 7694185
1.9393344 0.36518881 0.26292759 6643819
1.9410936 0.36673692 0.26314285 7826014
1.9376011 0.36662638 0.26130998 7234402
1.9386138 0.36832741 0.26094648 8087381
1.9344923 0.36631978 0.25871068 7432813
1.935673 0.36753851 0.25973326 6773335
1.9365282 0.36927614 0.26075223 6378577
1.9325007 0.3669126 0.25769091 6380124
1.9339602 0.36871764 0.25785533 6379872
1.9284271 0.36733913 0.25631154 6315364
1.9303463 0.36784303 0.25594583 5789285
1.9315234 0.36973238 0.25622061 6379610
1.9269958 0.36705002 0.25455987 5657950
1.9282902 0.36886129 0.25413832 5460575
1.9246675 0.36823657 0.25243354 5001321
1.9276874 0.37060457 0.25233755 5721939
1.9212044 0.36812562 0.24960044 5131620
1.9223578 0.36969191 0.2506578 5066088
1.9196779 0.36939266 0.24814478 5724010
1.9205288 0.37032411 0.24870265 5657962
1.9171869 0.37097555 0.2463946 5921399
1.9183426 0.37123668 0.24707174 5526897
1.915547 0.37161908 0.24519283 5790586
1.9157987 0.37339035 0.24426264 6184574
1.9134773 0.3726832 0.24272367 6383490
1.9140316 0.37396273 0.24293208 5987963
1.9117115 0.37441343 0.2408908 6712197
1.9123908 0.3758167 0.24128702 5528185
1.9098407 0.37543923 0.23888415 5856890
1.9104725 0.37685841 0.23938718 4737900
1.9079517 0.3766076 0.23722285 6580861
1.9097621 0.37854716 0.2361519 4276584
1.9075541 0.37975174 0.23500794 6185593
1.9436203 0.3683266 0.26918918 6969686
1.942362 0.36780471 0.26726586 7496795
1.9368191 0.36541948 0.26546195 6841714
1.9402714 0.36859009 0.2652823 7496544
1.9357822 0.36765864 0.26352826 7498354
1.938201 0.36993155 0.26367146 6904405
1.9333717 0.367737 0.2623736 6776693
1.9340305 0.36938184 0.26163062 6773595
1.9363774 0.37067154 0.2615369 6444112
1.931349 0.36889473 0.25976071 6643813
1.9319527 0.36979875 0.26011568 6380903
1.9267914 0.36782578 0.25699562 6249058
1.9286611 0.3691034 0.25821459 6249574
1.9304098 0.37044618 0.25855914 5920869
1.9258052 0.3690145 0.25647432 5789549
1.9266785 0.37060151 0.25681651 5395830
1.9230251 0.36998889 0.25367337 5132654
1.9241788 0.3714788 0.25522983 5526638
1.9209045 0.37121156 0.2523528 5395056
1.9222904 0.37325925 0.25283164 5657961
1.9184297 0.37024087 0.25032791 6841713
1.9195126 0.37166771 0.25074524 6119024
1.9204569 0.37440956 0.2511816 5856368
1.917545 0.37333539 0.24896267 6382456
1.9182855 0.37628311 0.24913567 6119808
1.9155533 0.37283587 0.24689656 6250622
1.9153732 0.37454039 0.24662495 6185599
1.9166228 0.37632427 0.24783462 6382724
1.9132417 0.37424257 0.24474773 7172490
1.913462 0.37585261 0.24490798 6514823
1.9106793 0.37576354 0.24237776 6581133
1.9116547 0.37717044 0.24326965 6909319
1.9085348 0.37702611 0.24074519 6844037
1.9099145 0.37844566 0.2415286 5724797
1.9076444 0.3795543 0.23890367 6712706
1.9068431 0.38033745 0.23757637 6515324
1.9416162 0.37072623 0.26811445 6839895
1.9395945 0.37076482 0.26690283 6444629
1.9404269 0.37163237 0.26763785 6313298
1.9423423 0.37612692 0.266258 5524832
1.9440023 0.37603548 0.26706171 5655909
1.9372648 0.37158281 0.26564106 6378837
1.9399388 0.37550485 0.26522931 4868688
1.9321368 0.36853731 0.26298335 6120057
1.9329487 0.3705315 0.26381755 6315114
1.9350531 0.37260306 0.26394781 6510944
1.9371715 0.37566787 0.26337972 4803675
1.9293201 0.37107009 0.26185974 6775913
1.9310492 0.37139362 0.26239228 6118759
1.9275001 0.37117061 0.25992373 5987697
1.9296515 0.37261143 0.26048589 6183523
1.9254494 0.37201241 0.25817212 6052719
1.9240147 0.37342772 0.25645825 5855856
1.9239972 0.37517792 0.2565611 5725042
1.9221214 0.37484029 0.25475532 5987180
1.9228514 0.37598854 0.25551093 5396336
1.9177711 0.37469593 0.25213319 7236736
1.9203074 0.37602195 0.25254744 5790581
1.9206762 0.37761426 0.25190207 7104891
1.9161882 0.37479272 0.25115451 7170949
1.9178621 0.3773154 0.25141594 6054274
1.9143184 0.37602282 0.2491329 7565963
1.9157745 0.3778488 0.2491028 6777482
1.9126589 0.3775855 0.24696654 7632531
1.9133961 0.37902853 0.24734414 6909072
1.9107027 0.37898767 0.24524504 7238549
1.9083743 0.37991482 0.24309784 7173528
1.9068129 0.38108036 0.24173629 6713995
1.94021 0.37027821 0.27205744 6575443
1.9372767 0.37154257 0.268399 6181471
1.9337161 0.37132272 0.26846215 6445658
1.9353236 0.37231889 0.26819137 6444887
1.932701 0.37289977 0.26834905 6248286
1.9334649 0.37419769 0.26532549 5790321
1.9353043 0.37533095 0.2673043 5724784
1.9354402 0.37845147 0.26618445 5131885
1.9305887 0.37349877 0.26403269 5396336
1.9312053 0.37522671 0.26517451 5527419
1.9354259 0.37705773 0.2638526 5197930
1.9275898 0.37409404 0.26268223 5528441
1.929322 0.3763552 0.26436138 5659007
1.9255942 0.37336221 0.26006198 5725567
1.9260737 0.3756274 0.26060003 6315118
1.9241321 0.3746092 0.25829616 6446186
1.9238199 0.37665918 0.25930586 6250359
1.9215574 0.37648773 0.25587022 5987185
1.9218632 0.37774292 0.25727949 5725047
1.9193996 0.37770319 0.25439981 6250873
1.9196392 0.37909347 0.25516272 5790590
1.9164312 0.37671179 0.25248033 7368068
1.9165207 0.3792614 0.25292096 6317451
1.9171942 0.38030159 0.25448546 6185354
1.9145788 0.37959087 0.25059897 6909326
1.9120312 0.38064367 0.24929476 7501468
1.9102618 0.38080287 0.24667579 7567772
1.9104867 0.38281074 0.2475875 7173785
1.9078763 0.38191831 0.24455687 6977434
1.9085009 0.38302684 0.24578819 6714260
1.9062407 0.38282296 0.24249503 5990791
1.9415121 0.37248641 0.27422908 6772561
1.9402298 0.37381542 0.27379414 6510167
1.9394203 0.37634131 0.27407327 6314068
1.9373755 0.37470895 0.2716971 6576213
1.9384868 0.37750536 0.2718907 5919063
1.9355712 0.37300044 0.27043286 6378572
1.9362135 0.37659767 0.26955658 5592170
1.9366726 0.3785063 0.2699911 5658989
1.9324565 0.37607518 0.26810357 5527921
1.9338603 0.37788779 0.26905274 5461613
1.9305143 0.37715256 0.26684693 5462138
1.9270828 0.3758674 0.26341861 5791361
1.9279251 0.37810546 0.26517379 5527933
1.9254293 0.37701645 0.26231727 5856897
1.9256144 0.37928241 0.2630288 5724796
1.9228618 0.37858164 0.26062971 5856640
1.9238598 0.37973097 0.26204216 5856126
1.9208561 0.38052639 0.25929919 5725057
1.9221773 0.38074151 0.26002026 5856639
1.9192227 0.38033977 0.25688195 5790595
1.9179974 0.38080314 0.25559595 5922438
1.9415045 0.37738466 0.27787566 7232595
1.9403969 0.37763858 0.27672067 6575440
1.9364494 0.37762302 0.27333811 6248549
1.9385815 0.37874821 0.27462414 6182232
1.9351093 0.37855595 0.27196524 6380650
1.9360777 0.38070282 0.27308956 5657701
1.9326812 0.3798039 0.27057362 5395818
1.9349802 0.37925512 0.27028713 5065831
1.9305929 0.38013136 0.26882532 5330288
1.927702 0.38054281 0.26606873 5461621
1.9285264 0.38142011 0.26764721 5395830
1.9258778 0.38084862 0.26523459 5789563
1.9237697 0.3819752 0.26248965 5789823
1.9414685 0.37775916 0.28236097 8154211
1.941119 0.37843147 0.27997333 7562843
1.9394486 0.37952623 0.27810559 6707022
1.9391098 0.38075909 0.27939826 6840147
1.9373889 0.3807258 0.27613512 6050131
1.9374243 0.381841 0.27680624 6313304
1.9348911 0.38135985 0.27449769 6051949
1.9319487 0.38147676 0.27250293 5066858
1.9325759 0.38172391 0.27291316 5395313
1.9301989 0.38188687 0.27057877 5263985
1.92997 0.38390654 0.27129418 5724542
1.9272084 0.3828285 0.26883402 6118783
1.9242756 0.38280013 0.26703686 6579076
1.9249995 0.38411501 0.26833704 6974343
1.9411511 0.37748063 0.28492877 8286831
1.9394634 0.37943244 0.28252882 7168610
1.9378488 0.38137347 0.28089151 6708578
1.9358102 0.38169163 0.27853939 6446697
1.9374999 0.38220543 0.27900034 6905442
1.9340646 0.3831369 0.27672663 5790060
1.9315163 0.384031 0.27473825 5197426
1.928993 0.38537028 0.27324277 6250621
1.9267423 0.38498172 0.27030656 6777224
1.9274197 0.38579181 0.27216396 7106695
1.9254384 0.3859764 0.269795 7435663
1.9413236 0.37797973 0.28700316 7760486
1.9398022 0.37952954 0.28643346 7366252
1.9404964 0.38273242 0.28668904 5197156
1.9384596 0.38112223 0.28478622 7103342
1.9380667 0.3824403 0.28249121 6840683
1.9356531 0.38395631 0.28090492 5528179
1.9323972 0.38452592 0.27887633 5394537
1.9306873 0.38641757 0.2773636 5657961
1.9289602 0.38721129 0.27508232 7105931
1.9265183 0.38726595 0.27275082 8028061
1.9388398 0.38092062 0.28800732 6709100
1.9398736 0.38258424 0.28968263 5328486
1.9386778 0.38507217 0.28523713 5197940
1.9318864 0.38537279 0.28026125 5525868
1.9541343 0.3690865 0.31009918 4736632
1.951985 0.37062174 0.30826819 3222399
1.9545352 0.36946195 0.31182796 4735858
1.9529586 0.37379327 0.31157067 4539229
1.9539194 0.36937854 0.31610173 4736116
1.9537803 0.37407869 0.31321564 3683190
1.9544209 0.37005681 0.31902552 4735594
1.9515541 0.37249896 0.31726778 3421035
1.9510295 0.37368837 0.32635745 2502259
1.9502091 0.37348861 0.32492509 3617144
1.9546242 0.37306848 0.32957527 4866666
1.948209 0.37311366 0.32747737 3817061
1.9510012 0.37697774 0.32924196 5788503
1.9427234 0.38442436 0.32492685 6577508
1.9532385 0.38312799 0.33745271 4671576
1.9417044 0.38329601 0.32883257 10063219
1.9406755 0.38375992 0.3282356 9800314
1.9406044 0.3845529 0.32666832 8155520
1.9532241 0.38408336 0.34029123 2367854
1.9518448 0.38311365 0.33950263 3423638
1.938311 0.3853853 0.32968003 11051172
1.9378459 0.38519862 0.32762441 9407375
1.9496654 0.38461846 0.34060639 4673643
1.9520242 0.38469902 0.34063822 2368616
