# .PCD v0.7 - Point Cloud Data file format
VERSION 0.7
FIELDS x y z rgba
SIZE 4 4 4 4
TYPE F F F U
COUNT 1 1 1 1
WIDTH 1113
HEIGHT 1
VIEWPOINT 0 0 0 1 0 0 0
POINTS 1113
DATA ascii
0.24634731 0.45800352 0.0019231439 1988128
0.24753559 0.46076444 0.0021165013 3303226
0.24954046 0.46201584 0.0032016039 4552263
0.22790211 0.43757677 0.003251493 6708224
0.22974144 0.44028181 0.0028159618 8945709
0.23593669 0.44766593 0.001345098 9804641
0.23631009 0.45093167 0.0019897223 7176516
0.23858856 0.45198688 0.0011178851 7044670
0.24041954 0.453971 0.002609849 3693858
0.24257053 0.45710808 0.0016277432 2577950
0.23307788 0.44814429 0.00057780743 9672541
0.2353611 0.45030466 0.00090706348 8621649
0.23644158 0.45325422 0.00049054623 6847546
0.23924069 0.45536131 0.00020509958 5336363
0.21765906 0.43009937 0.0022030473 7036719
0.21888521 0.4319028 0.0019127131 6839340
0.22072452 0.43460783 0.0014771223 6444572
0.22256385 0.43731284 0.0010415316 5984768
0.22379008 0.43911618 0.00075113773 6050560
0.2276019 0.44432515 -0.00080680847 7366960
0.22932215 0.44731215 -0.00029695034 9539924
0.23059733 0.4509536 -0.00078421831 9475420
0.23295386 0.45190439 -0.00083863735 9015896
0.22107606 0.43911079 -0.0016515851 6707756
0.22185369 0.44144061 -0.0013242364 6378778
0.22370932 0.44283837 -0.0014756322 6379285
0.22511387 0.44559866 -0.00075238943 8353836
0.22665754 0.44771513 -0.0026816726 8419627
0.22760686 0.45069584 -0.0013760924 9737819
0.21228257 0.43229011 -0.0015920997 7036983
0.21447933 0.43483192 -0.0015320778 6970931
0.21686026 0.43749705 -0.0014432669 6905134
0.21896045 0.43920371 -0.0020527244 6904872
0.2194391 0.44255102 -0.0012151003 6115857
0.2213054 0.44482711 -0.0015489459 6774289
0.22296622 0.44657534 -0.0029981136 7102740
0.20915931 0.43083388 -0.0021061897 7036722
0.21238165 0.43559584 -0.0010997653 7036723
0.21440187 0.43851164 -0.0032508373 7298863
0.216763 0.43917498 -0.0027979612 7167532
0.21792026 0.44294348 -0.0048128366 6969895
0.21871838 0.44580036 -0.0033984184 6444557
0.20695192 0.43351695 -0.0039825439 7364910
0.20873465 0.43495533 -0.0041890144 7364659
0.21071014 0.43714806 -0.0038222075 7364652
0.21090664 0.44017294 -0.0046626925 7298862
0.21453759 0.44151831 -0.0048403144 7167530
0.20362039 0.43172395 -0.0038049817 7167529
0.20425841 0.43295535 -0.0048280358 7233327
0.20861277 0.43926397 -0.0048413873 7298866
0.3830885 0.58198071 0.011696637 4160881
0.38489994 0.58464468 0.011267662 4292976
0.38665566 0.58722675 0.01085186 4161127
0.38846707 0.58989084 0.010422885 2981740
0.38963759 0.59161222 0.010145724 3508084
0.37098595 0.56881309 0.012536585 4357993
0.37394005 0.57315749 0.011837006 3834721
0.37575144 0.57582158 0.011408031 3900257
0.37750718 0.57840359 0.010992289 4423788
0.37931859 0.58106768 0.010563314 4292208
0.3660976 0.56773269 0.010944128 4553572
0.36732376 0.56953603 0.010653734 4553572
0.37089095 0.57478225 0.0098090172 3768671
0.35702878 0.56050467 0.010341644 4159844
0.35825497 0.56230801 0.01005125 4818030
0.36003855 0.56493109 0.0096288323 4620387
0.3618221 0.56755418 0.0092064738 4619108
0.36304834 0.56935751 0.00891608 4487522
0.39246076 0.61451185 -0.00088113546 5086575
0.39404684 0.61718506 -0.00031071901 5415542
0.39834964 0.62496752 -0.0016173124 5215857
0.3279075 0.52160877 0.012883306 3831903
0.32922494 0.52463472 0.013373613 3044683
0.33045113 0.52643812 0.01308322 3702612
0.33223471 0.52906114 0.012660801 3700315
0.33358008 0.53212804 0.013144493 4158054
0.33536366 0.53475118 0.012722135 4158054
0.33714721 0.5373742 0.012299776 4947570
0.33837342 0.5391776 0.012009382 3962484
0.34065354 0.54180527 0.010934591 4224600
0.34299192 0.54488152 0.010113358 4421718
0.3447755 0.54750454 0.009691 4224862
0.34600168 0.54930794 0.0094006062 3963230
0.34757063 0.5506258 0.008299768 3569758
0.34929818 0.55385917 0.0084011555 3898466
0.35035682 0.55680132 0.0091714859 4291665
0.35152727 0.55852264 0.0088943243 4357458
0.35333869 0.56118661 0.0084654093 4553308
0.36358663 0.57689047 0.0034219623 4821862
0.36723098 0.58254582 0.0024141669 5085546
0.37036276 0.58631629 0.0026887655 5086056
0.37186226 0.58763224 0.0020409226 5152110
0.37279671 0.59098291 0.0025510192 5349487
0.37554112 0.592305 0.0018953085 5218417
0.37876025 0.59846908 0.00073605776 5218675
0.3804087 0.6003986 -1.8894672e-05 4691556
0.38099337 0.6030125 0.00050079823 5350003
0.38302025 0.60605174 0.00015413761 5021548
0.38497162 0.60859323 -6.6161156e-05 4627303
0.38709575 0.61025262 -0.00074201822 5087858
0.38813353 0.61296493 -0.00047618151 5154420
0.39068216 0.61447626 -0.0010361075 5745026
0.39135984 0.61796802 -0.00035500526 5219190
0.39409965 0.62035954 -0.0013344884 4757358
0.39626172 0.62214094 -0.0018494725 3440987
0.39703605 0.62386596 -0.0037769675 544287
0.39988536 0.62865376 -0.0029232502 3043148
0.40103856 0.63123506 -0.0039942265 1660471
0.40170783 0.63414073 -0.0050940514 1527343
0.32127094 0.51904607 0.012506962 4160364
0.32244137 0.52076745 0.0122298 3897673
0.32391164 0.52329254 0.012148976 3635020
0.32562605 0.52653944 0.012277901 3503447
0.34538469 0.55559808 0.0075987577 3963484
0.35020271 0.5620836 0.0042023659 4557405
0.3525764 0.56621838 0.0042960644 4689249
0.35530075 0.56623113 0.0045149326 4689504
0.35773137 0.57190126 0.0033983588 4821091
0.35866618 0.57621282 0.0034379363 4493154
0.36139053 0.57622564 0.003656745 4559203
0.3629503 0.58138001 0.0028572083 4821860
0.36488807 0.5822072 0.0025394559 4953960
0.3656421 0.58533698 0.0016742945 4690529
0.36767372 0.58620441 0.0016250014 4822115
0.37053338 0.59056354 0.0025116205 5218159
0.3708204 0.59334767 0.00055801868 4821347
0.37250888 0.59449959 0.00044608116 5084517
0.37494808 0.59674543 0.00082921982 5086055
0.37754184 0.59914005 -0.00024271011 4822369
0.37750158 0.60258687 0.00053793192 5020523
0.38009098 0.60486645 0.00024873018 4691813
0.39494801 0.62740648 -0.0034862757 2321732
0.3964372 0.62880498 -0.0044223666 609820
0.39870673 0.63100493 -0.0057985783 1133341
0.40265042 0.63894951 -0.0072368979 3296302
0.41282308 0.65507132 -0.0092434883 10718272
0.31243348 0.51116848 0.011120439 4157022
0.31360391 0.51288986 0.010843277 2714174
0.31661367 0.51731622 0.010130525 3633989
0.31797895 0.52036309 0.01057297 3699557
0.33839563 0.54826474 0.0048971176 4490844
0.34142721 0.55228108 0.0047600865 4425306
0.34444222 0.55834198 0.0036132932 4359776
0.34801221 0.56162369 0.0042179823 4425566
0.35038474 0.56600344 0.0043125749 4623455
0.35248417 0.57017821 0.0042539835 4689248
0.35431612 0.57104629 0.0037435293 4821092
0.3570255 0.57542789 0.0037572384 4558690
0.36026192 0.5811457 0.0017930865 4689504
0.36273348 0.58322394 0.00051355362 4623193
0.36401469 0.58792347 0.00101614 4557915
0.36537069 0.58952326 0.00076687336 4689500
0.3670021 0.59083802 0.00066900253 4755294
0.3685663 0.59239835 0.00029700994 4755548
0.37044317 0.59564286 -0.0026915073 5086058
0.37389567 0.60087174 -0.0026119947 5086308
0.37612927 0.60242933 -0.0032052398 5086564
0.37707746 0.60698456 -0.0027321577 5152872
0.37877849 0.60830116 -0.0032829642 5021800
0.38213375 0.60993147 -0.0036120415 4956266
0.38230002 0.61342776 -0.0050624609 5086819
0.38386005 0.61619157 -0.0051762462 5415788
0.38558951 0.61871147 -0.0053313375 5744246
0.39648831 0.63656998 -0.0067449212 1134869
0.39781937 0.63788497 -0.0073524117 1855786
0.40044257 0.64104766 -0.0092113018 4414762
0.40363827 0.64224714 -0.0091030598 7237686
0.40565553 0.6453616 -0.0096532106 9076286
0.40663466 0.64773715 -0.010464728 10455867
0.40890023 0.64835876 -0.0099163055 10389559
0.40840814 0.65370435 -0.0098594427 10455356
0.41065782 0.65420377 -0.0093802214 10652479
0.3281239 0.53784096 0.0058854222 4424287
0.33120018 0.54249054 0.0057025552 4489821
0.33408299 0.54354769 0.0051221251 4490078
0.33539847 0.54730976 0.0052508116 4424542
0.33812481 0.55230618 0.0046073198 4425053
0.33859479 0.55610585 0.0044300556 4490588
0.34148154 0.55736667 0.0039945245 4425310
0.34299615 0.5609045 0.004329443 4359517
0.34508082 0.56140536 0.0041211247 4425567
0.34763882 0.56566346 0.0042436123 4622685
0.34908855 0.56980664 0.00048685074 4424788
0.35186401 0.57184207 0.00022512674 4490838
0.35425133 0.57424349 -0.00016087294 4556887
0.35428557 0.57799715 0.00056624413 4556887
0.35714588 0.57954192 0.00064665079 4556890
0.35777485 0.58100206 -0.0016462803 4821087
0.36154643 0.58763593 -0.0021007657 5018469
0.36390969 0.58854663 -0.0023751259 5150307
0.36399376 0.5929147 -0.0021677017 4822373
0.36719123 0.59388453 -0.0025936365 5085283
0.36835253 0.59765142 -0.002076447 5282145
0.37041909 0.59935802 -0.002702117 5282657
0.37336686 0.60611099 -0.0033706427 5348190
0.37500817 0.60675079 -0.0030722618 5283427
0.37681067 0.60890621 -0.0040456057 5151840
0.37941825 0.61118704 -0.0046300888 4955233
0.38063502 0.61419022 -0.0035703182 5087083
0.3820304 0.61720169 -0.004734993 5152612
0.38383564 0.61943716 -0.00519979 5284452
0.38615891 0.62112558 -0.0061173439 5612143
0.38721606 0.62373185 -0.006680429 5546359
0.38818583 0.62632442 -0.0073196888 5742710
0.38966864 0.62835544 -0.0081437826 4426343
0.39191481 0.63101625 -0.0090286732 1728573
0.39451921 0.63420337 -0.010058761 870675
0.39866772 0.64001656 -0.0087148547 2314542
0.40229228 0.64702171 -0.010514975 9931593
0.40400463 0.64801085 -0.010778308 10587721
0.40568218 0.65132225 -0.0096467137 10324279
0.40698138 0.65312988 -0.011117995 11178573
0.40951106 0.65477771 -0.011794329 11178320
0.29355511 0.48951352 0.012840986 3501894
0.29533869 0.49213663 0.012418628 3566922
0.29712227 0.49475965 0.011996269 3763797
0.29834846 0.49656302 0.011705875 3763797
0.30013201 0.49918607 0.011283517 3633494
0.30197132 0.50189108 0.010847926 3699266
0.30375493 0.50451416 0.010425568 3699278
0.30504149 0.50770581 0.010172248 4225626
0.30634639 0.50936431 0.010577679 3107929
0.30814773 0.51227862 0.0097662807 3698779
0.30955091 0.5151161 0.010584593 3895909
0.31181774 0.51775724 0.0095371604 3568466
0.3131181 0.52036226 0.0097398162 4092479
0.31434426 0.5221656 0.0094494224 4158529
0.31656247 0.52516961 0.0056512356 4292187
0.31893742 0.52905941 0.0057441592 4489561
0.32125533 0.53311223 0.0058510303 4358746
0.32355854 0.53349119 0.0058081746 4490077
0.32466912 0.53727257 0.005949676 4489822
0.32777336 0.5419631 0.0057602525 4555616
0.33205304 0.54668027 0.0053978562 4424797
0.33561897 0.55217141 0.0045539737 4359003
0.33544543 0.55397743 0.0013998747 4161363
0.33794099 0.555848 0.0012049079 4227155
0.3406038 0.5619635 0.0015608072 4358226
0.34302604 0.56399697 0.001311183 4358736
0.34510541 0.56658375 1.7762184e-05 4490325
0.34706697 0.567918 0.00067710876 4424534
0.34998995 0.5732249 -0.00099474192 4688476
0.35104993 0.57657033 -0.00074493885 4491092
0.35254598 0.57856518 -0.00097846985 4688989
0.35532156 0.5802545 -0.0014954805 4755038
0.35529974 0.58466357 -0.0014806986 4886366
0.35847321 0.58605683 -0.0024089813 4886877
0.36149988 0.5910455 -0.0023368001 4821337
0.36366212 0.5925703 -0.0034341812 5018712
0.36539704 0.59631103 -0.0024244189 5280859
0.38981414 0.63266408 -0.0084239244 4952938
0.39085695 0.63483644 -0.0094695091 2913625
0.39273372 0.63800615 -0.010397792 1268519
0.39987081 0.64651895 -0.010225773 7895100
0.40403393 0.65278929 -0.011284113 11047238
0.27364156 0.46648461 0.014916062 3962706
0.27587175 0.47129428 0.014427602 4094042
0.27927405 0.47380516 0.013325572 3830610
0.28058478 0.47654748 0.013162434 3960911
0.28214273 0.47895262 0.012454271 4027471
0.2842077 0.48187557 0.012304485 3698250
0.28537816 0.48359698 0.012027323 3631698
0.28721747 0.48630205 0.011591733 3697744
0.28893945 0.48937547 0.010676086 3830606
0.2960889 0.4988054 0.0092715025 4094289
0.29891148 0.50335222 0.0088948011 4094295
0.29979506 0.50731695 0.0088367462 4160086
0.30256358 0.50773913 0.0087550282 4160599
0.30310977 0.51182425 0.0087781549 4094806
0.3060784 0.51286077 0.0084314942 4160598
0.30750519 0.51752406 0.0078083277 4225879
0.3087475 0.51875746 0.0070765615 4357465
0.31142169 0.518893 0.0070894957 4357466
0.31184775 0.5232442 0.0067421794 4357464
0.31456771 0.52450532 0.0059830546 4292445
0.31553271 0.52836812 0.0060144067 4357977
0.31905922 0.53244728 0.0060857534 4358233
0.32227337 0.53839648 0.0020549297 4029006
0.32869667 0.54839027 0.0018439293 4160589
0.33022097 0.54999101 0.0015542507 4161100
0.33251175 0.55245453 0.0007674098 4161107
0.3353126 0.55817091 0.00061661005 4227157
0.33756739 0.56030488 0.00066179037 4292947
0.34050438 0.56548327 -0.0012436509 4555604
0.34238356 0.56610352 -0.00082075596 4621655
0.34401721 0.57166469 -0.0010553598 4687962
0.34614077 0.57253432 -0.0015873909 4687702
0.34907243 0.57451046 -0.0021896958 4885075
0.34868592 0.57850784 -0.0017247796 4688214
0.35065222 0.58092934 -0.0026277304 4753746
0.35258874 0.58200133 -0.0029447079 4885590
0.35532266 0.58409834 -0.0033780932 4820311
0.35658225 0.58847082 -0.0027256012 5017427
0.35862911 0.58995181 -0.0030682087 4952147
0.39388156 0.64135092 -0.011926472 1462805
0.39493331 0.64405435 -0.013045609 2250013
0.39767474 0.64598894 -0.013699412 4152874
0.39828372 0.64910007 -0.015293241 6319654
0.39950287 0.65168071 -0.016089261 9865790
0.40290159 0.65688097 -0.015657485 10980663
0.27320316 0.47136346 0.014195561 3961944
0.27508935 0.47308007 0.012364864 3698768
0.27627316 0.47599801 0.012378037 3567695
0.27873874 0.47760266 0.012298822 4093779
0.28166395 0.48311207 0.011135936 4028242
0.28483871 0.48388425 0.010775745 4094040
0.28497505 0.48837674 0.010461867 4093783
0.28764558 0.49329114 0.0098315477 4225622
0.29054418 0.49447072 0.0093201995 3962965
0.29127994 0.4982917 0.0092610121 4094039
0.29360017 0.49854806 0.0092864633 4094294
0.29561096 0.50264114 0.0091036558 4094038
0.31355125 0.52916574 0.0026012063 3962704
0.31650957 0.53465235 0.0021939278 4028490
0.31933349 0.53621745 0.0022467971 3963213
0.31983209 0.53928828 0.00031578541 4160594
0.32086349 0.54202199 0.0023283958 3963469
0.32310605 0.54536569 0.0007430315 4095057
0.32569942 0.54683793 0.00076019764 4160847
0.32613105 0.55038303 0.00035518408 4292436
0.32925266 0.5515219 0.00015383959 4358226
0.33167952 0.55655247 -0.0010358095 4489554
0.33495256 0.56227213 -0.001445353 4424016
0.33726376 0.56399691 -0.0010509491 4489809
0.33863202 0.56482285 -0.0018866062 4555601
0.34015176 0.57071 -0.0020931363 4621396
0.34197453 0.57137078 -0.0016565919 4687445
0.39436525 0.64679128 -0.014357805 2774304
0.39530107 0.64924955 -0.015595078 4941611
0.39720336 0.65056682 -0.016048849 7763762
0.39753067 0.65583503 -0.016043305 10062143
0.39996168 0.65730512 -0.016599298 10455605
0.27873051 0.48230016 0.011511087 3962704
0.2820735 0.48746341 0.010719955 4094038
0.3005766 0.51574981 0.0031408072 3962193
0.30436766 0.52177125 0.0027530193 3896396
0.30601278 0.52300596 0.0022153854 3896651
0.30815434 0.52536583 0.0016702414 3765318
0.31005183 0.52796412 0.0027112961 4028241
0.31051549 0.53135771 0.0018800497 3765580
0.31296456 0.53362906 0.001830399 3962700
0.3146376 0.53626019 0.0008649826 4094543
0.31693527 0.53787178 0.00049889088 4226128
0.31809083 0.54008901 0.0024806261 3832139
0.31899267 0.54377609 1.7821789e-05 4357457
0.32158697 0.5452733 -0.00031065941 4291921
0.32352558 0.55105329 -0.00042402744 4226893
0.32634741 0.55341029 -0.0011446476 4358222
0.32880977 0.5543201 -0.0010064244 4555090
0.32944399 0.5569337 -0.00028038025 4358229
0.33119771 0.56062049 -0.0014204383 4489294
0.3948921 0.65451688 -0.016430914 5794073
0.39699015 0.65562993 -0.016568482 8683041
0.26116547 0.46020591 0.012260914 3895887
0.26294902 0.46282899 0.011838555 4026704
0.26417521 0.46463233 0.011548162 3830094
0.26601452 0.46733734 0.01111263 3829585
0.2677981 0.46996039 0.010690212 3763796
0.26963744 0.47266549 0.010254681 3370071
0.28935519 0.50338399 0.0035892725 3764298
0.29106173 0.50451446 0.0038001537 3764298
0.29307798 0.50706959 0.0036854148 3764297
0.29418778 0.50881732 0.0035682917 3830350
0.29677591 0.51477891 0.0030327439 3764811
0.29829419 0.51818871 0.0029665828 3830603
0.30057684 0.51972711 0.0020827055 3896138
0.30270869 0.52113819 0.0024225712 3962186
0.30430728 0.52597564 0.0028493404 3962449
0.30655342 0.52651757 0.0028204918 4028242
0.30769995 0.52946889 0.00098824501 3896651
0.30848581 0.53384298 0.00040912628 4159565
0.31052163 0.53417689 0.0012302399 4094029
0.31307924 0.53586572 0.00054728985 4291657
0.31605095 0.54196441 0.00021088123 4422732
0.31680736 0.54327482 0.00017762184 4357459
0.25349024 0.45502704 0.011328459 4224078
0.25471637 0.45683041 0.011038065 3961678
0.2565279 0.45949441 0.01060909 3699020
0.26319015 0.46896753 0.007794559 3895881
0.27495053 0.48660952 0.0052647591 3764039
0.2777932 0.48839948 0.0052772164 3698502
0.27845892 0.49001798 0.0045027733 3764296
0.28159472 0.49657264 0.0044068098 3764039
0.28356889 0.4982585 0.0037668943 3829832
0.28526562 0.50085318 0.0035592914 3829832
0.28719863 0.5021835 0.0033162832 3829831
0.28755972 0.50617075 0.0038443208 3698764
0.28959733 0.50848919 0.0033602118 3829833
0.29231927 0.51103622 0.0026397705 3895626
0.29414886 0.51311821 0.0033444762 3764554
0.29744527 0.51794517 0.0012792349 4027722
0.29912224 0.51942456 0.00087988377 4027980
0.30164039 0.52574492 0.00076192617 4093515
0.30432186 0.52843231 0.00074231625 3830857
0.30620784 0.53305638 0.00029963255 4094028
0.24697335 0.45165101 0.01019454 3894598
0.24878478 0.45431507 0.0097655654 4419916
0.25001103 0.45611838 0.0094751716 3960906
0.25844401 0.46575901 0.0079811811 4027464
0.25996855 0.46701363 0.0074362159 3895627
0.26253608 0.47374719 0.0059256554 4026702
0.26469836 0.47520465 0.0066823959 3961162
0.26600599 0.478928 0.0061585307 3960651
0.26815146 0.48057929 0.0059016347 3829577
0.2702212 0.48233995 0.0053724647 3829577
0.27128595 0.48538694 0.0053052902 3895115
0.27302477 0.48737687 0.0049285889 3960653
0.27489591 0.49000284 0.0037579536 3961162
0.27569869 0.49280164 0.0042623281 3764037
0.27813864 0.49454024 0.0037712455 3829574
0.27952361 0.49747747 0.0034271479 3895368
0.28083265 0.50021857 0.0036279559 3960907
0.28265655 0.50137168 0.0033381581 3829580
0.28363273 0.50566667 0.0023132563 3895623
0.28665856 0.50747859 0.0020999312 3830087
0.29029724 0.51566577 0.00088089705 3961671
0.2933715 0.51737612 0.00061947107 4027466
0.29825127 0.52460605 0.00059109926 4027980
0.25040895 0.4595575 0.0071328878 4617804
0.25256994 0.46226183 0.0074199438 4158798
0.25378263 0.46447301 0.00720644 3961933
0.25633982 0.46566987 0.0071285367 3896140
0.25661948 0.47081676 0.0066847801 3829841
0.25877452 0.47176689 0.0065332651 3895890
0.26085824 0.47354841 0.0059399009 3961418
0.26243576 0.47631609 0.0066824555 3829578
0.26451483 0.47828791 0.0061149597 3697997
0.2654959 0.481648 0.0038506985 4026951
0.26852363 0.48309264 0.0036361814 3961414
0.27023914 0.48477653 0.0031554699 3961670
0.27031881 0.48869482 0.0035811067 4026951
0.27247271 0.48988983 0.0034303665 4026951
0.27595749 0.4963989 0.0032625794 3961155
0.23798834 0.44454578 0.0095722079 3563566
0.23982766 0.44725081 0.0091366768 2511650
0.24228002 0.45085752 0.0085558891 2776624
0.24521086 0.4566392 0.0053198338 2776366
0.24694811 0.45823681 0.0062881112 4026177
0.24826086 0.45989695 0.0062310696 4289606
0.24941508 0.46253443 0.0066506267 4159051
0.25286895 0.46602961 0.0043021441 4355914
0.25394994 0.46811551 0.0047743917 4224587
0.25472814 0.47069144 0.0047386885 4158537
0.25793338 0.47266796 0.0044101477 4027464
0.26034978 0.47851816 0.0043517947 4026948
0.26246935 0.47995853 0.0040643811 3961413
0.26776087 0.48774332 0.0035384297 3895877
0.23437418 0.44425115 0.0068757534 6979654
0.24289183 0.45613801 0.0052935481 2316073
0.24439721 0.45886531 0.0058591962 3697468
0.24801148 0.46396434 0.0042999387 4618310
0.25031102 0.46507818 0.0042595267 4355654
0.25091895 0.46834418 0.0051388144 4224584
0.22903971 0.44251513 0.0053888559 8883799
0.23026595 0.44431847 0.0050984621 9015385
0.23814715 0.4533444 0.0035173297 4087586
0.23909262 0.45614383 0.0040601492 2118685
0.24140194 0.45695132 0.0040530562 2382116
0.24329066 0.46004701 0.0028429031 3040306
0.24434251 0.46266052 0.0041959286 4552261
0.23184164 0.44968513 0.0018959045 8622169
0.2334131 0.45175284 0.0024321675 6847541
0.23474979 0.45357388 0.0030971169 4679205
0.23665383 0.4561772 0.0026820302 3037468
0.23952588 0.45907024 0.002471745 2251032
0.21674265 0.43102753 0.0040974617 6839588
0.21796891 0.43283087 0.0038071275 6181657
0.21984808 0.43549553 0.0032892227 5721092
0.22168741 0.43820053 0.002853632 5853220
0.22245541 0.44046801 0.0035104156 8485445
0.22435041 0.44325507 0.0030616522 9145165
0.23071679 0.45143485 0.0019514561 7636287
0.23098254 0.45335525 0.0018676519 6321714
0.23302615 0.45557153 0.0014061928 4876577
0.23480266 0.45725116 0.0022923946 2709272
0.2119658 0.43011114 0.0024787188 7102249
0.21275368 0.43235844 0.0030943751 6839077
0.21415474 0.43550733 0.0035648346 5918471
0.21599406 0.43821236 0.0031292439 6774784
0.21788915 0.44099933 0.0026804805 8815151
0.22443688 0.4472456 0.00017720461 9408083
0.22628379 0.44902843 0.0008648634 9540957
0.2283507 0.45012051 0.00084394217 9213019
0.22864065 0.45330811 0.00027227402 8096330
0.21759781 0.44055963 -0.00052291155 6181397
0.22101845 0.44537216 -0.0001335144 8222789
0.2221546 0.4486793 -0.00055664778 9539925
0.22417691 0.45112681 -0.0010609031 9475159
0.22585261 0.45280623 -0.000223279 8752979
0.2096256 0.43533844 -0.0014569759 7102261
0.21402831 0.43950108 -0.00057756901 6378785
0.21541099 0.4433637 8.058548e-05 6708761
0.21692914 0.44449121 -0.0011538267 7234594
0.21891694 0.44763067 -0.0010424256 9143878
0.21947184 0.44898525 -0.0024089217 9078091
0.20487717 0.43392706 -0.0014839768 7168312
0.20750931 0.43459284 -0.0013869405 7102519
0.20906654 0.43817034 -0.00062590837 6773293
0.21190777 0.44135603 -0.0029370189 6839078
0.21304955 0.44348264 -0.0023339391 6510353
0.21436873 0.44520679 -0.0032284856 6641683
0.21619006 0.44889003 -0.0032212734 8484918
0.20260875 0.43191814 -0.0023254752 7036715
0.20475963 0.43705469 -0.0030124187 7364906
0.20681715 0.43872175 -0.0040479898 7299118
0.20871328 0.4419561 -0.0039870739 7035941
0.21036495 0.44421175 -0.0045966506 6772761
0.21339653 0.44818309 -0.0034977198 7563299
0.1996344 0.43441945 -0.0038969517 7299371
0.20167264 0.43559316 -0.0039110184 7364653
0.20311564 0.43768692 -0.0052707195 7364659
0.20376211 0.44115758 -0.0044730306 7298863
0.20613447 0.44223073 -0.0044583082 7101736
0.19465168 0.43303007 -0.004776597 7233320
0.19689421 0.43430683 -0.0048030019 7299117
0.38324746 0.58892363 0.011164486 4031338
0.38503104 0.59154665 0.010742128 3835757
0.38675863 0.59478009 0.010843515 3374953
0.36888373 0.57390821 0.011815906 4291943
0.37063947 0.57649034 0.011400163 3571292
0.37245092 0.57915443 0.010971129 3769426
0.37362143 0.58087575 0.010693967 3835219
0.37484762 0.58267915 0.010403574 4488297
0.37724426 0.58620387 0.0098360181 3372642
0.37841478 0.58792526 0.0095588565 4030572
0.379641 0.58972865 0.0092684627 4424042
0.35619214 0.56135207 0.012071311 4487515
0.35741833 0.56315541 0.011780918 4553565
0.35920194 0.56577855 0.0113585 4620387
0.36098552 0.56840158 0.010936141 4554594
0.36221173 0.57020491 0.010645747 4423008
0.36399531 0.57282794 0.010223389 4619357
0.3657788 0.57545102 0.0098010302 4291943
0.37419507 0.58782864 0.00780797 4554090
0.33274338 0.53297549 0.01487416 4289887
0.33452693 0.53559858 0.014451802 4223842
0.33631051 0.5382216 0.014029443 4223847
0.33753672 0.54002506 0.013739049 4223594
0.3393203 0.54264808 0.013316691 4290398
0.34952012 0.55764872 0.010901213 4422222
0.3506906 0.55937004 0.010624051 4290636
0.35250199 0.56203413 0.010195076 4421452
0.38702086 0.61424959 0.0002784729 4561505
0.38953891 0.61691725 -0.00017464161 5022576
0.38972694 0.61993599 0.00080478191 4627562
0.39116144 0.62170005 0.00039160252 4758888
0.39354014 0.62453139 -0.00039124489 5021555
0.39599878 0.62654471 -0.0006133914 5546875
0.39743304 0.62830871 -0.0010265708 6070398
0.32478938 0.5273869 0.014007628 3437404
0.32654509 0.52996886 0.013591826 3438921
0.32835653 0.53263295 0.013162851 2583641
0.32952696 0.53435433 0.01288569 3307621
0.33972678 0.54935497 0.010470212 4290388
0.34156609 0.55206001 0.01003468 4421209
0.3427366 0.55378139 0.0097574592 4290402
0.34454802 0.55644548 0.0093284845 4093790
0.34635946 0.55910951 0.0088995099 4028509
0.36607859 0.58919197 0.0032141209 4888678
0.36842722 0.58973545 0.0028698444 5020521
0.37001318 0.59492958 0.0024276972 5217899
0.37175509 0.59596097 0.0017936826 5152362
0.37592652 0.6012091 0.0012402534 5349744
0.37561905 0.60198665 0.00022500753 4756576
0.37957415 0.60753673 0.00063300133 5152105
0.38148645 0.61084336 0.00045400858 4955499
0.38432786 0.61223596 0.00026595592 4890220
0.38455021 0.61633915 0.00054860115 4956267
0.38649237 0.6172474 0.00037539005 4890987
0.38854659 0.62056535 0.00010764599 4957040
0.39084113 0.62304997 -0.00091028214 6009468
0.39330441 0.62482083 -0.001861155 5085807
0.39223012 0.6286934 -0.001667738 6205320
0.39364651 0.63013256 -0.0026589632 5348468
0.39792824 0.6317457 -0.0025923252 5673578
0.39871478 0.63502014 -0.0039375424 4091191
0.32030699 0.52700263 0.012392044 3897169
0.3215332 0.52880603 0.01210165 3634526
0.35481232 0.57488579 0.0039236546 4558431
0.35837698 0.58062172 0.0030805469 4821861
0.35914418 0.58372653 0.0036302209 4624483
0.36234617 0.58466214 0.0032637715 4690791
0.36324283 0.58901525 0.0030216575 4888425
0.3662276 0.59311205 0.0031868219 4823141
0.36748523 0.59461272 0.0019065142 4756576
0.36941206 0.59732056 0.00072276592 4624475
0.37135804 0.59922546 0.0017020702 5151334
0.37310392 0.6014955 0.00094872713 4888420
0.37351167 0.60505629 0.00091916323 4954471
0.37619457 0.60662204 0.00056952238 5020521
0.37824979 0.61020303 0.00099301338 5284463
0.39516753 0.63347405 -0.004652977 1730356
0.39913699 0.63849783 -0.0055583715 3234597
0.3460153 0.56475604 0.0046312213 4622431
0.34828198 0.56917661 0.0045331717 4622945
0.34927812 0.57140714 0.0044080019 4557405
0.35104111 0.57417274 0.0040271878 4557921
0.35364124 0.57861537 0.0039581656 4558435
0.35634366 0.57975304 0.0034939051 4690021
0.35743371 0.58372194 0.0024409294 4558177
0.35937116 0.58602375 0.00067204237 4557401
0.3609446 0.58832717 0.0019234419 4623966
0.36187211 0.59113711 0.0013191104 4623704
0.36402732 0.5933944 0.0009521842 4689500
0.36679655 0.59709066 -0.0015223622 5085028
0.3707751 0.60393018 -0.0020988584 5282916
0.37206244 0.60508192 -0.0027689338 5282913
0.37461969 0.61052334 -0.0024981499 5152105
0.37763 0.6124593 -0.003143847 5218153
0.37818223 0.61536461 -0.0043608546 5086304
0.38026211 0.61684537 -0.0045659542 5086814
0.38418627 0.62301165 -0.0053852797 5285237
0.38678971 0.6278255 -0.0065450668 5809775
0.38864589 0.6311003 -0.0064017177 5743994
0.39941236 0.64230174 -0.0072888136 4937773
0.40045285 0.64496416 -0.0083327293 6842937
0.40172896 0.64738184 -0.0091427565 8681776
0.40289238 0.64988047 -0.0099255443 9930035
0.31586447 0.52657807 0.010693908 4223585
0.31709066 0.52838141 0.010403514 3831376
0.32614976 0.54105556 0.0061480403 4555619
0.32775521 0.54563731 0.0057725906 4359004
0.33013117 0.54597551 0.0057849288 4359002
0.33152378 0.55088407 0.0050249696 4424540
0.33366415 0.55146682 0.0048034191 4424539
0.3348783 0.55535108 0.004883945 4293213
0.33656481 0.55923831 0.0047058463 4424795
0.33813709 0.56051385 0.0041130781 4490586
0.3404904 0.5607698 0.0042760372 4490843
0.34196576 0.56459409 0.0043302178 4490841
0.34289023 0.56898826 0.0040814877 4491104
0.345025 0.56936628 0.0040789247 4557154
0.35254315 0.58243924 0.00033956766 4294231
0.35542864 0.58392256 0.00052291155 4425564
0.35747427 0.58932382 -0.00010174513 4689243
0.35969514 0.59068698 -0.0015771985 4690016
0.36258075 0.59547698 -0.0013141036 5018725
0.36377037 0.59601593 -0.0020347238 5149792
0.3650212 0.60081828 -0.0017792583 4953181
0.36705795 0.60201323 -0.0020471811 5150559
0.36898246 0.60316658 -0.0022883415 5282400
0.37099463 0.60966241 -0.0026966333 5216864
0.37368488 0.61156285 -0.0033988357 5282656
0.37597713 0.61453736 -0.0044151545 5217120
0.37634173 0.61690342 -0.0033339858 5283688
0.37841839 0.61969304 -0.0042627454 5087078
0.38127795 0.62153155 -0.0045087337 5152613
0.38394487 0.62609351 -0.0055751801 5349991
0.38599718 0.62910485 -0.0057339668 5547893
0.38658184 0.63158125 -0.0068264604 5612394
0.38939491 0.63427126 -0.0074108243 5085284
0.3904433 0.63697976 -0.0080080628 4951644
0.39362395 0.64084226 -0.0067026615 1923353
0.39523676 0.64365309 -0.0085744262 2380064
0.39775908 0.64548582 -0.0096485019 4742181
0.39930326 0.6518026 -0.010114491 10127422
0.4015989 0.65345383 -0.010116458 10455864
0.40375793 0.65626848 -0.010289252 10915652
0.29110488 0.49482271 0.012737572 4025420
0.29257524 0.49734783 0.012656748 4156492
0.29435879 0.49997091 0.01223439 3566675
0.29619807 0.50267589 0.011798799 3698264
0.29736859 0.50439727 0.011521578 3632471
0.29920787 0.50710231 0.011086047 3632976
0.30099142 0.50972539 0.010663629 3764042
0.30570346 0.51687676 0.0094391704 3634009
0.30718583 0.51992381 0.0099989772 3568471
0.30902514 0.52262884 0.009563446 3765840
0.31080869 0.52525187 0.0091410875 4354633
0.312648 0.5279569 0.0087054968 4026206
0.31675601 0.53206837 0.0061286688 4292437
0.31728765 0.53541768 0.006444633 4489561
0.31992525 0.53665704 0.0059598684 4424024
0.32157767 0.54005235 0.0063704848 4358237
0.32400933 0.54047263 0.0063695312 4424031
0.32421902 0.54517078 0.0057475567 4424033
0.32722589 0.54984099 0.0053996444 4359004
0.32922062 0.5505051 0.0050678253 4490334
0.33163425 0.55459952 0.0050792098 4227422
0.3395645 0.56714386 0.0013123751 4358481
0.34092611 0.56894851 0.00084412098 4424272
0.34361446 0.57088101 0.00071209669 4358995
0.34652603 0.57314152 0.00052732229 4424532
0.34805486 0.57519197 1.9431114e-05 4359252
0.34740803 0.58045644 -0.00032305717 4293716
0.34918982 0.58142501 -0.00042134523 4556633
0.35211435 0.58338159 -0.0013007522 4820062
0.35132772 0.58651918 -0.00066888332 4688734
0.35457003 0.58798105 -0.001637876 4885848
0.35823986 0.59382427 -0.001875639 4886620
0.36042273 0.59481555 -0.0020338893 4952669
0.36094218 0.59898341 -0.0023675561 5214810
0.36323738 0.59964728 -0.002189815 5214812
0.39073846 0.63944876 -0.0093582869 5344344
0.39087409 0.64206439 -0.0099669695 3436083
0.39689484 0.65136462 -0.010882735 9339707
0.27123117 0.47078156 0.01437664 3896912
0.27515429 0.47684672 0.013302803 3500882
0.27638051 0.47865012 0.013012469 3435089
0.27816406 0.48127317 0.012590051 3895629
0.28000337 0.48397821 0.01215452 3764043
0.28178695 0.48660123 0.011732101 3566413
0.28362626 0.4893063 0.01129657 3631698
0.28479674 0.49102771 0.011019349 3631955
0.28663605 0.49373275 0.010583818 3566670
0.28758296 0.49720317 0.011891127 3829052
0.29299241 0.50258756 0.0090774298 4094291
0.29712647 0.50738609 0.0086047649 4160088
0.2989251 0.51057768 0.0091252327 4094808
0.29995334 0.51470584 0.0091784 4027729
0.30197701 0.51620126 0.0085748434 3896920
0.30295163 0.51909119 0.0085409284 3699287
0.30534667 0.52061522 0.0080421567 4225626
0.30742347 0.52238464 0.006965816 4225624
0.30856556 0.526187 0.00699085 4357720
0.31159121 0.52706051 0.0066302419 4357465
0.31120023 0.53099918 0.0063325763 4160602
0.31386903 0.53225964 0.005731225 4357976
0.31447351 0.53556818 0.0061023235 4423768
0.3191117 0.5398773 0.0062347054 4358235
0.3269195 0.55283153 0.0018437505 4029773
0.32941723 0.55492693 0.0015396476 4029777
0.33201647 0.55653161 0.0016465187 4030035
0.33273554 0.56308961 0.001088202 4161363
0.33523968 0.5645752 5.4061413e-05 4358484
0.33758485 0.56748432 0.00037020445 4424020
0.33936435 0.57029486 -0.001177907 4555865
0.34427872 0.5770452 -0.0011974573 4556375
0.34568602 0.57944983 -0.0009663105 4556629
0.34783 0.58467144 -0.0026695728 4819025
0.35132781 0.58624047 -0.0027782321 4819539
0.35199887 0.59110177 -0.0027107 4754007
0.35389435 0.59245926 -0.0029445291 4951379
0.35619384 0.59357291 -0.0029850006 5083220
0.39160264 0.64540058 -0.011552632 2119450
0.39358407 0.648458 -0.013366878 2643224
0.39421013 0.65144646 -0.01489228 3495443
0.39588115 0.65415049 -0.015287399 8354099
0.27415428 0.47606605 0.013323009 3897174
0.27456963 0.47990745 0.012795329 3896666
0.27659017 0.48171738 0.011732519 4028499
0.27856103 0.48585075 0.011632085 4094035
0.28044292 0.48659605 0.011327446 4159829
0.28401101 0.49268061 0.010011613 4225365
0.28528002 0.4961769 0.010187387 4094037
0.28740323 0.49688244 0.0098974705 4094036
0.28859884 0.49975991 0.0098348856 4028501
0.29068923 0.50220865 0.0091203451 4094039
0.29351747 0.50696033 0.0085244775 4094551
0.29446828 0.51067942 0.0087407827 4028758
0.30635232 0.52564478 0.0071572065 4291673
0.3148919 0.53856343 0.0022270679 3897419
0.32036895 0.54822612 0.0020242333 4029259
0.32180309 0.54942024 0.0011009574 4160593
0.32409605 0.55114388 0.0017905235 4029519
0.32736173 0.55594283 -7.3671341e-05 4424019
0.32888463 0.55912817 0.0018947721 3964240
0.33045194 0.56177437 0.00032454729 4095826
0.33335799 0.56279147 -0.00040709972 4292689
0.33295748 0.5667128 -0.0016114712 4489552
0.33505592 0.56876439 -0.0016015768 4489809
0.33799782 0.56951493 -0.0019423962 4555603
0.33846238 0.57439446 -0.0014979839 4687189
0.34101388 0.57576257 -0.0019256473 4621396
0.34421903 0.58163011 -0.0019548535 4818766
0.34604165 0.58302814 -0.0022438765 4819024
0.3907809 0.6497106 -0.013636649 2905120
0.39184082 0.65176034 -0.014613867 3692063
0.39381599 0.65303701 -0.015012383 5728045
0.26692158 0.4708482 0.012502313 3566162
0.26812804 0.47420219 0.012413919 3566674
0.26997748 0.47645581 0.012690127 3764303
0.27128646 0.47881725 0.012490094 3764044
0.27273354 0.48157251 0.012730539 3631955
0.2745387 0.4845227 0.012158275 3895888
0.27641499 0.48641104 0.01185739 3764557
0.27819574 0.48960561 0.011436999 3567181
0.27976978 0.49142578 0.01069957 3830613
0.28120548 0.49403203 0.010724247 3632464
0.28314036 0.49677867 0.01019311 3895627
0.29043543 0.50612724 0.0088988543 4094551
0.3019667 0.52514714 0.0029729605 3896397
0.30590785 0.53153706 0.0024772286 3897165
0.30811861 0.53256929 0.0023124218 4028495
0.30987579 0.53584492 0.0020432472 3765578
0.31163239 0.53758961 0.0017346144 4028745
0.31283453 0.53994673 0.00061488152 4291401
0.31430575 0.54313511 0.0016260743 4029003
0.31690896 0.54604566 0.0019044876 3963213
0.31787759 0.5477618 0.00043958426 4225870
0.32025018 0.5496217 -0.00041669607 4357452
0.32037282 0.55419433 -0.00029081106 4357966
0.32296056 0.55533725 -0.00044888258 4292433
0.32493338 0.55754697 -0.0011235476 4423760
0.32692751 0.56033307 -0.0011597872 4292432
0.32762247 0.56249201 -0.00072795153 4358226
0.32995382 0.5647369 -0.0011857748 4292687
0.33207276 0.56829917 -0.0011775494 4424276
0.33570948 0.57280988 -0.0017496943 4621140
0.3911784 0.65621012 -0.015535951 6251291
0.392804 0.65805733 -0.016140282 7959596
0.25261372 0.45591483 0.013140559 4486734
0.25383985 0.45771822 0.012850165 4026971
0.25565138 0.46038219 0.012421191 3698776
0.25746283 0.46304631 0.011992216 3765082
0.25868893 0.46484965 0.011701822 3895631
0.26052827 0.46755469 0.011266232 3895374
0.26231188 0.47017771 0.010843873 4026704
0.26371294 0.47332662 0.011314332 3697487
0.26511398 0.47647557 0.011784792 3565905
0.26628447 0.47819701 0.01150763 3565905
0.28956011 0.51103878 0.0038838387 3895627
0.29313135 0.51742709 0.0033314228 3895885
0.29530925 0.5184595 0.0030291677 3830348
0.29742095 0.52349144 0.0030422807 3961681
0.29910141 0.52460456 0.0022777915 3896395
0.30134937 0.52682352 0.0013067722 3765063
0.30314645 0.52962267 0.00317204 3830860
0.30336088 0.53220928 0.0011992455 3830859
0.30588329 0.5338667 0.001688242 3765322
0.30690956 0.5369215 0.0012546182 3962699
0.30841434 0.53894472 0.00072818995 4094540
0.31142929 0.54130793 0.00048243999 4291408
0.31235665 0.54543597 0.00048691034 4225869
0.31449467 0.54650867 0.00026702881 4225614
0.31796187 0.55291665 -0.00022399426 4292172
0.31967056 0.55464071 -0.00048488379 4292439
0.24672198 0.45335907 0.011785686 4485978
0.24794814 0.4551625 0.011495292 4814943
0.24917437 0.45696583 0.011204898 4289355
0.27304932 0.4907445 0.0051118135 3764038
0.27815709 0.4986521 0.004193902 3960907
0.27946669 0.50127071 0.0043942928 3764038
0.28177875 0.50340587 0.0041832924 3698504
0.2843318 0.50535208 0.0038172007 3698504
0.28583118 0.50814217 0.0038635135 3829833
0.2875323 0.5103749 0.0040780902 3830090
0.28805369 0.51382917 0.0034877658 3829831
0.29062712 0.5158487 0.0036623478 3764555
0.29223332 0.51807761 0.0028211474 3764553
0.29438278 0.52049857 0.0023104548 3764808
0.29555452 0.5229972 0.0015620589 3896138
0.29818746 0.528808 0.0014153719 3830599
0.30079865 0.53034633 0.001034379 3962187
0.30387843 0.53663665 0.00057554245 4028235
0.31000531 0.54446632 6.7472458e-05 4356937
0.25382441 0.46769559 0.0080760121 3896137
0.25667503 0.46954659 0.0081230402 3961673
0.25922281 0.47188783 0.0076621175 4027206
0.26059043 0.47651166 0.0065439343 3895120
0.26420748 0.48232713 0.0064156055 3894862
0.26616821 0.48474875 0.005489707 3894859
0.26726961 0.48687801 0.0051816702 3829829
0.26976621 0.48953131 0.0049273968 3764039
0.27168635 0.49260297 0.0048369169 3829322
0.27292946 0.49516624 0.0042229295 3895111
0.27496648 0.49731433 0.004762888 3763780
0.27686346 0.5001772 0.004034996 3829828
0.27764684 0.50248855 0.003767252 3764042
0.28118104 0.5035907 0.0029335618 3829829
0.2824001 0.50994468 0.0030691028 3829832
0.28495997 0.51206154 0.0025539398 3830088
0.2874164 0.51389498 0.0012047887 4027209
0.28962883 0.52060306 0.00068831444 4093003
0.29183969 0.52163512 0.0005235672 4027467
0.295412 0.52847087 0.00048089027 3896395
0.23895112 0.44813856 0.010948718 1724974
0.24140352 0.4517453 0.01036793 2843712
0.24324283 0.45445034 0.0099323392 4026702
0.24679439 0.46223339 0.0073516369 4093005
0.24917381 0.46386218 0.0080687404 4093004
0.25085524 0.46687856 0.0078899264 3895885
0.25339171 0.46838927 0.0075268745 3961166
0.25501418 0.46954161 0.0071399808 3961423
0.25572288 0.47412652 0.0075433254 3829835
0.2582773 0.47661009 0.0062267184 3895368
0.25839725 0.47962442 0.0063862801 3829579
0.26087219 0.48100445 0.0063406825 3763786
0.26335385 0.4830184 0.0059674978 3895366
0.26466963 0.48615557 0.0037314892 3961157
0.26586193 0.48907518 0.0053060055 3829581
0.26726642 0.49153429 0.0045378804 3829829
0.26940566 0.49270827 0.0045725107 3829574
0.27071741 0.49555179 0.0046637654 3960655
0.27214327 0.49942151 0.003275454 3829828
0.27726087 0.50665432 0.0027537942 3895623
0.27911657 0.50805199 0.0026023388 3895622
0.28545532 0.51845908 0.00081264973 3961416
0.28727806 0.51985705 0.00052374601 4027208
0.23367256 0.44648445 0.0094486475 3167512
0.23489872 0.4482879 0.0091582537 2447414
0.24141863 0.45816839 0.0063786507 3631683
0.24281067 0.46115485 0.0065600872 4289346
0.2446025 0.46273324 0.0072606206 4158538
0.24727811 0.46590796 0.0079706311 3896143
0.24832669 0.46763799 0.0049594045 4224582
0.252175 0.47272921 0.0061071515 4092749
0.25461662 0.47452641 0.0053554773 4224073
0.2561307 0.4762097 0.0047775507 4224072
0.25520653 0.48081937 0.0045003295 4026694
0.2585972 0.48267427 0.0041996837 3961156
0.26169086 0.48448688 0.0038974285 4026949
0.26263928 0.49037164 0.0035370588 4092229
0.26491731 0.49115819 0.0036465526 4026694
0.22772504 0.44384676 0.0081070065 7571281
0.22895119 0.44565016 0.0078166127 6321213
0.23017745 0.44745353 0.0075262189 4548908
0.23817426 0.45780796 0.0055929422 2842423
0.23983525 0.45983481 0.0062532425 3960130
0.24154803 0.46137127 0.0071181059 4289609
0.2415954 0.46454257 0.0050411224 4552775
0.24456829 0.46637505 0.0047314763 4224585
0.2464596 0.47056672 0.0054138303 4289864
0.24833915 0.47180173 0.0051108599 4224076
0.23222275 0.45400548 0.0045771003 3299344
0.2343948 0.45483315 0.0044938922 2380567
0.23562153 0.45718375 0.0053317547 2381861
0.23812556 0.46106002 0.0036119819 3434551
0.23972273 0.4629437 0.0042507648 4289088
0.22301574 0.44460687 0.0058209896 8818756
0.22992554 0.45479244 0.0039302707 3430677
0.23255868 0.4568443 0.0046843886 2315549
0.23267272 0.45989233 0.0028820038 2251038
0.23550609 0.46055886 0.0030760765 2645808
0.21762581 0.44278878 0.0043473244 9408849
0.21885194 0.44459218 0.0040569901 9408849
0.2248347 0.45087358 0.0024165511 8030289
0.2268056 0.45255685 0.0025046468 6518840
0.22742963 0.45535749 0.0022034049 4613155
0.22955799 0.45804363 0.0017348528 3300121
0.22067237 0.44953048 0.0011219978 9146974
0.22315945 0.4514623 0.00089281797 8555596
0.22361082 0.45508939 0.0014588237 5795627
0.22740416 0.458848 0.0021806955 2643233
0.20812371 0.43274659 0.0022429228 6970917
0.21223554 0.44097084 0.0028736591 7367208
0.21377754 0.44308621 0.001308322 7893549
0.2152347 0.44695431 0.00042158365 9671265
0.21742025 0.44885558 0.00074958801 9606493
0.21916945 0.45027894 0.00093889236 9212505
0.22071494 0.45531222 -0.0002938509 7241531
0.20250362 0.43210745 0.0019420385 6839079
0.20429756 0.43550441 0.0020763874 6773535
0.20552379 0.43730778 0.0017859936 6510361
0.20739102 0.44005379 0.0013437867 5984271
0.21044412 0.44207418 -0.00011175871 6115860
0.21068774 0.44554353 0.00049173832 8617803
0.2126435 0.44708657 -0.00022882223 9275722
0.21446013 0.4493632 -0.00076901913 9671501
0.21697091 0.45186967 -0.0018751621 9737565
0.21842238 0.45383468 -0.0013466477 8818259
0.20029733 0.43251649 -0.0015513301 7102776
0.20315017 0.43656948 -0.00070017576 7036724
0.20489636 0.43839687 -0.0012971163 7036459
0.20582542 0.4408502 -0.0010784864 6510108
0.20743585 0.44274303 -0.0010851622 6313236
0.20942605 0.4454076 -0.0013874173 7103517
0.21078722 0.4475995 -0.0037454367 6905358
0.21446419 0.45128751 -0.0024383068 9868376
0.19661623 0.43142438 -0.0019065142 7102260
0.19816612 0.4354026 -0.00096094608 7036727
0.20004675 0.43676144 -0.0016275048 7168047
0.20199227 0.43836451 -0.0020182133 7299112
0.20749721 0.44611365 -0.0037589669 6444555
0.20804031 0.4494814 -0.0029002428 8551216
0.2111595 0.45111015 -0.0030999184 9539147
0.1964716 0.43588912 -0.0024439096 7365157
0.19866902 0.4393369 -0.004709065 7364912
0.20035902 0.44115978 -0.0040563345 7167531
0.20146941 0.44400269 -0.0040621758 6772766
0.20378599 0.44499388 -0.0040342212 6509843
0.1932379 0.43436265 -0.0024710298 7365160
0.19381601 0.43772149 -0.0049295425 7364911
0.19685204 0.43814373 -0.0046392083 7364912
0.19009483 0.4363156 -0.0051302314 7299118
0.37640762 0.58705133 0.011565685 4751456
0.37757811 0.58877265 0.011288524 4751456
0.37938955 0.59143674 0.010859549 4883299
0.38114527 0.59401882 0.010443747 4751713
0.38285953 0.59726578 0.010572553 4817771
0.38389164 0.60023469 0.011397898 4751213
0.36729896 0.57986355 0.011045575 4029530
0.36852515 0.58166689 0.010755181 4227166
0.36969569 0.58338827 0.01047802 4555587
0.37150708 0.58605236 0.010049045 4489042
0.37331852 0.58871639 0.0096200705 4423010
0.37426549 0.59218687 0.010927379 4817249
0.37604904 0.59480995 0.010505021 4883299
0.37727532 0.59661335 0.010214627 4883299
0.37905887 0.59923637 0.0097922683 4489310
0.33430347 0.53734773 0.016036332 4092261
0.33543405 0.53910935 0.015841544 4092261
0.33666024 0.54091281 0.01555115 4224355
0.35179245 0.56420624 0.012733459 4421707
0.3530187 0.56600958 0.012443066 4224861
0.35480225 0.56863272 0.012020707 4356953
0.3565858 0.5712558 0.011598289 4555349
0.35823035 0.57263535 0.010443032 4619357
0.3595956 0.57568216 0.010885537 4619612
0.36179751 0.57788152 0.0095983148 4619357
0.36360893 0.58054554 0.0091693401 4553821
0.36458373 0.58405709 0.010470092 4225095
0.36580998 0.58586043 0.010179698 4817745
0.36759353 0.58848345 0.00975734 4948044
0.36937711 0.59110647 0.0093349814 3240532
0.37060329 0.59290987 0.0090445876 4293476
0.32748002 0.53352076 0.014974952 2648675
0.32865044 0.53524214 0.01469779 3438191
0.33007145 0.53837091 0.015127063 4355422
0.33143669 0.5414176 0.015569508 4355685
0.33266294 0.543221 0.015279114 4355685
0.33589625 0.54589838 0.012981892 4816492
0.33706668 0.5476197 0.01270473 4355416
0.34729439 0.56266135 0.010282636 4093527
0.34868747 0.56574911 0.010718465 4224585
0.35545924 0.57674712 0.009880662 4619108
0.35965538 0.58301711 0.0089598894 4619863
0.36143893 0.58564025 0.0085375309 4619614
0.38185507 0.61407799 0.0012633204 4889192
0.385048 0.61978865 0.0013455153 5021808
0.38723472 0.62150091 0.0012608171 4890221
0.38929421 0.62462866 0.00084602833 4692839
0.39094827 0.62676305 -0.00012797117 5153910
0.39262292 0.62799501 0.00019991398 4889710
0.39451903 0.63090569 -0.00061243773 5873780
0.32309327 0.53317815 0.013263762 3503428
0.32426369 0.53489953 0.012986541 3832649
0.33791095 0.55191576 0.011129737 4224086
0.33931255 0.55703157 0.0094227791 4224606
0.34115192 0.55973667 0.0089871883 4028003
0.34232241 0.56145805 0.0087100267 3830622
0.3435486 0.56326139 0.0084196329 3962465
0.36410433 0.59240651 0.0034766197 4757092
0.36789206 0.59847039 0.0025808811 5217641
0.37173793 0.60412639 0.0016701221 5217901
0.37647277 0.61062282 0.0010204315 5151848
0.37799546 0.61331713 0.0013272762 5152618
0.37966499 0.61586362 0.0012109876 5218158
0.38168409 0.61776167 0.0012577176 5218413
0.38307217 0.61937171 0.0010188818 5219702
0.38490507 0.62473106 0.00037258863 5351544
0.38684273 0.6255582 5.4717064e-05 5286263
0.38897279 0.62622368 -0.00045508146 5483645
0.38915372 0.6303885 -0.00034403801 5417595
0.3910915 0.63291383 -0.0018579364 6204797
0.39522755 0.63630646 -0.0030978322 7775088
0.35058501 0.57759851 0.0044350028 4558180
0.35386619 0.5822286 0.0042392612 4427105
0.35821173 0.58731407 0.0037891269 4624740
0.36036852 0.59191811 0.0036085844 4691045
0.36474109 0.59766603 0.0024625063 4822114
0.36659089 0.59985679 0.0011508465 4624217
0.36784041 0.60194373 0.0015826821 4822115
0.36964431 0.60311687 0.0013341308 4756836
0.37095204 0.60768926 0.0012845993 4888166
0.37379393 0.60873014 0.0014410615 5151338
0.37522045 0.61043298 0.00099331141 4953698
0.39230993 0.63600808 -0.0036345124 6004328
0.39329362 0.63814104 -0.0051749349 3568173
0.39585134 0.63978487 -0.0046216846 7702864
0.39594683 0.64391536 -0.0065990686 6778930
0.31742448 0.53095019 0.011856079 3897179
0.31926376 0.53365529 0.011420488 3830373
0.34484288 0.57348931 0.0039135218 4425569
0.34689301 0.57692724 0.0043741465 4491612
0.35026863 0.58147532 0.0044465661 4492129
0.35394663 0.58611059 0.0033072233 4492639
0.35537288 0.58783966 0.0011264086 4491608
0.35949376 0.59459531 0.0013883114 4558163
0.36111957 0.59570521 0.0015096068 4689241
0.36268386 0.59726554 0.001137495 4689498
0.36275476 0.59968168 -0.00098311901 4953185
0.36508474 0.60393196 0.001157403 4623967
0.3677682 0.60553712 0.0012441278 4624226
0.37533998 0.61779743 -0.0035280585 5217377
0.38069665 0.62513417 -0.0042886734 5349485
0.38185054 0.62885511 -0.004339397 5152614
0.38344902 0.63053888 -0.00493747 5153129
0.38543403 0.63279402 -0.0049000382 5613940
0.38691396 0.63472247 -0.0056146383 5810804
0.38856348 0.63640702 -0.0063704848 6006386
0.39640218 0.64739269 -0.008082509 8090169
0.39763272 0.64964586 -0.0085911155 9207112
0.30993223 0.52613962 0.010953188 4092248
0.31177154 0.52884465 0.010517597 4288608
0.31299776 0.53064811 0.010227203 4288865
0.31416827 0.53236943 0.0099500418 3765336
0.32530406 0.54913598 0.0057866573 4293212
0.32808316 0.5527823 0.0060729384 4358751
0.32958379 0.55385333 0.0054242015 4292958
0.33190736 0.55811107 0.0053120255 4292958
0.33378944 0.55885619 0.0050074458 4292957
0.33701974 0.56410044 0.0042434931 4556632
0.33790731 0.56826878 0.0043303967 4293720
0.34025025 0.56860733 0.0042051673 4491101
0.34151441 0.57273722 0.0041288733 4359775
0.34978178 0.58454627 0.0010067225 4359768
0.3515988 0.58573943 0.00093686581 4359768
0.35315731 0.5910939 0.0013743043 4491603
0.35544375 0.59257889 0.00017440319 4754522
0.35704854 0.59356278 0.0013184547 4557398
0.35754859 0.59732717 -0.00046598911 4886621
0.36072713 0.5990178 -0.00078886747 4821596
0.3651816 0.60698581 -0.0023860335 5084509
0.36827025 0.60865533 -0.0026509762 5216350
0.36983848 0.6157704 -0.0037391782 5413729
0.37201366 0.61665207 -0.0037260652 5282917
0.37423304 0.62218785 -0.0036649704 5348967
0.37694305 0.62421697 -0.0041170716 5283172
0.37974948 0.62635487 -0.0044950247 5217890
0.38130778 0.63244653 -0.0047831535 5152358
0.38287777 0.63421178 -0.0053741932 5152609
0.38410497 0.63650745 -0.0063909888 5415779
