# .PCD v0.7 - Point Cloud Data file format
VERSION 0.7
FIELDS x y z rgba
SIZE 4 4 4 4
TYPE F F F U
COUNT 1 1 1 1
WIDTH 1133
HEIGHT 1
VIEWPOINT 0 0 0 1 0 0 0
POINTS 1133
DATA ascii
0.28671914 0.63699818 0.017123878 3900780
0.28827354 0.63895106 0.016982853 4032623
0.29054284 0.64180249 0.016776979 4162167
0.29287431 0.644732 0.016565382 4686974
0.29436657 0.6466068 0.016429961 4358009
0.29592085 0.64855981 0.016288936 4684910
0.28271851 0.63674957 0.013906181 4099486
0.2892575 0.64692664 0.014185905 4427685
0.29261976 0.64793932 0.013858676 4296082
0.294321 0.65044516 0.013243735 4294260
0.2503857 0.59863174 0.017808914 3043943
0.25194004 0.60058475 0.01766783 3241322
0.25736219 0.60730112 0.017100096 3439217
0.26274025 0.61405838 0.016612053 3505255
0.26423243 0.61593324 0.016476631 3373669
0.26625648 0.61903143 0.015506685 3637369
0.26883331 0.62171412 0.01605916 3439718
0.27008742 0.6241864 0.014482558 3968154
0.2723338 0.62482452 0.014397264 3902359
0.27334037 0.62909305 0.014581144 3968153
0.27598596 0.63041121 0.015015841 3703674
0.27809721 0.63335383 0.015218496 3571060
0.27871269 0.63621175 0.013716459 4033434
0.28182 0.64062983 0.013421357 3967109
0.28493387 0.64246297 0.013297677 4098439
0.28732219 0.64548951 0.013725817 4164234
0.2894699 0.64642018 0.013059735 4032116
0.29260194 0.65356958 0.013632238 4295066
0.29464635 0.65467656 0.013382375 4555907
0.29629344 0.65640807 0.012967706 5210241
0.29787934 0.65799886 0.012591481 5078911
0.30319858 0.66662061 0.0097978115 6386265
0.23137388 0.58072656 0.015899122 3108444
0.23360987 0.58313382 0.015380502 3108702
0.23652752 0.58599532 0.014484227 3043684
0.23808187 0.58794832 0.014343143 3043940
0.23853062 0.59092534 0.016196907 3174749
0.24002275 0.5928002 0.016061485 3109213
0.24423711 0.59568214 0.013784587 3109720
0.24540074 0.59754521 0.013410568 3570807
0.24681513 0.6000796 0.014460027 3241056
0.24899888 0.602853 0.013118684 3966609
0.25166234 0.60732853 0.014929473 3372905
0.25451612 0.60856569 0.012993455 4229777
0.25577596 0.61284781 0.013498664 4163988
0.25906259 0.61373347 0.013236463 4098455
0.26029998 0.61581641 0.012289047 3571050
0.26150209 0.61861515 0.013774574 4098965
0.26455513 0.62381732 0.013986886 4033432
0.26727998 0.62396574 0.014167607 3902362
0.26860476 0.62861586 0.013392031 3571049
0.27033094 0.63110512 0.012820363 3636844
0.27277935 0.63316947 0.012553632 3703151
0.27574575 0.63503653 0.013490021 3835522
0.27770334 0.63731772 0.012589276 3834735
0.2796095 0.63874996 0.012659967 3900271
0.28408277 0.64703125 0.010010839 4032884
0.28643993 0.6483556 0.010010898 4164213
0.29630476 0.66258085 0.0090532899 4687460
0.29980251 0.66540158 0.008666575 4748643
0.30129474 0.66727638 0.0085311532 7304027
0.30413505 0.66965854 0.0090079904 6975569
0.30504867 0.67282778 0.0080126524 7892295
0.30755633 0.67504728 0.0078872442 8875042
0.30911061 0.67700034 0.00774616 9269799
0.31060278 0.67887509 0.0076107979 9465138
0.2386907 0.59484708 0.013770998 3834507
0.24133766 0.59667879 0.013357759 3900300
0.24275956 0.60044205 0.013780653 3900560
0.24524383 0.60089815 0.013795555 3900307
0.24712011 0.60193825 0.013424277 3900561
0.24892472 0.60677588 0.013445139 4032406
0.25134447 0.607279 0.013400078 4098195
0.25187463 0.6107989 0.011260211 3439462
0.2538442 0.61232948 0.012506187 3834751
0.25673294 0.61350071 0.011814117 3439719
0.26187229 0.62416792 0.012319744 3636845
0.26378912 0.62609494 0.01226759 3637102
0.26564127 0.62806898 0.012155592 3637358
0.26772106 0.62936592 0.012266636 3637103
0.27079624 0.63274264 0.0096055865 3769710
0.2773532 0.64303887 0.0099595189 3835758
0.28037918 0.6454758 0.009696424 3901553
0.28455907 0.65048432 0.00812608 4295299
0.28552276 0.65481412 0.0095707774 4229488
0.28815541 0.65633911 0.0091817975 4360566
0.29020572 0.65758264 0.0091159344 4426101
0.29231605 0.65902948 0.0089788437 4491637
0.29429558 0.66063315 0.0086888075 4557170
0.29676583 0.66607988 0.0076378584 4948580
0.30638683 0.67604929 0.0071007013 8219716
0.20702887 0.55746824 0.014031887 2777938
0.20936035 0.56039774 0.013820291 2712402
0.21169193 0.56332719 0.013608754 2516563
0.2131815 0.56532729 0.013407648 2648149
0.21473588 0.56728035 0.013266623 2779478
0.21703635 0.57017076 0.013057888 2779477
0.21944311 0.57309836 0.012763679 2779476
0.22093527 0.57497323 0.012628257 3041876
0.22248961 0.57692617 0.012487233 3239255
0.22404397 0.57887912 0.012346148 3173207
0.22559832 0.58083212 0.012205124 3107671
0.22763847 0.58318537 0.011438549 3108444
0.23641655 0.59442484 0.011223435 3108956
0.23797093 0.59637785 0.011082351 3175006
0.23921782 0.59865147 0.011107683 3241310
0.24102859 0.60038203 0.011598885 3372644
0.24320267 0.60254979 0.01062572 3438948
0.24577633 0.60453713 0.010969222 3373412
0.24859229 0.60702819 0.011502028 3373411
0.25003779 0.60906917 0.011380732 3439204
0.25374514 0.61610091 0.0095751882 3702892
0.25695479 0.61839974 0.009422183 3637612
0.25950551 0.62269491 0.0083803535 3703157
0.26377898 0.62938321 0.0089446902 3768947
0.26569653 0.63090885 0.0086603761 3769204
0.26822966 0.63197261 0.0087663531 3834996
0.27280933 0.64023793 0.0085447431 3900789
0.27544907 0.64184833 0.0088261366 3901046
0.27657607 0.64662004 0.0084424019 4097917
0.27853248 0.64785725 0.0081396103 4163453
0.28130138 0.64886397 0.0082802773 4097921
0.28571433 0.65611219 0.0083839297 4492162
0.29299566 0.66798866 0.0066988468 5210741
0.29520667 0.66901791 0.0072080493 5407118
0.29732031 0.67064369 0.0060409904 5472119
0.29878035 0.67274964 0.005205214 6061170
0.30068067 0.67477369 0.0051358938 7304030
0.30304897 0.67804939 0.0051011443 8481851
0.30758512 0.68137372 0.0054075718 8743478
0.21144518 0.567316 0.011173666 3107414
0.21310847 0.56918091 0.011012912 3172953
0.21510537 0.57130504 0.011029303 3172954
0.21724242 0.57293051 0.011003315 3107418
0.21878687 0.57538444 0.010599673 3107674
0.22033881 0.57746267 0.010392964 3107930
0.22285333 0.58036476 0.010046244 3107931
0.22525886 0.58335489 0.0097191334 3108701
0.22943731 0.59002346 0.011619747 3371616
0.23154764 0.59188527 0.01014173 3437921
0.23277439 0.59424788 0.011175275 3241057
0.23550589 0.59692574 0.011001468 3241059
0.2359715 0.59938604 0.009432435 3438949
0.24008054 0.60145581 0.009519577 3570282
0.24246387 0.60365736 0.0089583397 3701362
0.24400619 0.60533738 0.0084494352 3701618
0.24457566 0.61071247 0.0093895793 3505256
0.24658582 0.61230695 0.0093092918 3505512
0.24902929 0.61277544 0.0090445876 3571052
0.25089878 0.61452973 0.0087414384 3636846
0.25257838 0.61977166 0.0085480213 3768437
0.25501847 0.62026858 0.0086427331 3834230
0.25717682 0.62198454 0.0083315969 3702900
0.25972289 0.6274659 0.0088922977 3703408
0.26152205 0.62840921 0.008695066 3900025
0.26729625 0.63784826 0.0080525279 3966075
0.26931721 0.63903862 0.0078097582 4031865
0.2937513 0.67063844 0.0056321025 5603439
0.29952866 0.67577493 0.0039414763 6584920
0.3010143 0.67812222 0.0031840801 7370064
0.30258256 0.68054122 0.0025607944 7697229
0.30418527 0.68317592 0.0023472905 8155742
0.14302774 0.48655221 0.015965879 3895398
0.14588837 0.48818612 0.015166938 3764325
0.14906946 0.49003235 0.015522838 3632748
0.15137717 0.49492607 0.016545653 3239768
0.15318666 0.49766338 0.015454113 3238499
0.15575956 0.49972159 0.014257014 3500649
0.15688691 0.50322747 0.014961898 3304542
0.15865889 0.50500447 0.014781296 3304286
0.16038683 0.50682223 0.014680505 3369820
0.16191821 0.50890654 0.014334023 3303772
0.16449325 0.51190108 0.014161289 3369563
0.16706318 0.51514614 0.013857186 3435099
0.16963226 0.51644802 0.014111459 3434843
0.17033556 0.51876074 0.014003336 3303513
0.17182405 0.52082342 0.013769448 3237208
0.17384498 0.52327234 0.013820469 3302744
0.17581624 0.52574301 0.013331354 3434071
0.17748722 0.52773011 0.013174832 3368534
0.17913605 0.52973765 0.013058126 3368535
0.18099819 0.53195071 0.013706207 3237211
0.18382201 0.53603935 0.011041701 3500119
0.18579285 0.53742439 0.011172473 3500118
0.18752079 0.53924215 0.011071742 3499861
0.20091824 0.55716968 0.010798275 3302490
0.20269686 0.55921423 0.011737168 2777938
0.20509221 0.56286454 0.010689616 3106644
0.2078719 0.56564194 0.010209262 3369564
0.21010846 0.56871414 0.0087124109 3697767
0.21857145 0.57896268 0.0081419945 3240027
0.22417711 0.5869723 0.0088918805 3437663
0.22682293 0.58841717 0.0084260106 3569000
0.22957309 0.59060514 0.0087644458 3503970
0.22975808 0.5947544 0.0079901814 3766386
0.23217803 0.59583837 0.0089004636 3635307
0.23435512 0.59711289 0.0088889003 3635308
0.2350115 0.60049099 0.0088344812 3766641
0.23657161 0.60229015 0.0083996654 3832178
0.24313737 0.61050892 0.0084462762 3570543
0.24573374 0.61174732 0.0081216097 3636336
0.25023919 0.61856645 0.0086221099 3768180
0.29384825 0.67438549 0.0036370158 6061420
0.29527432 0.67652923 0.0029509068 6519656
0.29715365 0.67843974 0.0022598505 6912100
0.30047584 0.68210161 0.002722621 7762795
0.13868809 0.48308587 0.014086664 3894354
0.14160319 0.484678 0.014195919 4026196
0.14362811 0.48707718 0.013898551 4027479
0.14588232 0.49219441 0.015654266 3502177
0.1478499 0.49426514 0.015493751 3501668
0.15023372 0.49617386 0.015313089 3436130
0.15455846 0.50161809 0.014873445 3304798
0.15424922 0.50511384 0.013784945 3434342
0.15646678 0.50603735 0.013787866 3434597
0.15871319 0.5082801 0.012879014 3500391
0.16123606 0.51045358 0.012284338 3500391
0.16301644 0.51195127 0.01187557 3500391
0.16557539 0.51834631 0.01164031 3565413
0.16905931 0.51980186 0.011696279 3565414
0.17027846 0.52171731 0.010887265 3565156
0.17679766 0.5292033 0.010908365 3696483
0.17810422 0.53094041 0.01036483 3696740
0.18008891 0.53237653 0.011354148 3500119
0.18142632 0.53460228 0.010827661 3500121
0.18317163 0.53965151 0.0095790029 3630948
0.18599227 0.54024148 0.0098367333 3696742
0.19054833 0.54786152 0.0095782876 3762788
0.19261956 0.55033672 0.0099570155 3631710
0.19295011 0.55341858 0.010187447 3369046
0.19566169 0.55576587 0.0099422932 3368793
0.19853008 0.55741102 0.0099773407 3368794
0.20065117 0.56059051 0.010022104 3040851
0.20183402 0.56253535 0.0092197061 3303769
0.2033678 0.56483579 0.008345902 3566941
0.20605399 0.56548011 0.0078746676 3501659
0.2089733 0.57255501 0.0086180568 3436126
0.2115784 0.57475209 0.0083701015 3501922
0.21359394 0.57614458 0.0082084537 3436130
0.21554123 0.5777719 0.0078883767 3370849
0.21727455 0.57893789 0.007686615 3436134
0.21783331 0.58436233 0.0080105662 3502437
0.22061838 0.58577454 0.0080356002 3502692
0.22324213 0.58723986 0.0076096058 3634029
0.2251343 0.59279805 0.0079355836 3831407
0.2272844 0.59389406 0.007812798 3831665
0.29778397 0.68173575 0.0016690493 7435107
0.13240586 0.4788484 0.012028039 2446130
0.13567254 0.48174778 0.013728976 3433029
0.13709128 0.48387069 0.012673497 3368765
0.13931958 0.48512983 0.013011515 3763523
0.1416848 0.4875235 0.012842953 3764565
0.14615722 0.49587411 0.012915015 3371101
0.14723255 0.49683717 0.011512756 3634018
0.15001184 0.49989471 0.010919571 3502176
0.15156591 0.50225556 0.013764977 2779996
0.15312026 0.50420856 0.013623893 3303514
0.15607931 0.50712222 0.012723863 3304020
0.15778328 0.51006746 0.01320076 3304022
0.15933764 0.51202047 0.013059735 3173211
0.1617002 0.51498902 0.012845337 3172954
0.16294423 0.51717377 0.010721266 3566177
0.16514364 0.51889586 0.011536658 3304026
0.1690758 0.52662975 0.010706842 3368035
0.17227922 0.52829409 0.010562658 3565155
0.17825268 0.53533566 0.010822713 3761768
0.17991231 0.53777331 0.010282338 3499617
0.1812049 0.53939927 0.01099962 3171409
0.18412036 0.54185569 0.0097878575 3105879
0.18447942 0.54575908 0.0092990994 3828069
0.18706445 0.54640597 0.0095223188 3762788
0.18775831 0.54939258 0.0071204901 3697755
0.1910824 0.55122811 0.0083132386 3500633
0.1930553 0.55420303 0.009801209 3237208
0.19464424 0.55753571 0.0087621808 3106644
0.19654313 0.55934352 0.0086359382 3237460
0.19876234 0.56090987 0.0078086257 3369559
0.2051066 0.57023263 0.0082936883 3370583
0.12691544 0.47766459 0.011347234 2642219
0.129389 0.47852498 0.011524558 2511661
0.13277134 0.48338595 0.011530578 2645561
0.13661189 0.4884966 0.0094064474 3961167
0.13812777 0.49140146 0.011387229 3830876
0.14031631 0.49261042 0.011478424 3830879
0.14261141 0.49385643 0.011484146 3634273
0.15001187 0.50572479 0.010997295 3501664
0.15221356 0.50730318 0.01103133 3501408
0.15340149 0.50962919 0.010244966 3501407
0.15490757 0.51197016 0.0096274018 3566942
0.15684004 0.51324236 0.0095441341 3567199
0.15853268 0.51581764 0.0089095831 3501150
0.16130897 0.51644868 0.0092471242 3501406
0.16437225 0.5248912 0.0092429519 3566172
0.1660413 0.52660215 0.0087883472 3500636
0.16798437 0.52836913 0.008582294 3500378
0.17011897 0.53011984 0.0084906816 3631963
0.17197451 0.53206527 0.0080192685 3697499
0.17353235 0.53398943 0.0075187683 3631707
0.17694545 0.53625482 0.0073703527 3631710
0.17970861 0.53901988 0.006981194 3631962
0.1791238 0.54374629 0.0074891448 3566169
0.18113156 0.54546607 0.0073432326 3631962
0.1832507 0.54697251 0.0072430968 3697756
0.18517581 0.54862028 0.006962955 3698011
0.1916905 0.55693746 0.0078080893 3566423
0.12434871 0.47607163 0.0088623166 4612138
0.12402283 0.4774974 0.010832369 3101486
0.12847744 0.48224333 0.010426462 2381359
0.13181257 0.48368832 0.010467947 3038263
0.13309194 0.48680294 0.0092021227 3303497
0.12120746 0.47559199 0.0083701015 5072171
0.12250663 0.47918472 0.0086245537 2970671
0.12454374 0.48087505 0.0075073242 3232801
0.12644579 0.48408568 0.0082292557 2249767
0.12908776 0.48485386 0.008985877 2710846
0.1154817 0.47118714 0.006580472 7239758
0.11565228 0.47445536 0.0076292157 5860150
0.11762911 0.47568646 0.0074662566 5466159
0.12197785 0.4803606 0.0057851076 4349467
0.12464096 0.48166883 0.0062764287 3233817
0.12553802 0.4846631 0.0079938173 2578739
0.10254881 0.460264 0.0052703619 5584902
0.10363364 0.46260715 0.0053581595 7364388
0.10671133 0.46521944 0.005610168 8485184
0.10902776 0.46789336 0.0059474707 8420683
0.1104511 0.46929786 0.006516695 7765079
0.11211655 0.47140419 0.0052931905 7960910
0.11377655 0.47448966 0.0045666695 7501878
0.11639453 0.47652146 0.0045360923 6844715
0.11805813 0.47922763 0.0045076013 5400610
0.10020623 0.46188158 0.0053974986 7036467
0.10601406 0.46930498 0.0038030744 8880189
0.10800055 0.47093427 0.00394243 8814917
0.11019936 0.47324663 0.0034726858 8224583
0.11295235 0.47461775 0.0031667352 7699523
0.11238784 0.47933817 0.0038145781 5794591
0.11566089 0.47959834 0.0044924617 5269278
0.096900612 0.46356767 0.0029503703 5783556
0.09990932 0.46622419 0.0028782487 7429648
0.10258594 0.46786737 0.0019516349 8549419
0.10492398 0.4717215 0.0022090077 8815950
0.10722305 0.47327766 0.0021204948 8486476
0.095029548 0.46150261 0.0015947819 5585410
0.096761048 0.4648962 0.00031107664 6113287
0.09947525 0.46544906 0.00065428019 6968846
0.10052295 0.46933854 0.0022461414 8814658
0.10227698 0.47099635 0.0019913316 8880970
0.091284066 0.46207613 0.00016433001 5519361
0.28943723 0.64282644 0.018771708 3832945
0.29176879 0.64575589 0.018560112 4225397
0.29326093 0.64763081 0.01842469 3830639
0.28233856 0.64109612 0.016728044 3767149
0.28439766 0.64592659 0.014136374 4361883
0.28684634 0.65041828 0.014691651 4361374
0.28904092 0.65147322 0.014489114 4230045
0.2907258 0.65252942 0.014003515 4098459
0.23746929 0.59190834 0.018111825 3175008
0.23896135 0.59378326 0.017976403 3175008
0.25593489 0.61510974 0.01643616 3374691
0.25823522 0.61800015 0.016227424 3439972
0.2605356 0.62089056 0.016018689 3373669
0.26209012 0.6228435 0.015877604 3373925
0.26364434 0.62479651 0.01573658 3439718
0.26519877 0.62674946 0.015595555 3505768
0.26761246 0.62902045 0.01455611 3769737
0.27177662 0.63423181 0.014439583 4032138
0.27290824 0.63643622 0.014895916 3964268
0.27466667 0.63890195 0.014354229 3966342
0.27740455 0.64133573 0.014120996 4031615
0.27888465 0.64397502 0.013210475 3966064
0.28096199 0.64515281 0.014007866 4229776
0.28249562 0.64759845 0.01366514 3899249
0.28518975 0.6498332 0.013739526 4163456
0.28776205 0.65288162 0.012806654 4228206
0.28962171 0.65447992 0.012891531 4227693
0.29127997 0.65659529 0.012599349 4424045
0.29263541 0.65894008 0.012147009 4554347
0.29379201 0.6616767 0.011383235 4880743
0.24499635 0.60495603 0.014081895 4097682
0.24668108 0.60601223 0.013596177 4097683
0.25083601 0.61165059 0.013380587 4098195
0.2571665 0.61812824 0.013313353 3901333
0.2607753 0.62348133 0.012878835 3835266
0.26387799 0.62807363 0.014058411 3770778
0.26859671 0.63316888 0.01430887 3902103
0.27105993 0.6376425 0.013001561 3768688
0.27293378 0.63889068 0.013712704 3901059
0.27610114 0.64145118 0.01317209 3901054
0.28962612 0.66103488 0.011534154 4687765
0.29161805 0.66332662 0.010271251 4949650
0.2948373 0.6646266 0.010573626 5469792
0.29544568 0.66815054 0.0093523264 6189656
0.22138396 0.57795018 0.014481962 3107669
0.22293834 0.57990319 0.014340878 2779992
0.22449267 0.58185613 0.014199853 2911578
0.22604705 0.58380914 0.014058769 2977114
0.2307101 0.58966804 0.013635635 3240286
0.2322022 0.5915429 0.013500273 3371360
0.23375657 0.59349585 0.013359189 3305824
0.23600315 0.59840798 0.013962626 4031884
0.23804058 0.59948957 0.013283432 3439473
0.24010251 0.6006673 0.013320327 3571058
0.24192505 0.60347325 0.014059782 3637120
0.24776745 0.61042976 0.014061153 3966357
0.24931294 0.61429423 0.011931241 3504742
0.25052077 0.61619931 0.012625396 3768957
0.2529982 0.61788845 0.012504876 3835014
0.2553457 0.61985183 0.011795402 3571050
0.25723279 0.62175989 0.012927055 3769473
0.2586551 0.623725 0.013270736 4164757
0.26011568 0.62780845 0.013237178 3769732
0.26076758 0.63029575 0.012321651 3637103
0.26387525 0.63225865 0.012597859 3637102
0.26680717 0.63448185 0.012768209 3702894
0.26852518 0.63680059 0.012404799 3702895
0.28086716 0.65358675 0.0086230636 4295041
0.28269684 0.65463388 0.0087237954 4295034
0.28388751 0.65905446 0.0094955564 4622203
0.28781319 0.66189861 0.0088328123 4753017
0.29033527 0.6646325 0.0080124736 4949367
0.29312629 0.66635859 0.0086107254 5079951
0.29704246 0.67118341 0.0086804032 7106384
0.29833812 0.67332488 0.0082992315 7760965
0.30040884 0.67611849 0.0077621937 8350262
0.30167741 0.67853105 0.0072896481 8677939
0.30360591 0.67994255 0.0073205829 9137208
0.2272307 0.58869535 0.011454403 3371616
0.23528644 0.60134161 0.012121975 3306852
0.23753805 0.60457182 0.011649191 3241572
0.23939782 0.60617006 0.011734188 3307107
0.24209879 0.60811704 0.010853112 3438949
0.24339692 0.60926878 0.011858702 3373157
0.24604435 0.61188871 0.011730373 3373156
0.25436664 0.62426841 0.0089854598 3703404
0.25666183 0.62551433 0.0089912415 3703659
0.26482636 0.63659257 0.008644104 3834997
0.26744559 0.63733304 0.009653151 3704174
0.26903927 0.63949549 0.0093010664 3769708
0.26969242 0.64340001 0.0094133019 3966324
0.27150747 0.64519852 0.0091200471 3900789
0.27355459 0.64712781 0.0087629557 4032375
0.27603894 0.64906371 0.0097727776 4032626
0.27727914 0.65196884 0.0087181926 4163707
0.27942359 0.65321869 0.0088892579 4163956
0.28141385 0.65819412 0.0093181729 4687739
0.28553361 0.66089684 0.0088353753 4621945
0.2892139 0.667992 0.0076089501 5341023
0.29095054 0.6705265 0.0068945289 5471066
0.20314562 0.56219125 0.013590813 2712405
0.20469995 0.56414419 0.013449788 2712406
0.20629856 0.56605619 0.013228953 2580820
0.20859776 0.56900918 0.012987435 2516310
0.21089695 0.57196224 0.012745798 2582103
0.21325953 0.57493073 0.01253134 2648150
0.2155067 0.57845962 0.011714756 2910806
0.217364 0.58018315 0.011734068 3107671
0.21933889 0.58253527 0.011119902 3173722
0.22093247 0.58469772 0.010767758 3173979
0.22386324 0.58698356 0.010905325 3174237
0.22712277 0.59388721 0.0094812512 3635299
0.22882807 0.59531063 0.010761201 3438179
0.23015794 0.59728944 0.01204896 3306594
0.23199211 0.59914452 0.011862695 3306595
0.23524496 0.60483295 0.0094920993 3504997
0.23749332 0.60624522 0.0095120668 3439206
0.24059476 0.60823077 0.009146452 3636076
0.24536158 0.61654824 0.0084587932 3570801
0.24763383 0.61792558 0.0082591176 3636849
0.25186229 0.62291926 0.0087912083 3637610
0.25282764 0.6255129 0.0083709359 3768437
0.25629008 0.62703705 0.00825423 3768692
0.256161 0.63140523 0.0088228583 4031353
0.25811404 0.63267112 0.008879602 3900532
0.26018298 0.63408196 0.0086752772 3769204
0.26219612 0.63559949 0.0084480643 3769204
0.26608303 0.64160889 0.0086455345 3965819
0.27342764 0.65078992 0.0084419847 4229245
0.28497303 0.66510445 0.0077435374 4686695
0.28678453 0.66709077 0.0073518157 4948581
0.29221767 0.67426723 0.0053004622 6713686
0.29491985 0.6773411 0.0049695969 8022348
0.29575461 0.67926621 0.0041933656 7499878
0.13935296 0.48610854 0.015410125 3961189
0.14094846 0.48928705 0.015853465 3567458
0.14290552 0.490863 0.015815794 3567461
0.14520951 0.49261811 0.015878499 3698025
0.14910698 0.50022882 0.015322268 3500392
0.15171288 0.50252253 0.014649332 3434855
0.16233109 0.51665252 0.014471531 3500379
0.16422999 0.51846033 0.014345229 3500378
0.16712081 0.52114546 0.014255881 3434328
0.16907802 0.52477545 0.013414562 3565398
0.1998506 0.56199318 0.0099862218 3565665
0.20390154 0.56894892 0.01091671 3172436
0.20586263 0.57083488 0.010784805 3107155
0.20767812 0.57247418 0.010949492 3041876
0.21049085 0.57478857 0.011069715 3107415
0.21344343 0.57750356 0.011187255 3173463
0.21381061 0.58075446 0.008844614 3436636
0.21592972 0.58226085 0.0087445378 3436892
0.22026618 0.58986396 0.0093756914 3503457
0.22356831 0.59394687 0.0083579421 3569505
0.22893339 0.59988505 0.0079072118 3766385
0.2311459 0.60114205 0.008926928 3569771
0.23264949 0.60369116 0.0093917251 3438948
0.23382995 0.60639298 0.0084083676 3766641
0.23530765 0.60811996 0.0078394413 3832435
0.23844649 0.60872483 0.0082659721 3767154
0.24132197 0.6151492 0.0083791614 3636082
0.24240787 0.61787927 0.0085194707 3439718
0.24500333 0.61902112 0.0086199641 3505768
0.24765955 0.62188751 0.008453548 3637101
0.24924096 0.62383229 0.0084988475 3768181
0.2901566 0.67687917 0.0045719743 6518394
0.29246917 0.6774559 0.0043669343 6714725
0.29378551 0.67979866 0.0034552217 7565640
0.29559436 0.68191028 0.0029978752 8024386
0.13130593 0.48061761 0.013768613 2841668
0.13558581 0.48498723 0.015088379 3960415
0.13757157 0.48755276 0.015185416 3764055
0.1400955 0.48818123 0.015071034 3567962
0.14149824 0.49169669 0.015986502 3370844
0.14372908 0.49413955 0.015668094 3042654
0.14508106 0.49741945 0.015953541 3435611
0.14688149 0.49917853 0.015839517 3567196
0.14837536 0.50128567 0.015690267 3238491
0.14971136 0.50352561 0.015343487 3304028
0.1515159 0.50639242 0.014955699 3303518
0.1537738 0.50874686 0.014538944 3369311
0.15594907 0.51122308 0.014306307 3434846
0.15796801 0.51310319 0.013843894 3369057
0.1600817 0.51552659 0.013677537 3434590
0.16367221 0.51987994 0.014560759 3237715
0.16600375 0.52280933 0.014349222 3106384
0.16724052 0.52521074 0.012486041 3302492
0.16962029 0.52709508 0.013401628 3368278
0.17104299 0.52926755 0.013074934 3368533
0.17302686 0.5320065 0.012893796 3368277
0.17477956 0.53474808 0.012269795 3433813
0.17958432 0.5414083 0.010323286 3499863
0.18247885 0.5445627 0.0096816421 3828070
0.18407989 0.54569232 0.010177195 3565653
0.1874114 0.54761565 0.010597825 3565909
0.18926123 0.54971474 0.010420144 3500374
0.18949956 0.55298346 0.0095635653 3959651
0.19120157 0.55567801 0.011567533 2908752
0.19222499 0.55880272 0.010279953 3368540
0.19505563 0.56004673 0.0099570751 3565411
0.196688 0.56171358 0.010256886 3368794
0.1984401 0.56491172 0.010630608 2975059
0.20060293 0.56825864 0.0093174577 3369564
0.20276743 0.56931794 0.0088454485 3435358
0.20457098 0.57097465 0.0091199279 3500641
0.20677114 0.57277495 0.0086632371 3566693
0.20665133 0.57696038 0.0085787177 3436633
0.20916224 0.57960081 0.0081136823 3567456
0.21149731 0.58094555 0.0081537366 3502178
0.21426049 0.58276296 0.0079375505 3633255
0.21639597 0.58867681 0.008779943 3437407
0.21873263 0.59082335 0.0075317621 3634027
0.22193575 0.59228021 0.0080580115 3634536
0.22357461 0.59848177 0.0074120164 3766128
0.22611284 0.59929508 0.0076494217 3831921
0.23092937 0.60560572 0.0080820918 3832177
0.12876524 0.4799296 0.013465643 2577981
0.12979755 0.48267579 0.015009344 3762257
0.13177437 0.48390687 0.014846385 3959897
0.13354096 0.48625258 0.013618708 3764045
0.14034201 0.49662766 0.012438297 3765089
0.14301017 0.49834234 0.012410223 3633506
0.14476922 0.49974963 0.012286782 3567714
0.14681616 0.50167894 0.011929691 3567713
0.14813827 0.50366032 0.01139462 3567457
0.15903291 0.52075696 0.011915088 3565157
0.16067094 0.52197945 0.011443496 3565413
0.16221333 0.52365935 0.010934532 3630694
0.16446501 0.52504295 0.010595083 3499364
0.17143416 0.53453755 0.0097090602 3827814
0.17340843 0.53589398 0.0094804168 3762277
0.1743665 0.53939557 0.010031104 3565405
0.17730495 0.53950745 0.010286391 3499861
0.17793778 0.54267824 0.0097613335 3565154
0.18017213 0.54383194 0.0095929503 3631197
0.18124762 0.54976022 0.0095896125 3827810
0.18331529 0.55078423 0.0093327165 3828322
0.18572666 0.55156654 0.0095156431 3893858
0.18714467 0.55440438 0.0077167749 3697754
0.18997814 0.55684388 0.0089124441 3631453
0.19316646 0.56143123 0.010079265 3237716
0.19414341 0.56453305 0.0079630017 3435095
0.19734176 0.56689751 0.0077072978 3369814
0.19792607 0.56782818 0.0093080401 3566181
0.20191401 0.57444346 0.0083730817 3304534
0.20448062 0.57587063 0.0085617304 3370583
0.20508984 0.57817709 0.0082166791 3501414
0.20712867 0.57948643 0.0080479383 3632743
0.21547975 0.58895242 0.0078172088 3633514
0.1229721 0.47897515 0.012624502 2576949
0.12605347 0.47925165 0.013188064 2577721
0.12888029 0.4834291 0.012672961 2907959
0.13073866 0.48509008 0.012725055 3302977
0.13226129 0.48666531 0.012321651 3499841
0.13401143 0.48930174 0.011395156 3961172
0.13398479 0.4921082 0.012738705 3961952
0.13675869 0.49491847 0.012206912 3830624
0.14925729 0.5124526 0.01075983 3501150
0.15209714 0.51515311 0.010320902 3500893
0.1536573 0.51695222 0.009886086 3566686
0.1555776 0.51885045 0.0094746351 3500893
0.15787509 0.51997131 0.0095461011 3566684
0.15975617 0.52165997 0.0093457103 3566430
0.16167875 0.52343309 0.0089998841 3566428
0.16529095 0.53076977 0.010368884 3630692
0.16720304 0.53204811 0.010145843 3696483
0.16861585 0.53492892 0.0088860393 3696734
0.17114899 0.53709936 0.0083612204 3763034
0.17327061 0.53848052 0.0083268881 3631452
0.17478907 0.54138482 0.0085548162 3565408
0.17622066 0.54308432 0.0070973039 3566171
0.1763134 0.54692918 0.0081827641 3565912
0.18023801 0.54841352 0.0081756711 3434585
0.18257515 0.55055755 0.0077857375 3369050
0.1848474 0.55271643 0.0074771047 3172182
0.19079794 0.5621438 0.0080245733 3435095
0.11969413 0.47790062 0.0094795227 3823658
0.12140098 0.48020869 0.010619342 2315050
0.12295534 0.4821617 0.010478318 2315049
0.12458639 0.48434055 0.010765076 2512943
0.12699665 0.48723945 0.010111511 3566154
0.1302287 0.48841104 0.010549486 3895380
0.16499737 0.53397727 0.008120954 3697241
0.11680654 0.47748289 0.0090959668 4217647
0.11991309 0.48192903 0.0074074268 3561752
0.12221316 0.48385125 0.0088549256 2578478
0.12357397 0.48707956 0.0091738105 3236675
0.10523444 0.46656546 0.0069079995 8618319
0.10778485 0.46925616 0.0066896081 8880964
0.11050695 0.4731746 0.0067507029 6975805
0.11262609 0.47468105 0.0066506267 6385455
0.11351728 0.47759652 0.0075070262 4742939
0.11610109 0.48079914 0.0068271756 4087328
0.11973776 0.48318517 0.0069161057 2840106
0.097795084 0.46109921 0.0052145123 6443542
0.098762706 0.46389249 0.0066983104 8354894
0.10191448 0.46486694 0.0070676208 8486489
0.1049052 0.47044045 0.0073053837 7436627
0.10764667 0.47232682 0.0069164634 6845510
0.10945018 0.47780114 0.0051058531 6385201
0.11141618 0.47943661 0.0051053166 5728806
0.1138536 0.48124841 0.0056515932 4612379
0.11594759 0.48330188 0.0057580471 3562531
0.094018474 0.45987004 0.0050683022 5456647
0.096677125 0.46274936 0.0068810582 8222024
0.098292649 0.46451807 0.0048632026 7100686
0.099909067 0.46654922 0.0047165751 7891999
0.10152562 0.46858031 0.0045698285 9207859
0.10314392 0.47318351 0.0046076179 8158789
0.10590653 0.47450328 0.0045841336 7830337
0.10737339 0.47663474 0.0041776299 6845491
0.10945143 0.47831267 0.0033400059 6254122
0.11022982 0.48189601 0.0048145652 4612630
0.091507182 0.46112365 0.0018422604 5322243
0.094080478 0.46355832 0.0036478639 5454336
0.094726741 0.46678042 0.0039814115 8088353
0.097434133 0.46796468 0.003244698 8550447
0.09898451 0.46969047 0.0043460727 8945978
0.1004049 0.47248608 0.0037609339 8355910
0.10187297 0.47521204 0.0027366281 7699524
0.10379823 0.47685975 0.0024564862 7108151
0.088609233 0.46005213 0.0020394921 5256717
0.089788169 0.46240151 0.002364099 5387264
0.094372287 0.46726066 0.0014078021 7693854
0.086393133 0.46407294 0.00050151348 5520384
0.090021715 0.46612817 0.0007057786 6376462
0.28513181 0.64692253 0.018293202 4814955
0.28662398 0.64879739 0.01815778 5012591
0.27567053 0.64222366 0.016463935 3570804
0.27800208 0.64515305 0.016252339 3767416
0.26641771 0.63235813 0.014519811 3967899
0.26828212 0.63739914 0.014469445 3836312
0.26996437 0.63858056 0.013918042 3902361
0.27444011 0.64410853 0.013936877 4165019
0.27647349 0.64606953 0.013869286 4098183
0.27735716 0.64922017 0.014057696 4163463
0.28011122 0.65014374 0.014065683 4163724
0.28198773 0.6523087 0.01391083 3964781
0.28345454 0.6544401 0.013504326 4161643
0.28512695 0.65796912 0.01255697 4359040
0.28605175 0.65946817 0.012487948 4619367
0.23309968 0.59749687 0.017207682 3108961
0.23466821 0.59827679 0.016047299 3504244
0.2367612 0.60089082 0.015928209 3175270
0.23856322 0.60263568 0.015634477 3373172
0.24042268 0.6042847 0.014648736 3044190
0.2426617 0.60765475 0.014493883 3438962
0.24480844 0.60966688 0.014316618 3570811
0.24662216 0.61197758 0.01401037 3307365
0.24817643 0.61393058 0.013869345 3636586
0.24973089 0.61588347 0.013728321 3505000
0.25150943 0.61932504 0.014514089 3439459
0.25380462 0.62241751 0.014386594 3703416
0.25484264 0.62471944 0.015158832 3373666
0.25639689 0.62667245 0.015017807 3439459
0.25820407 0.62805843 0.014242649 3638145
0.26064485 0.63145292 0.014584005 3571833
0.26360774 0.63226283 0.014139235 3967643
0.26404363 0.63639188 0.014078557 3636842
0.26614738 0.63800681 0.013538301 3768695
0.26779449 0.64062345 0.013859928 3637101
0.26968282 0.64308447 0.013799846 3703417
0.27248755 0.64363086 0.014165282 4032390
0.27416545 0.64585096 0.01376766 3965553
0.27647918 0.65190482 0.013195455 4421748
0.27905965 0.65453815 0.013399363 4292741
0.28376889 0.65759605 0.012810409 4294551
0.28695509 0.6603446 0.011536181 4556182
0.28727809 0.66211462 0.011245131 4945510
0.28884718 0.66549259 0.01031816 5599321
0.29157382 0.66845763 0.0099312663 7173196
0.23506127 0.6018517 0.014931262 3769230
0.23770168 0.60748225 0.014757574 3834513
0.24025072 0.6078912 0.014832556 3900564
0.24356435 0.61404538 0.014261842 3835286
0.24660008 0.61524159 0.013763845 3901331
0.24736966 0.6200794 0.013900161 4098452
0.2501303 0.62083268 0.013100863 3834496
0.25229359 0.62229818 0.012921035 3834750
0.25438842 0.62563765 0.013119638 3835007
0.25628251 0.62724644 0.012842357 3835265
0.25862581 0.63253748 0.013555586 3900547
0.26048207 0.63482153 0.013349235 3768173
0.26231617 0.63667655 0.01316303 3768430
0.27947462 0.65771925 0.010617673 4491403
0.28166544 0.66027623 0.0090153813 4425068
0.2835986 0.66254401 0.0085467696 4490346
0.28923428 0.66815168 0.010044992 6254167
0.29095966 0.67009467 0.0098785162 6975054
0.29442441 0.67695045 0.0082793832 8481595
0.29771459 0.67883772 0.0086328983 9006384
0.29961848 0.68039501 0.0086380839 9334323
0.30176607 0.68251538 0.0084891915 9400374
0.20823698 0.57103324 0.014881611 2910037
0.20979136 0.57298625 0.014740527 2779225
0.21215391 0.57595479 0.014526129 2713687
0.21445441 0.57884514 0.014317393 2779992
0.21678583 0.58177459 0.014105856 2976600
0.21911743 0.58470404 0.01389426 3042393
0.22067165 0.58665705 0.013753235 3042650
0.22222605 0.58861011 0.013612151 3108700
0.22390389 0.59148729 0.012563825 3174237
0.22599812 0.59381956 0.012694418 3043684
0.22844341 0.59642196 0.013047993 3109474
0.2299978 0.59837496 0.012906909 3241060
0.23613256 0.60825187 0.012552977 3372388
0.23902719 0.61074913 0.012561977 3372644
0.24031805 0.613141 0.012049556 3307364
0.24228656 0.61465132 0.012114704 3372900
0.24438673 0.61594212 0.01236552 3504229
0.24702317 0.6191256 0.011941671 3570279
0.25530344 0.63158011 0.0088843703 3834989
0.25994998 0.6387372 0.0094148517 3834740
0.26226458 0.64008802 0.0093151927 3900277
0.26506907 0.64268142 0.0096634626 3835245
0.26881364 0.64833272 0.0086500049 3900795
0.269887 0.6500845 0.0092856288 4032116
0.27106875 0.653256 0.0095030665 4163189
0.27343136 0.65522867 0.0090897679 4228980
0.27623755 0.65716469 0.0089201331 4294519
0.27889657 0.65926951 0.0088748336 4360046
0.28397939 0.6678099 0.0094382167 4947594
0.28546518 0.669258 0.008641243 5209480
0.28666627 0.67105442 0.007758081 5339779
0.29136384 0.67510498 0.007488668 8285756
0.29381421 0.67836511 0.0069643855 9137229
0.29536861 0.68031812 0.0068233609 9137229
0.29692292 0.68227106 0.0066823363 9007925
0.21419017 0.58460975 0.01146239 3239260
0.21589509 0.58655894 0.011156142 3173979
0.21812207 0.58788073 0.011461318 3240029
0.22020195 0.58917761 0.011572301 3240029
0.22192734 0.5911206 0.011405826 3305823
0.23048322 0.60521394 0.011920989 3372385
0.23297215 0.60631871 0.012106776 3372642
0.24887139 0.62850791 0.0089017153 3768694
0.25154704 0.62998521 0.0086236596 3768943
0.25394619 0.63035625 0.008885622 3900022
0.25482917 0.63583529 0.0094031692 4031606
0.25774151 0.63742363 0.0094292164 3900277
0.2622385 0.64488846 0.0090295076 3966074
0.26419231 0.64625108 0.0086610317 3966073
0.26629597 0.64751321 0.0085524321 4031867
0.27994567 0.66777861 0.0070932508 4817009
0.28302252 0.66990995 0.0067020059 4947052
0.28754169 0.67321169 0.0065092444 5732480
0.28821579 0.67588609 0.0048832297 6190975
0.13498022 0.48811546 0.016279995 3895649
0.13735239 0.49008515 0.016521037 3699039
0.13936014 0.49180499 0.016375124 3567711
0.14063492 0.49575081 0.015933275 3566441
0.14276491 0.49685293 0.015670836 3566442
0.14613965 0.50036037 0.018121958 3632468
0.14769393 0.50231349 0.017980933 3434583
0.1882384 0.55491883 0.010941505 3369044
0.20008372 0.5678497 0.012999535 2843987
0.20136724 0.57156473 0.012117207 2975316
0.2029838 0.57359588 0.01197052 3041108
0.20444298 0.57560509 0.011559784 3172694
0.20634677 0.57716244 0.011564791 3172951
0.20796086 0.57931876 0.011352479 3238745
0.21113637 0.58210492 0.01136899 3239001
0.22323711 0.59873533 0.008974731 3635299
0.22559677 0.59993428 0.0090404153 3569763
0.22792378 0.6025883 0.010283709 3438178
0.23280556 0.61181879 0.0084391236 3635821
0.23508051 0.6135689 0.0081123114 3570284
0.23753974 0.61457181 0.0083338618 3570541
0.23992135 0.61664939 0.0083994269 3439719
0.24285915 0.62196219 0.0079895854 3702130
0.24303684 0.62567097 0.0081267953 3571563
0.24566799 0.62750053 0.0083953738 3637102
0.24801493 0.62788033 0.0084984899 3703400
0.28356969 0.67505687 0.0042377114 5339751
0.28559384 0.67711753 0.0036751628 6256482
0.28530353 0.6782006 0.0048381686 7369034
0.28763509 0.68178713 0.0039759874 8351552
0.29044828 0.68385935 0.0034061074 7893608
0.12721281 0.48202863 0.014786184 3498823
0.1302661 0.48596495 0.016087115 3960677
0.1320027 0.48755199 0.015545607 3961182
0.13568488 0.49250242 0.01654911 3566697
0.13762058 0.49530208 0.015495479 3500905
0.14211088 0.50258231 0.015124381 3434600
0.14588091 0.50407624 0.015319049 3434599
0.14747235 0.50546485 0.014861643 3434599
0.14875591 0.50733334 0.014112592 3499878
0.14962454 0.51192689 0.014617145 3499876
0.15198335 0.51434332 0.01380676 3631463
0.15370151 0.51576293 0.013403773 3565414
0.1559516 0.51826739 0.012613177 3565414
0.15778008 0.52175617 0.013715625 3565913
0.15942845 0.5243724 0.013160884 3565913
0.18128476 0.55067575 0.010268211 3565651
0.18434913 0.5532257 0.010219038 3500117
0.18798369 0.5569734 0.0099962354 3696480
0.19281298 0.56594974 0.010258257 3434587
0.19527094 0.56701529 0.010446846 3434588
0.19722976 0.57005692 0.011224508 3237972
0.19959049 0.57332349 0.0089134574 3435614
0.20123363 0.57503533 0.0090706944 3500897
0.20332478 0.57692373 0.0086337328 3501156
0.20956737 0.58644783 0.0078312755 3567716
0.21237376 0.58771515 0.0078587532 3568227
0.21638058 0.5947119 0.0088689923 3634786
0.21827316 0.59579337 0.0080679059 3700074
0.22093481 0.59762287 0.0080816746 3700328
0.22331648 0.60294402 0.0078607202 3897457
0.2253553 0.60425341 0.0076920986 3766386
0.22743855 0.60552156 0.0074436665 3766642
0.22793101 0.60972351 0.0081288815 3635818
0.23050316 0.61094838 0.0082364082 3635562
0.23692153 0.61914247 0.0080887675 3701879
0.23841967 0.62086338 0.0076596141 3702130
0.24059212 0.62452531 0.007861197 3571306
0.28569093 0.68086445 0.0016800761 6583390
0.28766888 0.68322253 0.0020672083 7500385
0.12437177 0.48144484 0.014388502 3104322
0.12697369 0.48480469 0.015139878 3697745
0.12936258 0.4863199 0.014589489 3895113
0.13115567 0.48768926 0.01431638 4092230
0.13203819 0.49037004 0.013304114 3830104
0.13455087 0.49316186 0.014955521 3239254
0.13632952 0.49660337 0.015741289 3107673
0.13788389 0.49855635 0.015600264 3369562
0.13943824 0.50050932 0.015459239 3237976
0.14070572 0.50318968 0.013365328 3566939
0.14383799 0.50574231 0.012328863 3567200
0.1452644 0.50808394 0.013797343 3435099
0.14688167 0.51038694 0.012696743 3435101
0.14999436 0.51135939 0.012606919 3304027
0.15053064 0.51428246 0.012907565 3369048
0.15099992 0.51737785 0.013082504 3434841
0.15407953 0.51967418 0.013234556 3434585
0.15639599 0.52380466 0.012648761 3695973
0.15783888 0.52502352 0.012634933 3434076
0.15994523 0.5268082 0.012405634 3499355
0.16215861 0.52903414 0.012080491 3433818
0.16391976 0.53174931 0.012364566 3434068
0.16537479 0.53389806 0.012067974 3499606
0.16674195 0.5361287 0.011346459 3565146
0.16862726 0.53794062 0.011126995 3630681
0.1703708 0.54066318 0.010580897 3565143
0.17411019 0.54234499 0.010233998 3367765
0.17606208 0.54522032 0.010111332 3368531
0.17726307 0.54744101 0.009783268 3499608
0.1791569 0.54916739 0.0096542239 3499609
0.18086556 0.55116147 0.010601163 3105361
0.18245637 0.55472571 0.0098769069 3237207
0.18470654 0.55732656 0.0093458295 3368536
0.18618648 0.55964422 0.0094463229 3302998
0.1876729 0.56153923 0.0095271468 3303258
0.1900344 0.56347638 0.0096431375 3237210
0.19194075 0.56579036 0.0090732574 3040083
0.19393383 0.56924582 0.0091665983 3106900
0.19402747 0.57230669 0.0088585615 3500645
0.1967299 0.57263494 0.0086213946 3501152
0.20073394 0.58012366 0.0084376335 3502168
0.20270093 0.58185571 0.0080120564 3567707
0.20402783 0.58403617 0.0076281428 3633250
0.2063266 0.58509433 0.0077323914 3633251
0.21194595 0.59327978 0.007522285 3765355
0.21399918 0.59423882 0.0079799891 3765606
0.22055809 0.60243213 0.0075972676 3831663
0.11868206 0.48007208 0.012440979 2774073
0.12072822 0.48124766 0.013159573 2643518
0.12184975 0.48318574 0.012473047 2446143
0.12304883 0.48568815 0.012479603 3171646
0.12813768 0.49079657 0.011675119 4158555
0.13349801 0.49715096 0.013389289 3567713
0.1357334 0.50024778 0.012662649 3633248
0.14691655 0.51664227 0.011071503 3566430
0.15002675 0.51913702 0.010762811 3566430
0.15418822 0.52442759 0.0093508363 3566428
0.15593979 0.52621061 0.0090302825 3566429
0.15788296 0.52797747 0.0088242888 3566173
0.1598908 0.52969724 0.0086782575 3565916
0.16183136 0.53158933 0.0084066987 3631452
0.16454081 0.53535247 0.010608494 3696483
0.16674647 0.54011106 0.0086361766 3696986
0.1700903 0.54206514 0.008734405 3696987
0.1715105 0.54510272 0.0088395476 3630942
0.17315266 0.54708469 0.0082936287 3630940
0.17336883 0.55045682 0.0086250305 3565655
0.17572857 0.55165565 0.008690834 3631448
0.17784762 0.55316222 0.0085906982 3631704
0.17942341 0.55520546 0.0081643462 3697496
0.18744406 0.56586367 0.0083919764 3500630
0.12041721 0.48520726 0.012270451 3039550
0.12295771 0.48810855 0.011311829 3829322
0.12565354 0.48944148 0.011620581 4092499
0.15197331 0.52337873 0.0094134808 3566428
0.16136035 0.53597724 0.0090262294 3697242
0.16336314 0.53794748 0.0087489486 3697240
0.11357319 0.47949284 0.010157406 3232814
0.11420269 0.4822427 0.0099718571 2708292
0.11860523 0.48337349 0.0094502568 2840096
0.11814348 0.48519996 0.0083820224 2841396
0.1202435 0.48755571 0.010968626 3565898
0.1013716 0.46877861 0.0073906183 7962204
0.10694334 0.4767431 0.0071421266 5334066
0.10983482 0.47800332 0.0085991621 4283179
0.11354162 0.48248327 0.007790029 3561498
0.11509065 0.48463836 0.007730186 2840879
0.093369156 0.46317041 0.0072753429 8156233
0.095906362 0.46573365 0.0078044534 8684121
0.099405468 0.46804214 0.0074308515 8159071
0.10041997 0.46960428 0.0065645576 8289351
0.10116857 0.47255349 0.0069069266 7172935
0.10342364 0.47478211 0.006782949 6318909
0.10755132 0.48007363 0.0056023002 4809242
0.10929821 0.48098654 0.0067703128 4283161
0.1115745 0.48481095 0.0068207383 2971944
0.088668853 0.46074617 0.0061027408 6246424
0.091380537 0.4614242 0.0063802004 6970667
0.096570879 0.47199321 0.0060873628 8289861
0.099175826 0.47463983 0.0058592558 7370301
0.10121442 0.47795492 0.0050993562 6319155
0.10432109 0.47887379 0.0059735775 5399582
0.10495147 0.47979081 0.004348278 5466148
0.10822138 0.48435348 0.0060743093 3233822
0.087501541 0.46235621 0.0031251311 5191426
0.089663997 0.46372503 0.0033703446 5717763
0.091829404 0.46596462 0.0032957196 7099917
0.092972532 0.46947274 0.0033189654 9011518
0.095089957 0.47099358 0.0033985376 8749898
0.097354889 0.47229707 0.00298208 8487501
0.097184137 0.47658086 0.0036962032 7240001
0.099287719 0.47784302 0.0035876036 6780209
0.1016659 0.4792093 0.0035150647 6319402
0.10304475 0.481471 0.0030556321 5726501
0.083662555 0.46186507 0.0018760562 5322756
0.089407235 0.46853977 0.0025110841 8483376
0.08135502 0.46147007 0.0015519261 5388293
0.08373493 0.46399426 0.0011365414 4796418
0.084548369 0.46689624 0.0015388727 6507267
0.086087152 0.46860489 0.0013893843 8549413
0.25373703 0.62574345 0.017153561 3177060
0.25522912 0.62761837 0.017018139 3177060
0.25678352 0.62957126 0.016877115 3438948
0.25911501 0.63250077 0.016665518 3044962
0.2622548 0.63644576 0.016380608 3374183
0.26455516 0.63933617 0.016171873 3637097
0.26676556 0.64179033 0.015134513 3835264
0.26844108 0.64421862 0.015819252 3637355
0.27077261 0.64714813 0.015607655 3439980
0.27261215 0.64842975 0.014632404 3966606
0.27381909 0.65097594 0.015331209 3635830
0.27633458 0.6534282 0.014380395 3965050
0.2794728 0.65563774 0.014567733 4028518
0.25384629 0.63017845 0.014185488 4230039
0.25640678 0.63117868 0.013712525 3900802
0.2592859 0.6360181 0.014077306 4032667
0.26305497 0.63667554 0.014199555 4032920
0.26254392 0.64117247 0.014114439 4164762
0.26487482 0.64295626 0.014281809 3834749
0.26725119 0.64633334 0.01426214 3901060
0.26985526 0.64703685 0.01459223 4032389
0.27145416 0.64944673 0.014178693 4030833
0.27292109 0.65196544 0.014409065 4162955
0.27716967 0.65508586 0.013449192 4228757
0.28014576 0.65911472 0.013406456 4421733
0.28154534 0.66141856 0.012874186 4879456
0.282107 0.66510868 0.011667132 5402969
0.21645749 0.5837751 0.016030014 3108186
0.21801171 0.58572811 0.015888989 3042903
0.22267467 0.59158713 0.015465856 2846811
0.22500633 0.59451652 0.015254259 2846566
0.22733781 0.59744596 0.015042722 2715491
0.22889206 0.59939903 0.014901638 2847077
0.23103523 0.60514444 0.015270591 3900302
0.23438887 0.60630727 0.015153944 4031631
0.23591512 0.60999072 0.01473552 3373432
0.23667511 0.61213428 0.014683068 4031889
0.24008617 0.61317599 0.014409661 3900309
0.24053468 0.61651963 0.01513499 3900563
0.24358957 0.61791998 0.013832629 3505271
0.24542309 0.62050354 0.014274538 3308401
0.24659802 0.62350309 0.014252722 3571580
0.24842085 0.62554479 0.014308989 3571837
0.24988995 0.6273815 0.013835669 3703165
0.25160623 0.62959373 0.013306797 3835006
0.25401276 0.63083386 0.012687981 3702634
0.25601357 0.63498992 0.01429534 4032664
0.25735885 0.63873488 0.013619959 3636586
0.26015383 0.6398235 0.01429683 3835010
0.26166835 0.64122826 0.014101744 3768429
0.26420075 0.6461376 0.010729134 3901292
0.26699072 0.64813399 0.01062417 3966573
0.27290672 0.6570183 0.012726247 3829608
0.27446106 0.65897125 0.012585223 3764072
0.27601546 0.66092432 0.012444139 4746332
0.27862138 0.66387498 0.011120498 4555405
0.28091639 0.66476619 0.010347605 5207924
0.28274292 0.66756397 0.010132551 5796456
0.2848928 0.66966516 0.0097441077 6646874
0.29270864 0.67938918 0.0089591146 8810070
0.29426309 0.68134207 0.00881809 8612691
0.29581732 0.68329507 0.0086770654 8155189
0.23385054 0.61320543 0.012567699 3372644
0.23671532 0.61560094 0.012612402 3372899
0.23951308 0.61816877 0.012531459 3372899
0.24137008 0.61989254 0.012550652 3438692
0.24339333 0.62185651 0.012413144 3439206
0.24525553 0.62332946 0.012563705 3504742
0.24758467 0.62593472 0.012266636 3439721
0.25971109 0.64375377 0.009777844 3834740
0.2613394 0.64556003 0.010191739 3835246
0.26600397 0.6525113 0.0089581013 4163196
0.2688818 0.65342993 0.0090789199 4294526
0.26975179 0.65780163 0.010074139 4097388
0.27125797 0.66014254 0.0094565749 3965802
0.27300459 0.66217607 0.0090048313 3965288
0.27568901 0.66439313 0.0090203285 4424313
0.27782473 0.66607904 0.008043468 4620395
0.28318921 0.67250144 0.0089732409 7039823
0.28993374 0.68074954 0.0078505874 8875316
0.29192013 0.68237889 0.0079898238 9137711
0.20435359 0.57575625 0.014440536 2845269
0.20590791 0.5777092 0.014299512 3237726
0.20827064 0.58067775 0.014085114 2844250
0.21063317 0.58364624 0.013870716 2779739
0.21218751 0.58559918 0.013729692 2976600
0.2176277 0.59243464 0.013235986 2911832
0.21818882 0.59599364 0.011093259 3305825
0.21991676 0.59781134 0.010992467 3240289
0.22134167 0.59985864 0.010731339 3371616
0.22483253 0.60178924 0.011236489 3306337
0.22751573 0.60887295 0.012157798 3306849
0.22971734 0.6104514 0.012191832 3372386
0.2318847 0.61156976 0.012568295 3306852
0.23716348 0.61688399 0.011387527 2912866
0.23871775 0.618837 0.011246443 2847073
0.24728256 0.63348109 0.0088519454 3637611
0.25039053 0.63454485 0.0090886354 3768945
0.25252154 0.63537687 0.0095292926 3900525
0.25276986 0.64028162 0.0092796683 3900023
0.25578648 0.64228225 0.0095173717 3768948
0.26052484 0.64965725 0.0092036128 4031610
0.26372448 0.65150946 0.0089608431 4097660
0.26756316 0.65659273 0.0099830031 4032108
0.26835424 0.65848488 0.009450078 4294012
0.26982683 0.6604625 0.008749783 4293498
0.27280051 0.66297752 0.0081042647 4293239
0.27870136 0.66891372 0.0073249936 4750689
0.27961978 0.67183256 0.0064609647 5339482
0.28127974 0.67558873 0.0064553022 6386793
0.28407633 0.67689323 0.0065335631 7302220
0.28656435 0.67949021 0.0070474744 8481075
0.28868753 0.68152559 0.0066362023 8875311
0.13223369 0.49136221 0.016788304 3632738
0.13515258 0.49255878 0.017666519 3501919
0.13642544 0.49483159 0.01707989 3436126
0.13842876 0.49824715 0.016436994 3435870
0.14110486 0.5010314 0.01624018 3435868
0.14226633 0.50351763 0.015607774 3369820
0.14362431 0.50573713 0.015221059 3369821
0.20265743 0.58174396 0.011303842 3304279
0.21165486 0.59205312 0.010371983 3305567
0.21480292 0.59411442 0.010682523 3240288
0.22410165 0.60646999 0.0086165071 3504483
0.22628291 0.60805464 0.0085107684 3570278
0.23343825 0.61868262 0.0076474547 3701619
0.23437646 0.61928552 0.0086098909 3439208
0.23721138 0.62223649 0.0080395937 3439464
0.23849609 0.62568146 0.0078605413 3571058
0.24062259 0.62681216 0.0079573989 3767923
0.24271341 0.62939221 0.0082305074 3702638
0.2442404 0.63267648 0.0084978938 3768434
0.24773166 0.63449407 0.0083301067 3834230
0.25044352 0.63944608 0.0092964768 3965304
0.28482425 0.68048871 0.0046511889 7304048
0.2861343 0.68219709 0.0037482977 7500656
0.12643351 0.48894364 0.016277194 3763810
0.12968174 0.48982459 0.016413748 3633245
0.13156013 0.49070728 0.016249835 3108696
0.13421185 0.49762064 0.016238451 3500649
0.13728219 0.49956715 0.015875697 3565929
0.13872385 0.50105619 0.015158474 3565929
0.14163373 0.50683379 0.015559912 3500136
0.14485925 0.50847781 0.015375853 3500135
0.14663467 0.51022595 0.014835835 3499623
0.14767842 0.51339769 0.01353544 3434843
0.15054515 0.51931268 0.013591707 3565157
0.15208741 0.52099276 0.013082802 3565157
