# .PCD v0.7 - Point Cloud Data file format
VERSION 0.7
FIELDS x y z rgba
SIZE 4 4 4 4
TYPE F F F U
COUNT 1 1 1 1
WIDTH 1130
HEIGHT 1
VIEWPOINT 0 0 0 1 0 0 0
POINTS 1130
DATA ascii
0.11796308 0.48134375 0.0085429549 5660736
0.120607 0.48249018 0.0089656916 5134904
0.10562517 0.47865367 0.0099495631 6449746
0.109131 0.47929361 0.0094701536 6121296
0.1117181 0.47985339 0.008026924 6449224
0.11476005 0.48263243 0.0082631968 5397561
0.12375858 0.48714039 0.0032206904 5201210
0.10481986 0.47912529 0.0078084879 7303762
0.10792141 0.47990581 0.007220218 6909261
0.10099322 0.47849575 0.007885633 7698007
0.10941868 0.48241159 0.0043901987 6778177
0.11230779 0.48390141 0.0033934303 6515002
0.11417721 0.48486543 0.0027484447 6383416
0.11698131 0.48631147 0.001780998 5989432
0.11987039 0.48780131 0.00078417081 5792309
0.094188295 0.47910377 0.0057847798 8816748
0.096142694 0.48011166 0.0051104743 8487783
0.098946802 0.4815577 0.0041430276 7829844
0.10183585 0.48304749 0.0031462573 7369032
0.10370527 0.48401156 0.0025012754 7237446
0.35441843 0.53490281 0.0087712854 5084320
0.35992968 0.53829473 0.0074732546 4952741
0.3627865 0.53960276 0.0065545645 4886426
0.36487898 0.54125381 0.0061730519 4821405
0.36782315 0.54231161 0.0048892517 4884884
0.37061486 0.54379624 0.0040288512 4092275
0.37278166 0.54534066 0.0032370202 2643533
0.37534079 0.54682636 0.0026423149 1918515
0.35134268 0.53500283 0.009045301 4887193
0.35412079 0.53809446 0.0084150806 5018527
0.35677072 0.53850728 0.0076738261 5149859
0.35907441 0.53970504 0.0053965505 5148051
0.3615981 0.54186338 0.0048516244 5016724
0.36424559 0.54286933 0.0039663576 5082262
0.36696908 0.54442716 0.002875464 5145998
0.36863419 0.5463593 0.00211858 4355192
0.37168995 0.54659045 0.0028505437 2447961
0.37411401 0.54829735 0.00094421208 1393732
0.37664071 0.54904377 0.00017344858 2051148
0.37911713 0.54982305 -0.0010348866 3035985
0.33720067 0.53059709 0.0097362623 4425360
0.34198004 0.53349757 0.008822443 4426388
0.34543771 0.5344311 0.0087276082 4753807
0.348277 0.53597087 0.0072346516 4884360
0.35044605 0.53818518 0.0067685395 4950150
0.35263821 0.53844994 0.0059287176 5015947
0.3553707 0.53968608 0.0053097252 5081996
0.35768402 0.54176575 0.0044469535 4950409
0.36014098 0.54316074 0.0037611704 5081995
0.36345208 0.54379034 0.0035546198 5081740
0.36516777 0.54459214 0.0029037558 5278347
0.37071991 0.54747802 0.00034237001 1919821
0.37258947 0.54958016 -0.0005339412 1196862
0.37536392 0.55059111 -0.0014704438 1654593
0.37773344 0.55209959 -0.0025805943 2837063
0.33002573 0.52983701 0.0099756531 4162701
0.33401489 0.53067845 0.010004252 4359824
0.3356773 0.53377867 0.0093939882 4491407
0.33874539 0.53375053 0.0090348031 4360079
0.34089589 0.53526485 0.0067015644 4817534
0.34342465 0.53584534 0.0066267252 4948609
0.34633794 0.53696775 0.0060606189 4818311
0.35074741 0.54117709 0.0047804862 5081222
0.352981 0.54140311 0.0047699884 5015942
0.31966573 0.52666676 0.010342782 4228237
0.32189453 0.52640647 0.010273669 4293772
0.32394895 0.52902144 0.010245049 4293518
0.32727671 0.52877504 0.0099711344 4228240
0.32843369 0.53124511 0.01019454 4227981
0.33170635 0.53206068 0.0067434702 4553859
0.33386621 0.53449255 0.0064625219 4685693
0.33666247 0.53522092 0.0067870654 4685951
0.33835822 0.53630745 0.0064474232 4685949
0.31210479 0.52450848 0.010784697 4161928
0.31451848 0.5258528 0.010920949 4227722
0.31770402 0.52660191 0.010699725 4227723
0.32009217 0.52865076 0.0085182041 4291971
0.32260886 0.53002173 0.0066620074 4488055
0.32518405 0.53190333 0.006876016 4553853
0.32791862 0.53193611 0.0068919621 4619898
0.33097088 0.53458416 0.0065076686 4685438
0.30231526 0.52261066 0.011295846 4226691
0.30538234 0.52336687 0.011423856 4095619
0.30887821 0.52472436 0.010964772 4161413
0.31116575 0.52698946 0.011089012 4292744
0.31565765 0.52881891 0.0068883505 4488056
0.31870511 0.5307107 0.0069511607 4619130
0.32127699 0.53153056 0.0069329515 4684922
0.32369894 0.53258193 0.0069968328 4750457
0.29414943 0.52000934 0.012562705 3964294
0.29681322 0.52010423 0.011727527 4423815
0.29928207 0.52353406 0.010706509 4161161
0.30344135 0.52524692 0.0094608739 4225922
0.30557439 0.52545124 0.0075918287 4355964
0.30864653 0.52838355 0.0070646256 4421751
0.31238782 0.52851635 0.0071918871 4421753
0.28893906 0.51873815 0.012104575 4029318
0.29029614 0.52004987 0.011858568 3438207
0.29691815 0.52380067 0.010734316 4029318
0.30042875 0.52479923 0.0081897061 4290424
0.3031227 0.52653426 0.0077897944 4355958
0.30531681 0.52807319 0.006943997 4290420
0.30874142 0.528494 0.0057992823 4487792
0.31133309 0.52983052 0.0049051363 4487793
0.28671464 0.52091372 0.008567581 4224377
0.28903002 0.52087092 0.0087335166 4224633
0.29114565 0.52364153 0.007921027 4224630
0.29329836 0.52450758 0.0076667443 4355704
0.29672197 0.5253759 0.0070060659 4355954
0.29898769 0.52766538 0.0064775161 4421749
0.3014915 0.52787864 0.0065494459 4552819
0.27674955 0.51673466 0.010276983 4289904
0.27853402 0.5176549 0.0096613206 4290407
0.28168014 0.5211919 0.0083765201 4224375
0.2845107 0.52195925 0.0084324703 4486770
0.28721023 0.52309734 0.0076396 4618095
0.28962377 0.52439523 0.007081043 4224370
0.29231817 0.52671665 0.0063648671 4355698
0.29435381 0.52743834 0.0063513443 4421234
0.26951471 0.51670724 0.0097321682 4158816
0.27296427 0.5180524 0.0091205537 4158580
0.27494866 0.52083695 0.0088010784 4092536
0.27834332 0.52106953 0.0083000883 4223861
0.28011596 0.52191198 0.007306654 4420720
0.28255436 0.52231956 0.0071378667 4289647
0.26333755 0.5168106 0.0093790386 4092277
0.26683283 0.51724476 0.0089025293 4092278
0.26906407 0.51802897 0.008014055 4157809
0.27110893 0.52050751 0.0077535305 4354927
0.27438593 0.5211128 0.0074118953 4420719
0.25216588 0.51278985 0.010215582 3960433
0.25476199 0.51295775 0.010827832 4025965
0.25722095 0.51458901 0.010365129 4026475
0.25995293 0.51596802 0.0088839177 3960683
0.26271749 0.51644176 0.0085654147 4224106
0.26485217 0.51817006 0.007955689 4223339
0.2665762 0.52024978 0.0075335167 4288878
0.24282561 0.50852525 0.011561368 4287328
0.24499369 0.51061773 0.010740105 3894633
0.24777186 0.51232719 0.010318685 3763303
0.25014776 0.51380491 0.0098911375 4157291
0.25321716 0.5147171 0.0086391084 4157037
0.25605121 0.51578826 0.0078802332 4026220
0.23550497 0.50838435 0.011280781 3696485
0.23848863 0.50918919 0.010273358 4156778
0.24121004 0.51086372 0.010118162 4090989
0.24273558 0.51294279 0.0093758572 4090984
0.24623285 0.51358551 0.0090460274 4025704
0.21947427 0.50288123 0.014237422 3631453
0.22134367 0.50384516 0.013592437 3894625
0.22402029 0.50522548 0.012668908 4090727
0.22660194 0.50637341 0.011293247 4091241
0.22946776 0.50766993 0.010707619 4090986
0.23181249 0.5088551 0.010235915 4090980
0.23483106 0.50851977 0.0098709967 4287851
0.23697802 0.51194298 0.0097834356 4024935
0.21528594 0.5014382 0.012220932 4091507
0.21995752 0.50541693 0.011582943 4091252
0.22322275 0.50621152 0.010864461 4222319
0.22568879 0.50712174 0.010276694 4288107
0.22798941 0.50816351 0.010656722 4287853
0.20703793 0.49826974 0.014277685 4354916
0.20918082 0.50006807 0.01294356 4223083
0.21173824 0.50168198 0.012649272 4157038
0.21387149 0.50451702 0.011870043 3960168
0.21616001 0.50516188 0.011621712 4091502
0.2186984 0.50621837 0.010495683 4353643
0.22096673 0.50653827 0.010385472 4287851
0.19653548 0.49603125 0.013919193 3894643
0.20175202 0.49982074 0.012758948 4420202
0.20473637 0.50045127 0.012572832 4222835
0.20681451 0.50278604 0.010602489 4222315
0.2091693 0.50500774 0.010742454 4222315
0.2114878 0.50527745 0.01070275 4222571
0.18094322 0.49213675 0.017140098 4288622
0.18257609 0.49223202 0.016045881 4288625
0.18459702 0.49402097 0.015879447 4288618
0.18676467 0.49520782 0.014896927 4157294
0.19025013 0.4957844 0.014434043 4222832
0.1928014 0.49702871 0.013455648 4288623
0.19486471 0.49904859 0.0123359 4354157
0.19795197 0.50000435 0.012161136 4222576
0.20104867 0.50092912 0.010785174 4288108
0.20320053 0.5014239 0.010598533 4288108
0.17336711 0.49008772 0.016677724 4288372
0.17593816 0.49024573 0.01652078 4222578
0.17894259 0.4920257 0.015837155 4157043
0.18032816 0.49476302 0.015189528 4157301
0.18367806 0.49556667 0.014275378 4222577
0.18609665 0.49677005 0.01307871 4222573
0.18953572 0.49750018 0.012710778 4222573
0.19265659 0.49853611 0.012219246 4419951
0.163922 0.4871093 0.016742991 4353133
0.16681789 0.48849252 0.016800264 4287598
0.16969854 0.48935083 0.016267994 4419435
0.17244878 0.49083412 0.01567745 4288359
0.17464218 0.49241728 0.014986744 4223082
0.17699447 0.49436671 0.014656108 4091495
0.17913707 0.49557856 0.013638426 4353900
0.18134311 0.49640524 0.013081798 4353646
0.15998416 0.48757631 0.016260393 4353640
0.16346487 0.48870319 0.01618004 4485228
0.16577925 0.48934871 0.015240405 4616810
0.1688602 0.49236557 0.015546974 4353898
0.15075114 0.48505589 0.015578456 3694422
0.1537409 0.48657614 0.016198006 4156002
0.15641402 0.48765266 0.016089363 4287847
0.143746 0.48440108 0.016126167 3430740
0.14692758 0.48472172 0.01536653 3430994
0.149376 0.48659831 0.015774004 4089182
0.13883436 0.4834049 0.015580116 2969414
0.14107461 0.48434311 0.016142089 3364941
0.14304881 0.48562381 0.015080173 3628113
0.14554919 0.48634344 0.015301911 3760472
0.14867023 0.48823303 0.014636856 4221796
0.15053968 0.48919708 0.01399187 3894369
0.13341956 0.48367694 0.015300715 2837828
0.13642097 0.48401174 0.014608672 2838079
0.1398323 0.48505241 0.013771765 2772545
0.14129831 0.48622629 0.012782939 2379844
0.1278289 0.48321858 0.014272684 3034174
0.13016838 0.4838827 0.013859944 2968894
0.13176674 0.48478991 0.013367506 2903094
0.12279115 0.48318425 0.014287146 3099451
0.1257803 0.48337179 0.012884459 3493435
0.12883435 0.48385319 0.01131353 3755831
0.13128804 0.48411673 0.011315076 3361846
0.11953906 0.4823972 0.012212386 4149819
0.12095201 0.48334336 0.011241123 4149813
0.12359028 0.48346353 0.011222262 4149812
0.12743962 0.48640329 0.01142372 3297841
0.12966552 0.48572564 0.0093582403 3165478
0.11244434 0.48197851 0.01114808 4544062
0.11496651 0.4826045 0.010980196 4412476
0.11809874 0.48363703 0.010572882 4346930
0.12550597 0.48720092 0.0076933708 3756339
0.10788599 0.48162398 0.010026662 5332805
0.11152457 0.48199713 0.0091920998 5200701
0.11338071 0.48425442 0.0097595435 4478004
0.11947698 0.4877122 0.0066737272 4346920
0.12134638 0.48867622 0.0060287416 3953718
0.098685786 0.47958153 0.0118594 5924430
0.10144984 0.48041254 0.011050627 5661767
0.10443358 0.48124641 0.010371054 5464389
0.10669736 0.48264787 0.0077708159 5791808
0.10947454 0.48321357 0.0088206362 5266490
0.09478455 0.47897461 0.0098781269 7763800
0.09772668 0.47987345 0.0093454309 7040851
0.10008321 0.48054984 0.0090002641 6515016
0.10319889 0.48188362 0.0080858916 6186562
0.11363436 0.48736525 0.0049115103 5397810
0.11618889 0.48836467 0.0038038716 5266735
0.11951385 0.489443 0.0022047255 5004869
0.095786162 0.48175332 0.0065309703 7370575
0.098590322 0.48319939 0.0055635236 7238974
0.10147936 0.48468921 0.0045667551 6777926
0.10334879 0.48565325 0.003921831 6251582
0.10619542 0.48712116 0.002939662 6251839
0.10904193 0.48858911 0.0019574966 6121018
0.086783186 0.48073095 0.0065374728 9539174
0.089587308 0.48217693 0.0055699646 8750425
0.091541685 0.48318473 0.0048956554 8028505
0.35503766 0.5410558 0.0081654321 4886944
0.35900319 0.54117262 0.0075543337 5018535
0.3608675 0.54419404 0.0072406158 4887464
0.36347383 0.54446328 0.0064994376 4887719
0.36717898 0.54587322 0.0056449212 4886947
0.36924595 0.54685253 0.0047994852 4293524
0.37122849 0.54898405 0.0038402062 3107440
0.37430021 0.55010474 0.0023092292 1066826
0.37625751 0.5513556 0.00081278197 1788493
0.37850732 0.55229098 -0.00047800783 2510928
0.3433069 0.53605533 0.0089872088 4491926
0.34649438 0.53870881 0.0088888183 4623508
0.35008749 0.53922653 0.0086502209 4754579
0.35237077 0.54059595 0.0081051514 4951185
0.35525289 0.54162908 0.0065761041 5015441
0.35781565 0.54321831 0.0062601566 4951445
0.35999489 0.54496247 0.0052265394 5016459
0.36253089 0.54641408 0.0045502149 5016456
0.36507487 0.5474627 0.0038551539 5212816
0.36724761 0.54892415 0.0028716512 5146506
0.36972085 0.55023575 0.0019378439 4092276
0.3723608 0.55151743 0.0012895046 2708561
0.37511238 0.55233133 0.00043019 1656127
0.37772977 0.55399537 -0.00039731152 2181446
0.33371562 0.53371388 0.0097509325 4491664
0.33776823 0.53664386 0.0091627762 4294546
0.3408111 0.53664094 0.0087683126 4426390
0.34295058 0.53874236 0.0087868236 4884620
0.34484607 0.53941965 0.0068792813 5145731
0.34814033 0.54083836 0.0057566352 5277316
0.35030198 0.54235792 0.0059367679 4950159
0.35276949 0.54394138 0.0048808474 5081485
0.35583639 0.54553396 0.0048941839 5081999
0.35782728 0.54595566 0.0041320268 5081738
0.37399283 0.5538047 -0.0015791263 1589572
0.37611604 0.55557996 -0.0031754058 2246220
0.37870649 0.5567947 -0.0040842518 4019279
0.32610461 0.53160572 0.010122521 4293773
0.32847711 0.53391486 0.010217566 4293773
0.33170375 0.53369915 0.010037551 4097163
0.33387029 0.53652394 0.0097946748 4294544
0.33610457 0.53748143 0.0066159591 4882557
0.33916146 0.53856468 0.0066576153 4883072
0.34224689 0.53892159 0.0061056595 4883076
0.34352177 0.54159969 0.0057310928 4883332
0.34630144 0.54254448 0.0053986832 4818053
0.34892133 0.5445205 0.004484944 5015429
0.35110795 0.54510915 0.0041984729 5212806
0.31892961 0.53084564 0.010361977 4293515
0.32293618 0.53173405 0.010340752 4227722
0.3244299 0.5337531 0.0099565443 4227459
0.32688227 0.53485328 0.0073389336 3700852
0.32927996 0.53622556 0.0065610819 4751230
0.33244202 0.53767645 0.00618379 4685949
0.33487353 0.53945899 0.0063446406 4686462
0.33616015 0.54129714 0.0053173769 5080176
0.30910373 0.52702492 0.011304941 4292487
0.31005999 0.52969557 0.011246268 4358792
0.31311381 0.52993321 0.010731332 4227466
0.31582466 0.53136706 0.0099870078 4424065
0.31768778 0.53254771 0.0094770472 4423811
0.32030904 0.53424102 0.0073260963 4356982
0.32305121 0.53543884 0.0068881251 4488061
0.32595244 0.53593773 0.0068331417 4619388
0.32758123 0.53878683 0.0063755624 4685440
0.32991272 0.53866929 0.0064768568 4751235
0.30099124 0.5263412 0.011840366 4161159
0.30381626 0.52739763 0.011715649 4227205
0.30655774 0.52766061 0.011015596 4358791
0.30798492 0.53011823 0.011321265 4227207
0.31199539 0.53196347 0.0069427211 4553337
0.31437859 0.53195226 0.0070116483 4684666
0.31596062 0.53378767 0.0068361759 4422264
0.31878889 0.53560972 0.0067567099 4488060
0.28805017 0.5211693 0.012479279 3832201
0.29233262 0.52343696 0.012249565 3767168
0.29492161 0.52364182 0.011191145 4095621
0.29736212 0.52598262 0.011189178 3898245
0.30002165 0.5280475 0.0079989079 4224635
0.30296469 0.52993917 0.0081002004 4225138
0.30483815 0.53130251 0.0073817894 4159348
0.30697408 0.5318777 0.0068142936 4290676
0.30937797 0.53262973 0.0064065531 4290930
0.31282619 0.53392321 0.0068223737 4488055
0.31519321 0.53565896 0.0067266375 4487797
0.28765008 0.52427018 0.012202403 3504770
0.29306394 0.52720398 0.010789912 4095622
0.29520065 0.52885306 0.0080780275 4290162
0.29782847 0.52930743 0.0076186024 4290421
0.30004951 0.53134912 0.0068746563 4356213
0.30322534 0.53169471 0.006704472 4421749
0.28649384 0.5242039 0.0085815396 4158842
0.28888088 0.52677 0.0074539557 4224372
0.29151294 0.5282858 0.0079114325 4159097
0.29314923 0.53041834 0.0066317804 4486770
0.29656592 0.53063262 0.0066221952 4421490
0.27435762 0.52181834 0.0099190753 4356209
0.27692646 0.52324533 0.0089920647 4421230
0.27956361 0.52423179 0.008320231 4158323
0.28236452 0.52572238 0.0076489933 4224112
0.28502569 0.52738607 0.0076330323 4224628
0.28658047 0.52942157 0.00690981 4289907
0.2902596 0.5299623 0.0068982337 4421489
0.26582658 0.51978111 0.0094357114 4158070
0.26767409 0.52026403 0.0090316124 3895156
0.27097768 0.52156979 0.0090743955 4027251
0.27295873 0.52384698 0.0083852708 4289395
0.27598709 0.52407485 0.0079525653 4223599
0.27914774 0.5248549 0.0075344369 4420976
0.25884005 0.51929474 0.0099482331 4026226
0.26120722 0.51934063 0.0097147878 4092277
0.26426893 0.51954669 0.0095738415 4223597
0.26661667 0.52184021 0.0084932372 3895400
0.2692371 0.52357751 0.0085370298 4158320
0.25098801 0.51591849 0.010795614 3828333
0.25300509 0.51645428 0.010450268 4091504
0.25437748 0.51867872 0.0092820507 4092013
0.25703257 0.51934844 0.008968031 3960681
0.2599588 0.52084261 0.0080683455 4092267
0.26328215 0.52222812 0.0084470678 4289131
0.23879872 0.51154536 0.011396652 3959912
0.24096797 0.51208717 0.011160132 3828832
0.24374384 0.51411092 0.010292239 3960421
0.24612026 0.51622158 0.01010148 3894121
0.24805358 0.51682925 0.0096778013 4025707
0.25157791 0.51819539 0.0090865828 4157294
0.22457223 0.50725269 0.01371708 4549993
0.22635669 0.50817287 0.013101356 4418660
0.22822607 0.5091368 0.012456428 4089695
0.23090272 0.51051712 0.011532901 3959642
0.23349331 0.5117144 0.010257099 4156006
0.23607433 0.51393926 0.010796029 3959657
0.2391775 0.51558244 0.010285137 3828330
0.24130669 0.51674014 0.0095458999 3894632
0.24371846 0.51658094 0.0091349725 4091242
0.22286728 0.50902587 0.011084875 4156784
0.22514956 0.50902802 0.010880806 4221808
0.22696905 0.51179588 0.010513261 4024683
0.23005076 0.51172882 0.010021936 4024937
0.23229775 0.51387298 0.010017939 3959403
0.23540658 0.51538301 0.0095175598 3762277
0.21164428 0.50428915 0.015136592 4551536
0.2132363 0.50532019 0.013105521 4222572
0.21623284 0.5066554 0.013553422 4288099
0.21861853 0.50849009 0.011954347 4025193
0.22046621 0.50936484 0.010942331 4222060
0.22367661 0.51045203 0.010104429 4156266
0.20435722 0.50396395 0.01228993 4091507
0.20721023 0.50445437 0.012594057 4223085
0.2097684 0.50498205 0.011929162 4091249
0.21092814 0.50854897 0.011582529 4156783
0.214148 0.5089103 0.010966374 4222318
0.21677114 0.50959247 0.01029416 4287850
0.19049145 0.4985334 0.014466958 4222579
0.19237389 0.49911004 0.013962969 4419443
0.19479463 0.50114322 0.013614655 4156530
0.19745168 0.50313914 0.013213616 4156786
0.20012319 0.5036965 0.011897797 4222828
0.20215723 0.50422716 0.011536883 4091244
0.20498569 0.50588048 0.011006963 4287851
0.2083296 0.50815541 0.011307964 4156525
0.21021768 0.50845164 0.010742404 4222317
0.18321936 0.49820352 0.01472671 4288627
0.18555406 0.49839875 0.014622428 4156787
0.18765327 0.49870053 0.014335889 4156787
0.19030844 0.50157386 0.01302355 4353646
0.19325741 0.50206405 0.013093874 4222318
0.19672161 0.50271684 0.01166008 4287851
0.20050329 0.50729734 0.010877538 4222316
0.20282182 0.50756729 0.010837721 4288108
0.17137425 0.49365604 0.016235299 4091763
0.17352372 0.49390772 0.016019326 4091248
0.17638758 0.4963024 0.015790179 4091504
0.17955254 0.49752536 0.015364677 4288623
0.181408 0.49875489 0.014138255 4353644
0.18406388 0.4997583 0.013529098 4288105
0.18689427 0.50048202 0.013093142 4419435
0.18944418 0.50188345 0.01234569 3959651
0.1922483 0.50332958 0.011378184 4025447
0.1949674 0.50473166 0.010440052 4222829
0.19683686 0.50569576 0.0097950697 4288615
0.15973365 0.48925543 0.017702937 4288362
0.16270491 0.4908306 0.017299255 4222317
0.16494904 0.49222344 0.016704392 4222567
0.16750927 0.493404 0.016253503 4222569
0.16965207 0.49509493 0.015611481 4222565
0.17261331 0.49692589 0.014935544 4222568
0.17477669 0.4982475 0.014028598 4222822
0.177964 0.49833989 0.014024613 4353387
0.15317528 0.48928329 0.017496265 4419436
0.15571724 0.48989442 0.017079402 4288106
0.15922062 0.49030012 0.016754113 4287850
0.16061014 0.49240327 0.017614797 4090990
0.16516712 0.49498811 0.01592581 4353643
0.14359437 0.48622426 0.017388254 4023396
0.14740652 0.48797321 0.017407749 4352618
0.14903441 0.48931855 0.017087504 4353131
0.15262221 0.48971295 0.016705997 4287850
0.14033368 0.48581141 0.017098559 3825752
0.14228144 0.48847064 0.01694056 4352869
0.14497164 0.48838341 0.017035034 4287078
0.14831378 0.48987469 0.01605735 4090722
0.15018311 0.49083874 0.015412426 4222566
0.13117181 0.48469234 0.017125336 3298892
0.13393402 0.48543677 0.017887358 3497296
0.1363347 0.48623335 0.016485196 3825741
0.13858031 0.48806423 0.016094361 4286297
0.14076357 0.48868871 0.014913712 4089435
0.12587649 0.48419622 0.0162149 2903877
0.12892924 0.48521814 0.016471017 3167305
0.13170443 0.48627234 0.014890898 3430724
0.13436803 0.48641968 0.015156876 3430472
0.12057173 0.48448709 0.015941465 2968641
0.12241163 0.48504195 0.015452137 2903362
0.12395205 0.48607126 0.014804078 3100740
0.12731217 0.48571047 0.015135026 3035460
0.11560015 0.48342213 0.015460022 3164986
0.11888626 0.48405939 0.014851173 3099708
0.12103188 0.48466054 0.01275895 3230775
0.12708323 0.48804504 0.012844278 3495998
0.11170655 0.48359692 0.013816189 3492921
0.11493646 0.48529658 0.011733204 3427120
0.11805935 0.48490345 0.012351839 3427632
0.12105419 0.48855624 0.011824392 3102019
0.12292355 0.48952019 0.011179402 3430204
0.10797427 0.48333937 0.013074059 3952696
0.10988097 0.48516309 0.011548111 3755569
0.11211457 0.48538908 0.011537725 3689520
0.1191205 0.48935387 0.0080942214 3297069
0.12098993 0.49031788 0.0074492358 3297841
0.098778047 0.48209703 0.012305243 4806976
0.10092741 0.48234862 0.012089264 4741181
0.10434358 0.48308572 0.012404373 4346937
0.10600296 0.48609972 0.010576561 4017714
0.092527352 0.47995809 0.012821494 6647380
0.095410235 0.48172846 0.012737766 5135943
0.098405622 0.48534629 0.01062488 4543539
0.10228966 0.48490429 0.0097097903 4806453
0.10589176 0.48498368 0.0085860863 4937785
0.11122215 0.48890108 0.0077195577 3887159
0.11309154 0.48986515 0.0070745759 3689780
0.11496094 0.49082911 0.0064295884 3428655
0.089469798 0.48102823 0.013063043 6844249
0.091001675 0.48108444 0.010594683 7435093
0.093744703 0.48234004 0.0096772015 6449225
0.095404111 0.48340282 0.0084007736 5660992
0.098082334 0.48530528 0.0079892427 5200696
0.10093656 0.48718899 0.006729817 5069112
0.10280599 0.48815301 0.0060848333 5003318
0.10565259 0.48962095 0.0051026642 4543032
0.10868555 0.49023083 0.0033780504 4608808
0.084792554 0.47973421 0.01121651 8486491
0.087388761 0.4806861 0.01061311 8158042
0.089230858 0.48381859 0.0069904588 7566928
0.091185205 0.48482639 0.0063161515 6319691
0.07640399 0.48082441 0.008316135 9407066
0.079293132 0.48231423 0.0073193684 8420685
0.081162468 0.48327827 0.0066743828 8420173
0.084051602 0.48476812 0.0056775548 8420948
0.36360332 0.54729849 0.0065076612 5019556
0.36561519 0.54731315 0.0062211622 5085094
0.3705917 0.55128604 0.0045821946 4226961
0.37279904 0.55219948 0.0033060685 2250843
0.37442732 0.55271423 0.0026551858 935240
0.35438544 0.54350179 0.0087370872 4952736
0.35715514 0.54572475 0.0076373294 5149604
0.35947835 0.54729992 0.0071745031 5018791
0.36216992 0.54851878 0.0069059543 5019303
0.36459357 0.54999357 0.006584011 5085607
0.36659026 0.55091017 0.0043610781 5017498
0.3700211 0.55271989 0.0026269704 5078656
0.37231117 0.55367213 0.0026434734 2907229
0.37473568 0.55478764 0.0020090621 1197639
0.377278 0.55625415 0.00080251507 1787717
0.379666 0.55751312 0.00028218701 2444868
0.34452641 0.54219985 0.00823218 4621446
0.34743527 0.54322207 0.0085551757 4754580
0.35001695 0.54441708 0.0079149995 4884101
0.35227117 0.54576558 0.006248476 4884361
0.35502404 0.54750025 0.0061607528 5147790
0.35770363 0.54888535 0.0051678084 5081998
0.3600969 0.55017078 0.0043215659 5147273
0.3631472 0.55097395 0.0037716776 5082258
0.36558169 0.55280536 0.0029628947 5081483
0.36798635 0.55347294 0.0021754168 5146765
0.37105811 0.5555169 0.0015133983 3499620
0.37362528 0.55632675 -6.887503e-05 1393476
0.37538072 0.55883509 -0.0012367005 1524296
0.37779388 0.55893677 -0.0019360892 2378057
0.33095312 0.53643632 0.010247858 4360078
0.3333354 0.53968328 0.0097260438 4294546
0.33529705 0.53974819 0.0093690455 4491667
0.33833289 0.54072875 0.0089458618 4229009
0.34125206 0.54226464 0.0078777336 4621705
0.34656203 0.54534322 0.0060393997 5015436
0.34861106 0.54569525 0.0056824181 5015437
0.35121241 0.54798681 0.0045385398 5278087
0.35438994 0.54877919 0.00418799 5278601
0.35640994 0.54959273 0.0037545189 5213064
0.37692943 0.56094211 -0.0023538787 2312785
0.38007665 0.56287605 -0.0036442447 4151379
0.32097825 0.53459483 0.010647196 4294026
0.3246657 0.53657347 0.010989683 4425872
0.32758325 0.53669578 0.010418978 4425615
0.32916099 0.53980428 0.010087466 4031374
0.33218673 0.53970194 0.0086419079 4490119
0.33451396 0.54071826 0.0065027308 4948605
0.33678553 0.54260516 0.0060149916 4816768
0.33941221 0.54410523 0.0056374595 4751490
0.34177643 0.54598129 0.0055723935 4818055
0.34445646 0.54661155 0.0051296167 4949124
0.34776783 0.5475198 0.0046010278 5080708
0.31758329 0.53487915 0.01078303 4293771
0.32069901 0.53701442 0.0090199038 4422011
0.32224479 0.5377866 0.0090833362 4423555
0.32516298 0.53908414 0.0073145926 4356985
0.32787687 0.54021847 0.0067569166 4488569
0.32989362 0.54141039 0.0061694123 4620157
0.33215156 0.54278749 0.0056477897 4620153
0.33455738 0.54499078 0.004828183 5078389
0.33741564 0.54520077 0.0059222151 4948095
0.30359057 0.53020161 0.011670874 4358535
0.30595455 0.52993488 0.011643007 4293000
0.30782521 0.53276259 0.011399932 4162185
0.31183562 0.5337196 0.010809977 4031114
0.31412196 0.53528833 0.01091288 4096395
0.31854406 0.53861111 0.0068660881 4553596
0.32068533 0.53890002 0.0066824015 4619390
0.32387272 0.53985482 0.0066885836 4553853
0.32619223 0.54189265 0.0063093938 4554111
0.32816514 0.54306901 0.0055997819 4751747
0.2974225 0.52866459 0.011279831 4161158
0.29918316 0.53067225 0.011879371 4030088
0.30109468 0.53078717 0.011451859 4424330
0.30451527 0.53309083 0.011506449 4096650
0.30959672 0.53471458 0.0073429551 4225145
0.31178415 0.53623223 0.0069123395 4553337
0.31436291 0.53760165 0.0071383435 4816503
0.31663585 0.53850681 0.0066369418 4750972
0.29019102 0.52731186 0.011492861 3964034
0.29211757 0.52900779 0.012107307 4095876
0.29573852 0.53018773 0.011574909 4029829
0.30284968 0.53474766 0.0071086828 4290679
0.30573094 0.53519458 0.006747257 4290678
0.30799231 0.53565598 0.0063169729 4422003
0.31013963 0.53827763 0.00665248 4553588
0.28605884 0.52742004 0.011957139 3963781
0.29360136 0.53174418 0.0075361542 4355963
0.29643968 0.53286612 0.0073775761 4224632
0.29847446 0.53448838 0.0073428284 4290424
0.30111104 0.5355441 0.0067844037 4553591
0.30378559 0.5375638 0.0058441795 4553593
0.30637732 0.53890032 0.0049500335 4685168
0.2817418 0.52741021 0.008639494 4093305
0.28473142 0.52968824 0.0079186168 4290166
0.28671661 0.53040797 0.0075850412 4355702
0.28953522 0.53164923 0.0072063413 4290166
0.29192603 0.53322977 0.0069475826 4421234
0.29407796 0.53372455 0.0067608766 4421492
0.27277336 0.52651662 0.0092800148 4158841
0.27462101 0.52699947 0.0088759735 4289656
0.27786109 0.52754623 0.0082827937 4158582
0.28110054 0.52830219 0.0076025538 4289904
0.28266925 0.53139621 0.0079052597 4158583
0.28540736 0.53218287 0.0072959978 4289908
0.28752443 0.53258371 0.0072091222 4487285
0.26470453 0.52256173 0.0096576717 4223606
0.26709196 0.52294993 0.0096532293 4026742
0.26883554 0.52658296 0.009221822 3961462
0.2736589 0.52790207 0.0074364785 4223856
0.28056884 0.53177428 0.0073284078 4224372
0.2592994 0.52295291 0.0092431083 4026230
0.26207307 0.52363008 0.0087435488 4355180
0.26439643 0.52593952 0.008696571 3961200
0.26709729 0.52679861 0.0079170782 4223600
0.27019852 0.52754426 0.0074461475 4289392
0.24791045 0.51917243 0.0099796057 3894385
0.25018674 0.5203262 0.010456508 3762806
0.25249246 0.52176714 0.0090600438 4026219
0.25574651 0.52261978 0.0089532267 4157805
0.25811565 0.5251019 0.0081143863 4288875
0.26145846 0.52581471 0.0081809796 4289133
0.23827243 0.51809955 0.010969248 4156531
0.24103288 0.51900125 0.010426108 3959658
0.24431418 0.51986074 0.009623941 4024938
0.24621257 0.52090883 0.0090181306 4090729
0.2491647 0.52199626 0.0089668278 4091503
0.25421959 0.52540517 0.0080767162 4288876
0.23217246 0.51493901 0.011077669 4024944
0.23471893 0.51728219 0.010789637 3959406
0.23720029 0.51898324 0.0095238499 3762536
0.24038592 0.51973826 0.0091409441 3959656
0.21674232 0.50866061 0.01461619 4155231
0.21861169 0.5096246 0.01397121 4221281
0.22133084 0.5110268 0.013033018 4155235
0.2235716 0.51305091 0.011979014 4156006
0.22531942 0.51425511 0.011425912 4090214
0.22832605 0.51526058 0.010728059 4024933
0.23075987 0.51732028 0.010087762 4090470
0.23324879 0.51885062 0.0099245608 3696230
0.23637067 0.52052516 0.0090825707 3763055
0.2111381 0.50939107 0.013449831 3959653
0.21364726 0.51090938 0.012247264 4025194
0.2164899 0.51197785 0.011338698 4156784
0.21945417 0.51323581 0.010690654 4090475
0.22230355 0.51435447 0.010593085 4090474
0.22657299 0.51782829 0.0097405091 4090726
0.20165233 0.50678498 0.012532391 4156782
0.20487276 0.50736105 0.012210244 4157294
0.20677871 0.51033485 0.012116835 4157037
0.20952372 0.5117873 0.011101434 4156524
0.21246624 0.51191354 0.011177614 4156268
0.21526468 0.51280379 0.010386476 4156264
0.19140445 0.50532866 0.013966961 4222065
0.19542523 0.50614876 0.012634257 4156529
0.19838217 0.50654936 0.012138866 4222320
0.20224974 0.51122564 0.010725139 4288107
0.20582381 0.51194948 0.010398399 4156779
0.18127353 0.50140911 0.014560493 4156784
0.18394497 0.50146693 0.014544444 4091249
0.18713804 0.50336945 0.013766466 4090990
0.18923774 0.50497776 0.01313173 4222317
0.19187577 0.50501078 0.01212929 4156522
0.19444282 0.50702858 0.011783976 4353643
0.19705355 0.50890511 0.011468135 4156775
0.19936056 0.51055473 0.011240229 4090984
0.20152824 0.51175892 0.010624772 4157289
0.20339763 0.51272303 0.0099797919 4223080
0.16695701 0.49571511 0.017083693 4288112
0.17021501 0.49695334 0.016780023 4222572
0.17235269 0.49854991 0.016039146 4157031
0.17493874 0.50019002 0.015412005 4222563
0.17696199 0.50130463 0.014528368 4288107
0.17923336 0.50230902 0.013744183 4287850
0.18210544 0.50338578 0.013104187 4156517
0.18458222 0.50423467 0.012512475 4156778
0.18705241 0.50609595 0.011368548 4024937
0.18977159 0.50749815 0.01043036 4419436
0.15579535 0.49186555 0.018034689 3828839
0.15767795 0.49330455 0.017540853 4091496
0.16018766 0.49510327 0.017083094 4353900
0.1629622 0.49598461 0.016595701 4090986
0.16483939 0.49857229 0.015728168 4091240
0.16699326 0.49925807 0.015321312 4090983
0.17045417 0.50021958 0.015078584 4156524
0.17378382 0.50125009 0.014103632 4287851
0.14766662 0.49125642 0.018634569 4156526
0.15204515 0.49211866 0.018117469 4025455
0.15410963 0.49490482 0.018203229 4156528
0.15592626 0.49476996 0.016956571 4222062
0.15827902 0.49677154 0.016705088 4222061
0.16170917 0.49827099 0.015755672 4287595
0.13913265 0.48897621 0.018973291 4221546
0.14199683 0.48996267 0.018345609 4352875
0.14438994 0.49147576 0.017765339 4353131
0.14865892 0.49234807 0.017002519 4353386
0.15068254 0.49297476 0.016527969 4353639
0.15247622 0.49369469 0.016094444 4353641
0.13087544 0.48730871 0.018983174 4089440
0.13403486 0.48714828 0.019032151 4089700
0.13569036 0.48871174 0.018492542 4287331
0.13836351 0.49058667 0.017616045 4419175
0.14022888 0.49115124 0.017044483 4419426
0.142948 0.49255347 0.016106296 4551013
0.14575213 0.49399945 0.015138846 4484707
0.12589782 0.4864721 0.018313799 3497043
0.12903491 0.48802 0.018009096 4088922
0.13095346 0.48907059 0.01681166 3958103
0.13369235 0.49004009 0.017927375 4483939
0.11876988 0.4853144 0.018095259 3166792
0.12200515 0.48665705 0.017881978 3430736
0.12539944 0.48725089 0.016669074 3627855
0.12659833 0.48892441 0.018210873 4286044
0.11353941 0.48453733 0.017293571 2968898
0.11581285 0.48541313 0.017858535 2969410
0.11888897 0.48698545 0.016503513 3298375
0.12674287 0.48961198 0.014200188 3169875
0.11000589 0.48439348 0.015876085 3165246
0.11112715 0.48509744 0.018131685 2969155
0.11439611 0.48682004 0.014831696 3165502
0.12069774 0.49019787 0.013244884 2774859
0.12256717 0.49116185 0.0125999 2709324
0.10248207 0.48424488 0.016018279 3164988
0.10523518 0.48403385 0.016178548 3230523
0.10711756 0.48461071 0.015674682 3033658
0.10990506 0.48691541 0.014407527 3033659
0.11466878 0.49070919 0.012225183 2379592
0.11671634 0.49085233 0.010869976 2708035
0.098924644 0.48400372 0.015352568 3624763
0.10139567 0.48363471 0.013663081 3952695
0.10466649 0.48615813 0.013271112 3558454
0.10684985 0.48643431 0.013190169 3361336
0.089924186 0.48263207 0.014730714 5793359
0.093955994 0.48346046 0.01401075 4676162
0.096121617 0.48363748 0.013730194 4347195
0.099541038 0.48660347 0.012554375 3690036
0.1108657 0.4905428 0.0091400538 2181431
0.1127351 0.49150673 0.0084950663 2510395
0.085355438 0.4803991 0.013841659 7764574
0.08699359 0.48195627 0.01392463 7041370
0.090747103 0.48455933 0.013174612 5332803
0.092921838 0.48555231 0.011411136 4938298
0.095350944 0.48587555 0.011259995 4412469
0.097504646 0.48819897 0.0098896492 4017697
0.10039378 0.48968881 0.0088928808 3558190
0.10226315 0.49065283 0.008247897 3689776
0.10510978 0.49212074 0.0072657261 3164476
0.079696119 0.4807283 0.013280146 8356196
0.081967063 0.48127389 0.0128322 8289628
0.083798178 0.48270252 0.013112025 7829595
0.08618018 0.483284 0.011334155 7435094
0.089240082 0.48446631 0.011509961 6317898
0.074302852 0.48061049 0.012992114 9209701
0.077162184 0.48139513 0.012389829 8946786
0.092503726 0.48832759 0.0078665242 4675131
0.071110822 0.48083299 0.012088658 9669217
0.080789812 0.48499456 0.0081594605 8354899
0.083678916 0.48648441 0.0071626306 7895632
0.086567961 0.48797426 0.0061658639 7238986
0.088437356 0.48893827 0.0055208765 5595985
0.070767067 0.48344636 0.0085175075 9734994
0.073656172 0.48493621 0.007520739 9472085
0.076545216 0.48642614 0.0065239742 8617038
0.36013606 0.55051428 0.0067221783 5150887
0.36599007 0.55354053 0.0057004262 4953767
0.3696889 0.55446166 0.0051769279 5082785
0.37175143 0.55575901 0.0050213225 4818580
0.37415394 0.55702519 0.0036445707 3039067
0.37681359 0.55755115 0.0029297713 1787453
0.37790576 0.55907696 0.0014404729 1788495
0.35216475 0.54849261 0.0078841522 4887199
0.35405028 0.5505203 0.0075110495 4952995
0.35695961 0.5506798 0.0069726352 5084838
0.35995948 0.55271095 0.0064236 5083540
0.36261779 0.55349576 0.0049833544 5148823
0.36508447 0.55471635 0.0037528947 5016460
0.36755678 0.55622858 0.0028322712 5147280
0.36936995 0.5580402 0.002097059 4684930
0.37201738 0.55903447 0.0012508798 2907481
0.37392923 0.56025267 -0.00014173985 1131074
0.37780148 0.56154782 5.5955723e-05 1853509
0.34248528 0.54522556 0.0087146275 4491926
0.34586954 0.54723841 0.0081153698 5082259
0.34841782 0.54850668 0.0079600979 5015431
0.35060486 0.54959458 0.0058062412 4950153
0.35317698 0.55182266 0.0054770298 5212808
0.35547039 0.55264312 0.0047945939 5213066
0.35837454 0.55298436 0.0041998886 5147535
0.36112782 0.55486399 0.0036477298 5016202
0.36328626 0.5560711 0.0040333942 5082253
0.36959615 0.55979478 0.0016231081 4553604
0.37169871 0.56040901 0.0011310428 3236453
0.37382019 0.56202799 -0.00036247633 1196871
0.37667006 0.56380862 -0.0015501631 1853253
0.3785646 0.56430316 -0.0026530474 2772041
0.33125189 0.54266959 0.0098561998 4163215
0.33441141 0.54249179 0.009538224 4556945
0.33616242 0.5446068 0.0091334991 4360080
0.33917749 0.54570991 0.0078668445 4752008
0.34179479 0.54823488 0.0072317142 4817797
0.34441012 0.54991829 0.005787665 5146244
0.34613159 0.55016655 0.004951831 4949380
0.34944999 0.55183941 0.0052451584 5015693
0.35101822 0.55140841 0.0044847876 5146757
0.31900156 0.53808862 0.010140253 4096652
0.32275802 0.54018545 0.010517992 4425616
0.32519272 0.54104722 0.0098234285 4227459
0.32703 0.54222137 0.009740606 4227977
0.3289651 0.54376644 0.0079372451 5212547
0.33198822 0.54512256 0.0065608062 4685689
0.33494541 0.54583091 0.0059293695 4751236
0.33670092 0.54844999 0.0057049152 4817283
0.34014493 0.54935253 0.0053710714 4817539
0.34244809 0.54976636 0.0051609743 4752259
0.30964571 0.53564048 0.011086233 4096649
0.31296602 0.53804451 0.010999691 4030859
0.31592554 0.53815407 0.010531787 4293772
0.3183167 0.54063165 0.01059146 4097164
0.32022738 0.54067713 0.010398863 4162702
0.32289988 0.54232001 0.0066155195 4619389
0.32574961 0.54415286 0.0065287463 4619904
0.32835686 0.54483426 0.0062925033 4554368
0.33044663 0.54588223 0.0060703866 4751487
0.33317393 0.54868716 0.0053199604 4882299
0.30220145 0.53330743 0.011604702 4096394
0.30355993 0.5356465 0.011875281 4162186
0.30656847 0.53558433 0.011463011 4030855
0.30864033 0.53824627 0.011384565 4162441
0.3106522 0.53826112 0.01109801 4096907
0.31444925 0.53832453 0.0087250713 4488309
0.31699392 0.54084259 0.0070731565 4488575
0.31926492 0.54263568 0.0073982477 4225661
0.32177463 0.543917 0.0068493895 4488573
0.29148924 0.53130716 0.012699492 3964549
0.29425651 0.53248566 0.012419159 3832709
0.29643694 0.53413898 0.011829974 3898758
0.30052602 0.53482795 0.011750089 4161930
0.30518457 0.53727728 0.0077653155 4422269
0.30696812 0.53811067 0.0070175584 4487544
0.31011316 0.54157835 0.0068190899 4488059
0.31241342 0.54171443 0.0066971742 4422777
0.31536075 0.54230964 0.0064649638 4553852
0.28578246 0.52943808 0.012807896 3832965
0.28798792 0.53106636 0.012254052 3964544
0.29842469 0.53745365 0.0078785457 4553595
0.30127469 0.537579 0.0072872154 4422007
0.30364311 0.53862923 0.0073647965 4422010
0.30648732 0.54073089 0.0068111885 4422517
0.30801916 0.54175705 0.0061905216 4422261
0.2890152 0.53424662 0.0082168654 4159087
0.29172328 0.53544313 0.008133173 4290676
0.29383424 0.53694469 0.0071157068 4224886
0.29664078 0.53775287 0.006736638 4356213
0.29911309 0.53970635 0.0059640594 4225137
0.30166495 0.54183316 0.0047144424 4357491
0.30344939 0.54275328 0.004098773 4751216
0.27783501 0.53062052 0.0085952487 4421240
0.27999985 0.53072804 0.0085496642 4289913
0.28294125 0.53411829 0.0081574116 3961721
0.28497365 0.53450996 0.0079823956 4224375
0.28719631 0.53585434 0.0071672257 4289908
0.29050785 0.53679746 0.0068050474 4355699
0.27092165 0.52896196 0.0089320038 4093042
0.27398846 0.52968335 0.0087516718 4158582
0.27610621 0.53069377 0.0081282966 4355699
0.27822161 0.53288949 0.00773485 4158578
0.28105611 0.53386289 0.007359948 4224370
0.28413263 0.5348357 0.0065431334 4355952
0.26146626 0.52668339 0.0095021129 4289136
0.26386887 0.52856535 0.0087045785 4092531
0.26679069 0.52945298 0.0087216999 4158322
0.26950526 0.52988088 0.0087018348 4224117
0.27151072 0.53035057 0.007939633 4224112
0.27477735 0.53416449 0.0077588689 4224368
0.2545239 0.5255217 0.0096447673 4026226
0.25792813 0.52615774 0.00937666 4092021
0.26020923 0.52886641 0.0087803695 4223342
0.26298258 0.52953219 0.008603951 4092016
0.26452354 0.52975976 0.007953044 4223598
0.24586406 0.52275717 0.0099178366 3894123
0.24793139 0.52464521 0.0093516298 3697773
0.25063556 0.52540737 0.0086073987 4091756
0.252974 0.5282234 0.0082241278 4223082
0.25629145 0.5286538 0.0082495585 4288874
0.23641478 0.52166152 0.010567952 3893358
0.23951022 0.52185172 0.010273274 3893354
0.24288459 0.52284539 0.0094296467 3828072
0.24549672 0.52459365 0.0093810055 3894121
0.25029427 0.52844679 0.0080677699 4222826
0.2283313 0.51795512 0.011274265 4287856
0.23073323 0.51809496 0.010941053 4024944
0.23320173 0.5211972 0.010793952 3827815
0.23575248 0.52215934 0.0099038742 3828067
0.2384005 0.52295023 0.0092672352 3762531
0.24057648 0.52443659 0.0088699702 4025700
0.21556611 0.51431489 0.011813169 4024942
0.21862307 0.51530939 0.011585835 3958888
0.22108583 0.51747781 0.011504767 4287336
0.2234187 0.51803362 0.011138091 4287336
0.22610275 0.51991397 0.010813005 3959655
0.2287221 0.52150637 0.010210857 4024680
0.23085283 0.52154285 0.0096191801 3893349
0.20900053 0.51366556 0.012619702 4090991
0.21222894 0.51472682 0.011738652 3958891
0.21407063 0.5159896 0.010664009 3958630
0.21687068 0.51795077 0.010881061 4221803
0.21918646 0.51962399 0.010457899 4287335
0.22282046 0.52041668 0.010066491 4156006
0.1997986 0.51049101 0.012585206 4156784
0.20250301 0.51217645 0.012709931 4025455
0.2050866 0.51385814 0.012137471 4156782
0.20769927 0.51528114 0.010580773 4221803
0.21133611 0.51553291 0.010582989 4156010
0.18445274 0.50493616 0.014379598 4156271
0.19134742 0.50973624 0.012885476 4090995
0.19376633 0.50990582 0.012986731 4090736
0.19680989 0.51084334 0.012976695 4025452
0.19871363 0.51270282 0.012234719 4090984
0.20056401 0.514265 0.010893742 4222057
0.20393331 0.51482469 0.011092421 4484966
0.20669495 0.51624888 0.010139689 3893861
0.20856442 0.51721275 0.0094946437 4025447
0.17751892 0.50300509 0.015955329 4288099
0.1788512 0.5043301 0.014861656 4288108
0.1820043 0.50519371 0.014319325 4353387
0.18405999 0.50785714 0.01310445 4156524
0.18692844 0.50844514 0.012700908 4156520
0.18964374 0.50938374 0.012400676 4353896
0.1915314 0.51115239 0.011527373 4419175
0.19411817 0.51291138 0.011563271 4090984
0.19913642 0.51597136 0.0096475724 4157290
0.16231216 0.49867955 0.017602742 3893870
0.16539149 0.498927 0.017005695 4025199
0.16800463 0.49987355 0.016102735 4156529
0.1690159 0.50298035 0.016173176 3959407
0.17232206 0.50389892 0.014934596 4090985
0.17469536 0.50456148 0.014532171 4222066
0.17748262 0.50597775 0.013130136 4287851
0.18039735 0.50758183 0.013401721 4090731
0.18820663 0.51170278 0.011837877 4222056
0.15207915 0.49472159 0.018524971 4288368
0.15563343 0.49762911 0.017140787 4156269
0.15852962 0.49824566 0.017929416 4090478
0.16398838 0.50226355 0.016049804 4156268
0.16628103 0.50247145 0.01584278 4221805
0.16869271 0.50353169 0.01452576 4221803
0.17157416 0.50509351 0.013443824 4221803
0.17382629 0.50548816 0.013398139 4090474
0.14107142 0.4927763 0.019869175 4222061
0.14483786 0.49328473 0.019607194 4090735
0.14725278 0.49465773 0.018084481 4222317
0.15011667 0.49578932 0.017843843 4156777
0.15228085 0.49679726 0.017209245 4156776
0.15362822 0.49735105 0.016029771 4353386
0.15626934 0.50114632 0.015713524 4222058
0.1596974 0.50163591 0.015465951 4222058
0.16213082 0.50239336 0.015123753 3959908
0.16484988 0.50379562 0.014185626 3893861
0.16765401 0.50524169 0.013218118 4157281
0.13177373 0.48931757 0.019984532 4352619
0.1378555 0.49236169 0.02016091 4025197
0.13941351 0.49418694 0.017513115 4156264
0.14279237 0.49442145 0.017509308 4419686
0.14539559 0.49564111 0.016559344 4354145
0.14766127 0.49797121 0.016603248 4222821
0.15066354 0.50010026 0.015980363 4550242
0.1531743 0.50097358 0.01552368 4419174
0.15529457 0.50248832 0.01438259 4222054
0.1580562 0.50391257 0.013429742 3828322
0.12833875 0.48898694 0.020278979 4286823
0.130768 0.49183637 0.019299231 4418919
0.13320312 0.49289292 0.018317454 4353383
0.13621008 0.49415168 0.017214669 4287848
0.13758218 0.49523222 0.016155303 4354145
0.12158365 0.48901078 0.01938219 4088929
0.12435397 0.49020863 0.018912502 4286562
0.12797941 0.49184895 0.018739674 4418406
0.11297436 0.48732266 0.018966161 3233614
0.11552598 0.48724273 0.01907932 3496528
0.11818969 0.48823208 0.019069053 3825494
0.12069919 0.49072018 0.019146454 4221282
0.12638645 0.49125364 0.015620686 4155745
0.10554852 0.48683056 0.019220088 3167053
0.10805333 0.48624235 0.018437762 3101000
0.11080864 0.48714572 0.01924672 3298636
0.11429265 0.48890737 0.017310685 3496269
0.12221063 0.49280354 0.014020393 4155745
0.10294801 0.48621112 0.018431656 3034439
0.10531659 0.48550746 0.017593618 3034436
0.10641685 0.48840129 0.016125673 3166274
0.10989834 0.48895589 0.016926218 3298632
0.11431224 0.49235085 0.013645735 3760469
0.1171164 0.49379689 0.012678286 3761760
0.094906934 0.48581919 0.017563511 3166278
0.097192332 0.48613387 0.017153803 3034433
0.099753216 0.48697448 0.017134814 3231554
0.10278656 0.48764807 0.015620425 3099966
0.091902629 0.48537481 0.016548816 3888710
0.093682036 0.48490286 0.015372593 4019267
0.095803872 0.48742765 0.014381075 3493688
0.098996401 0.48722228 0.014799997 3362105
0.10769394 0.49194977 0.012396753 3167306
0.11033094 0.49300522 0.011270821 2642504
0.087998055 0.48450774 0.015874157 5530704
0.088272065 0.48648006 0.014670115 5267014
0.092374571 0.48681653 0.014613956 3887675
0.097148225 0.48984069 0.011310145 3427611
0.10003727 0.49133047 0.010313373 3099703
0.10190668 0.49229455 0.0096683931 3099703
0.10377607 0.4932586 0.0090234075 2706245
0.080031477 0.48392481 0.014367927 8027230
0.084077686 0.48462099 0.015766021 6778972
0.085506178 0.48537078 0.013864119 6712404
0.076801538 0.4837175 0.01328069 8749666
0.079887688 0.48464209 0.012522031 8551771
0.082323372 0.48569512 0.013310088 7763287
0.091968969 0.4907901 0.0099972952 3821848
0.073126979 0.48311126 0.013833486 8881258
0.07452704 0.48442727 0.012354275 9274464
0.086033292 0.49043676 0.008296635 5858362
0.087902717 0.49140075 0.0076515898 4873775
0.070916981 0.48510817 0.011435706 9471586
0.078058168 0.48903176 0.0072994828 8618077
0.080947213 0.49052161 0.0063026566 7237704
0.071240135 0.49006197 0.0057917144 9208663
0.073194541 0.49106982 0.0051174089 9011284
0.37268722 0.55972493 0.0043379944 3765373
0.37525424 0.56028485 0.0034058411 1593166
0.36097056 0.55623591 0.006436646 5150885
0.36512783 0.55610287 0.0060076006 4954277
0.36635444 0.5587607 0.0060312934 5151143
0.3697255 0.55936503 0.0042893402 5344917
0.37247446 0.56034714 0.0029460937 6194809
0.37468949 0.56268686 0.002914533 2578514
0.37731326 0.56410939 0.0017870683 1328699
0.38013807 0.56508738 0.00086227898 1327668
0.34710002 0.55031896 0.0085549429 4623770
0.35013995 0.55213755 0.0081453584 4689299
0.35290051 0.55332088 0.0073413961 4951179
0.35568863 0.55460346 0.0067654587 5149597
0.35770279 0.5558545 0.0051171929 5148046
0.36024654 0.55753058 0.0046810955 5016723
0.3626751 0.55864388 0.0040041097 4885651
0.36528519 0.55986679 0.0034936778 5017490
0.36812085 0.56195122 0.002787441 5148058
0.37107536 0.56239909 0.0021852255 4750205
0.37312818 0.56392872 0.00098436233 2577750
0.37499976 0.56536233 -0.00020287186 1328192
0.37791604 0.56677425 -0.00089631416 1918782
0.38020876 0.56777489 -0.0019936096 3101262
0.33622599 0.54817635 0.0093090739 4557459
0.33828807 0.54814094 0.009093143 4360339
0.34061483 0.54980201 0.0089963134 4491924
0.34365487 0.55065346 0.0086202733 4557720
0.3456018 0.55249983 0.0062781423 5015173
0.34731841 0.55429429 0.0062611401 4949124
0.3509587 0.55484128 0.005265031 5081740
0.3538323 0.55620807 0.0048066042 5213325
0.35668156 0.55827332 0.0045544095 5278860
0.35979795 0.55887496 0.0042537563 5081995
0.37699339 0.56740355 -0.0020616837 1852997
0.38025802 0.56923199 -0.0035104174 4018250
0.32222348 0.54257822 0.011180663 4228493
0.32413501 0.54269326 0.010753157 4228494
0.32972771 0.54578161 0.0097488947 4228751
0.33173862 0.54739082 0.0092843957 4425097
0.33402848 0.54813105 0.0085002519 4555398
0.33670247 0.55005217 0.0068994071 4751480
0.33968708 0.55269766 0.00665606 5146233
0.34251675 0.55274212 0.0057143588 4883844
0.34455839 0.5540486 0.0052846633 4949380
0.34759629 0.55408782 0.0047111437 5015171
0.31424275 0.54065233 0.011094011 4294027
0.31679219 0.54203653 0.01083097 4228235
0.31989437 0.54293889 0.011108708 4294287
0.32244417 0.54603016 0.010498909 4097163
0.32565376 0.54580241 0.010251332 4162957
0.32850027 0.54794967 0.0067029856 4488836
0.33089656 0.5483526 0.0060643274 4685695
0.33245257 0.55042827 0.0061725024 4685954
0.33519173 0.5516386 0.0060291439 4817539
0.33825406 0.55243701 0.0054101907 4948865
0.34101447 0.55347818 0.004848171 4948607
0.30642778 0.53843212 0.011389036 4228233
0.31089026 0.54095864 0.011215068 4097163
0.3152515 0.54351592 0.011135058 4097162
0.31905323 0.54410082 0.0095547643 3439224
0.32164493 0.54543734 0.0086606182 3964535
0.32360369 0.54755402 0.0069272853 4488828
0.32652378 0.54849046 0.0064726323 4620157
0.32882321 0.55036008 0.0060116686 4685945
0.29882583 0.53727931 0.012362262 4161669
0.30146644 0.53847903 0.012258003 4161927
0.30441582 0.5384174 0.011675535 4096392
0.30664143 0.54124171 0.011602858 4162695
0.31209525 0.5434733 0.0081311781 4160377
0.31514078 0.5447064 0.007067699 4357243
0.31682968 0.5466941 0.0069289207 4488317
0.31973347 0.54689032 0.0066565983 4554109
0.32122481 0.54897982 0.0069390852 4685177
0.29067552 0.5336628 0.013179982 4095881
0.29268229 0.53655374 0.01274324 3701378
0.29564992 0.53662604 0.012242928 4030341
0.30151421 0.54045051 0.0076684766 4290684
0.30515882 0.54320848 0.0080283321 4488061
0.30822903 0.54422516 0.007190302 4291193
0.31071118 0.54559499 0.0061991774 4488052
0.31316164 0.54554588 0.006406242 4422261
