# .PCD v0.7 - Point Cloud Data file format
VERSION 0.7
FIELDS x y z rgba
SIZE 4 4 4 4
TYPE F F F U
COUNT 1 1 1 1
WIDTH 1132
HEIGHT 1
VIEWPOINT 0 0 0 1 0 0 0
POINTS 1132
DATA ascii
0.37721038 0.75827748 0.0070195906 5215832
0.37997162 0.7630201 0.0069630072 5282400
0.36523882 0.74229789 0.014064129 5150307
0.36716083 0.74467498 0.013944253 5149798
0.37365797 0.75720149 0.0073318519 5084503
0.36057079 0.73909611 0.014639728 5018213
0.36284977 0.74009413 0.01409382 5150310
0.36324528 0.74294716 0.01466962 5413991
0.36980462 0.75246674 0.0072398409 5083737
0.35625553 0.73452425 0.014721312 5018210
0.35840636 0.73517597 0.014543302 5084259
0.35873687 0.73831236 0.014853567 5347684
0.36247423 0.74654025 0.0078077987 5083224
0.3649435 0.74698824 0.007852342 5148762
0.3652882 0.75097203 0.0079527162 5083480
0.36718982 0.75206751 0.0073580593 5149271
0.35095471 0.72935307 0.015402064 5216360
0.3516317 0.7337752 0.014900338 5018213
0.35378337 0.73435682 0.014713209 5084002
0.35948563 0.74684983 0.007380262 4885849
0.34750688 0.7272625 0.014841232 5018210
0.34805021 0.73057711 0.014254037 4951134
0.35020137 0.7311424 0.013917852 4951132
0.35582244 0.74149644 0.0076737925 4885846
0.3440311 0.72569084 0.014765911 4886112
0.34590054 0.72987157 0.01457211 4885342
0.34964117 0.73575824 0.0079832003 4885585
0.35201198 0.740659 0.0077763498 4885588
0.3393831 0.72157419 0.014793128 5018722
0.3404485 0.7225467 0.013979651 4687195
0.34431186 0.73066115 0.0078176707 4622165
0.3451457 0.7343936 0.0082458667 4885332
0.34717187 0.73531032 0.007938683 4885330
0.33458054 0.71719807 0.014882665 4819553
0.33541796 0.71858346 0.014807113 4753503
0.33637154 0.72177488 0.014377557 4754525
0.34206334 0.73004889 0.0079581067 4621910
0.32901415 0.71480942 0.014433108 4819810
0.33193764 0.71707827 0.014769237 4688222
0.33862999 0.72660816 0.0072708987 4753239
0.33959109 0.72988147 0.0079500526 4687703
0.32334405 0.70724219 0.016237307 5148767
0.32384086 0.70882976 0.01448651 4423766
0.32559592 0.71305764 0.014606453 4819035
0.33320588 0.72571582 0.0071158297 4687444
0.33591789 0.7261619 0.0071933307 4752982
0.3161447 0.69995654 0.01849582 5411165
0.31763706 0.70076698 0.017866541 5279576
0.31742996 0.704234 0.018058442 5214297
0.31944132 0.70615882 0.016853243 5148769
0.32122102 0.70881861 0.014361229 4554838
0.32817149 0.72047889 0.0075012296 4489552
0.33056378 0.7211827 0.0072162524 4424018
0.33091229 0.72491866 0.0075784177 4489811
0.3130303 0.70058501 0.017799176 5279322
0.31764358 0.70528626 0.013818517 4685913
0.32277805 0.71475375 0.0077733323 4489552
0.32358113 0.71895963 0.0078481883 4489553
0.32631117 0.71981627 0.007511951 4489552
0.3107633 0.70025045 0.014153808 4685653
0.31480286 0.70543945 0.013508219 4620379
0.31926033 0.71379751 0.0079885796 4423503
0.30576169 0.69441611 0.015023496 4619347
0.30697656 0.69861031 0.014947519 4685140
0.30920079 0.69916761 0.014679022 4751189
0.31188682 0.70642918 0.0089489147 4489042
0.31497198 0.70802194 0.0084642284 4423250
0.31613833 0.71229529 0.0085976459 4423247
0.3010225 0.69073814 0.014684498 4684884
0.30281648 0.69335198 0.015567392 4619347
0.30875549 0.70214748 0.0087214708 4619857
0.30907455 0.70621657 0.0087120458 4489043
0.29901749 0.69015676 0.01515615 4553302
0.30430755 0.70085996 0.0089420676 4422735
0.30643392 0.70154315 0.0087941661 4488528
0.29381898 0.68809593 0.013585709 4487508
0.29875445 0.6962077 0.0086280406 4488013
0.30168876 0.69634926 0.0088723004 4619343
0.30135143 0.70055586 0.0088497289 4488269
0.28946483 0.68202156 0.014982693 4618577
0.29171684 0.68746746 0.013861597 4553042
0.29658067 0.69544721 0.0088179968 4356429
0.28427267 0.67783612 0.015220188 4421457
0.28486302 0.68237895 0.01460493 4421456
0.29108173 0.6903438 0.0086871944 4487758
0.29354587 0.69117969 0.0084881037 4487759
0.2939162 0.69507825 0.0086983368 4422222
0.27688134 0.67204779 0.016091749 4289616
0.27916166 0.67637318 0.015914507 4355152
0.28020927 0.67779273 0.014951631 4289617
0.28601786 0.68543994 0.0087009557 4421710
0.28668517 0.68888563 0.0091274418 4487246
0.28863811 0.68981045 0.0087525211 4487755
0.27398846 0.66818494 0.015952054 4552014
0.27473029 0.67148244 0.016428031 4355153
0.28068557 0.68062335 0.008571893 4355657
0.2816484 0.68375635 0.0092328414 4224329
0.28366914 0.68506134 0.0086820647 4290125
0.27036428 0.66876197 0.015061233 4354636
0.2781162 0.68040895 0.0083680525 4289867
0.27939999 0.68314421 0.0093732886 4355660
0.2644383 0.66316843 0.015924066 4288588
0.26614866 0.66409504 0.015516177 4354381
0.26784468 0.66851735 0.015095256 4289102
0.27490929 0.67890346 0.0089944787 4420939
0.26241085 0.66239184 0.016249504 4288590
0.26817545 0.67366248 0.0089996532 4157769
0.27057159 0.67411846 0.0089763924 4158023
0.27217108 0.67605495 0.0079219863 4289610
0.29938585 0.72307324 -0.019725168 4358488
0.3012282 0.72579688 -0.018586127 4358743
0.30204833 0.72790921 -0.019959256 4293207
0.25496063 0.65395719 0.016354106 4288333
0.25783017 0.65863895 0.01595179 4288589
0.26139137 0.66675305 0.010042209 4157769
0.26366019 0.6676681 0.0097680539 4157512
0.2657814 0.66873944 0.0093766004 4157770
0.28983861 0.71063524 -0.015321041 4160596
0.29536077 0.72101408 -0.019019099 4226646
0.29750746 0.72200018 -0.019300666 4292694
0.25140205 0.65086794 0.015695915 4354122
0.25659594 0.66176224 0.010198861 4223048
0.25876975 0.66252267 0.010008909 4223048
0.25916862 0.66605556 0.010292485 4091977
0.29165354 0.71626329 -0.01897572 4226386
0.29328564 0.72016025 -0.018651579 4292438
0.24572486 0.64783537 0.01607712 4353610
0.24822512 0.64904559 0.016843051 4222537
0.24878359 0.6507166 0.015552349 4288330
0.25064921 0.65514517 0.015096724 4288074
0.25429994 0.66107279 0.010381375 4222792
0.28812441 0.7152096 -0.018833604 4095059
0.24293453 0.64486712 0.016744748 4222281
0.243836 0.64630282 0.015646413 4353612
0.2507771 0.65616155 0.010575943 4222794
0.25183073 0.6606248 0.01033695 4288329
0.27783844 0.70523566 -0.016440172 4160082
0.23690978 0.64031082 0.017025184 4025165
0.23937738 0.6416375 0.01606831 4024910
0.23958252 0.64510912 0.016258523 4156234
0.24483244 0.65087992 0.010683879 4156748
0.24718434 0.65533751 0.010592595 4288331
0.2743279 0.69848031 -0.015222687 4094031
0.23365125 0.63574958 0.017566331 4156492
0.23774916 0.64453101 0.011230201 4090695
0.24081397 0.65016401 0.010656435 4090952
0.26752716 0.69441944 -0.013602607 4159311
0.27000737 0.69673383 -0.014751144 4028238
0.27173796 0.69796324 -0.015292864 4028238
0.22819269 0.62974215 0.018908925 4090955
0.22823709 0.63178247 0.01747882 4091212
0.23044571 0.6359756 0.017215632 4156491
0.23478922 0.64447469 0.010876097 4156488
0.26334313 0.689861 -0.013981134 4093521
0.26362416 0.6922552 -0.015920037 4159312
0.2661666 0.6926949 -0.015807819 4159566
0.2226655 0.62936383 0.018631008 4156748
0.22430266 0.6302985 0.018155284 4222287
0.23077981 0.6387797 0.011576857 4025416
0.23027052 0.64308763 0.01130899 4090952
0.23241881 0.64393348 0.011009183 4090694
0.25651255 0.68706101 -0.013286658 4159052
0.2584112 0.68843693 -0.013844848 4093519
0.25918004 0.69071984 -0.01543767 4159313
0.21526214 0.62117934 0.019009888 4090958
0.2169483 0.62205094 0.018473893 4091211
0.21880522 0.62534654 0.018779173 4156747
0.22357631 0.6367209 0.012023792 4156999
0.22606741 0.63733131 0.011916392 4025674
0.22801509 0.63864428 0.011297829 4091465
0.25422993 0.68452579 -0.014813848 4093258
0.21058148 0.61681867 0.019265085 4025676
0.21076231 0.62023538 0.019327223 4091212
0.2135029 0.62031567 0.01947815 4156495
0.21893224 0.6313259 0.012559444 4091468
0.2207118 0.63249248 0.011957429 4025932
0.2231773 0.63318819 0.011740196 4091465
0.24978551 0.67863089 -0.014257718 4158028
0.25091866 0.68180299 -0.013333233 4026956
0.25208166 0.68368 -0.014513995 4093005
0.20644027 0.61200345 0.019769412 4091469
0.20818518 0.61636269 0.019288234 3960140
0.21572247 0.62744027 0.0120207 4025932
0.24660204 0.67714787 -0.013801407 4092234
0.19904895 0.6053738 0.021353215 4026190
0.19969583 0.60851675 0.021913461 4026192
0.2009494 0.61086637 0.02039583 4091471
0.20340408 0.61223567 0.019383986 4222543
0.20895895 0.62083369 0.012929622 4157516
0.21179849 0.62518007 0.013184339 4091722
0.21340474 0.62658817 0.012355223 3960393
0.23887387 0.67000365 -0.012948468 4091976
0.24109514 0.67084146 -0.013180517 4091977
0.24304837 0.67612571 -0.013629233 4026446
0.19546331 0.60251015 0.020603403 4157002
0.1955478 0.60591251 0.020768087 4026188
0.2059792 0.61956328 0.01341223 4091978
0.20893499 0.62513816 0.012727775 4026186
0.23366806 0.66469526 -0.013124792 4288583
0.23594238 0.66958165 -0.013229189 4091977
0.19277176 0.60236681 0.020392179 4222794
0.20011652 0.61277986 0.014656499 4157774
0.20248348 0.61876971 0.013475683 4157769
0.22726561 0.65905273 -0.010276873 4091211
0.22971395 0.66105312 -0.011206541 4157002
0.23225702 0.66320819 -0.012220558 4288584
0.18866208 0.59967476 0.020474527 3828037
0.19081578 0.60172236 0.020803519 4157259
0.19424696 0.61162281 0.014581896 4092235
0.19625117 0.61237717 0.014426619 4092236
0.22363274 0.65715837 -0.011082098 4222284
0.18473463 0.59866893 0.020215765 3564353
0.19245213 0.60897648 0.013400782 4420167
0.216984 0.65222865 -0.010172257 4419147
0.21968396 0.65527374 -0.011988096 4419147
0.22392623 0.65741658 -0.012770938 4287820
0.18295497 0.5975548 0.017945163 2511405
0.18792039 0.60600185 0.012330461 3629625
0.18986452 0.60835177 0.013610642 4354118
0.21358205 0.64814162 -0.010822583 4222281
0.21550792 0.64929205 -0.011289082 4287817
0.21775819 0.65412337 -0.011521487 4353610
0.17924321 0.59585118 0.016213894 3495711
0.18493102 0.60627884 0.011604719 3498036
0.20809844 0.64451808 -0.0091702268 4221769
0.21028823 0.64674062 -0.010458816 4156232
0.17709476 0.59469736 0.015591756 4415526
0.18316709 0.60439473 0.011144921 2971434
0.20567885 0.63968027 -0.0089029893 4221511
0.17320675 0.59380764 0.014442693 5730096
0.17859024 0.60331225 0.010052603 3495975
0.19528867 0.63018799 -0.0069307536 4090695
0.19740975 0.6312592 -0.0073221698 4156488
0.1995108 0.63638723 -0.0076535642 4222026
0.20018458 0.63851559 -0.0091622621 4156233
0.20188962 0.63983035 -0.0098137241 4156232
0.17201677 0.59222478 0.012808338 6649659
0.17488223 0.60115534 0.0079684593 5269542
0.17776762 0.60135984 0.0082731172 4875298
0.19058488 0.62630206 -0.0051179193 3959625
0.16622943 0.58879352 0.011858668 8686672
0.16791606 0.59215289 0.012207814 7043906
0.17078766 0.5980674 0.0067081377 7700805
0.17192216 0.60109913 0.0076143667 5729582
0.18415698 0.61902821 -0.0039862245 4025674
0.16239575 0.58631963 0.010832235 9145942
0.16304557 0.58918202 0.011355951 8686673
0.16780722 0.59770828 0.0064877197 8095048
0.17801836 0.61189997 -0.0028545782 4025930
0.17869368 0.61654884 -0.0031798333 3960137
0.18074164 0.61762828 -0.0036389865 4091467
0.16005459 0.58752221 0.01099265 8948819
0.16368932 0.59459794 0.0053974912 9211482
0.16669682 0.59473151 0.0057095811 9080152
0.17111707 0.60637385 -0.00011840463 3960395
0.17293997 0.60879314 -0.0015783459 3894859
0.15550725 0.58363491 0.0095359385 7631405
0.15725115 0.58512986 0.0099712312 8553028
0.16018268 0.59116518 0.0046425238 8683836
0.16087851 0.5942452 0.0051424652 9342806
0.16493109 0.5991683 0.0010553412 4026185
0.16764838 0.60101157 0.00025941059 4223307
0.15142293 0.58084667 0.0096287876 6314018
0.15347819 0.58299863 0.0098796077 7039027
0.15756714 0.59073347 0.0044625849 8223291
0.14712586 0.58031255 0.0091854185 5852949
0.1519869 0.58630657 0.0040569045 6049546
0.15386537 0.58737969 0.0036325008 6049800
0.15446071 0.59069318 0.0039729699 7762229
0.15875804 0.59454679 0.00045479089 3565373
0.15988918 0.59868401 0.00053607672 3829321
0.14625327 0.57857972 0.007633619 6181929
0.14885733 0.58624399 0.0037375465 6115085
0.15455753 0.59369439 9.0561807e-05 3630393
0.14124918 0.57558227 0.0067012049 6839084
0.14272293 0.57728809 0.0068627931 6575914
0.14466639 0.58314174 0.002579622 6970151
0.14752227 0.5836795 0.0025125816 6838824
0.15114498 0.59122497 -0.0017590672 3892020
0.1414784 0.57941878 0.0018889084 7167538
0.14229493 0.58256793 0.002414383 6970152
0.1471691 0.58956593 -0.0027567148 4482352
0.13876267 0.57922053 0.0015496016 7101746
0.14290307 0.58699018 -0.0030330382 5204008
0.14460962 0.58816457 -0.0037027523 4810793
0.1354447 0.57870865 0.0013804287 7101745
0.14024602 0.58562821 -0.0040166266 5992494
0.13812706 0.58395201 -0.0047328174 7240504
0.13347381 0.58087564 -0.0061269477 8027971
0.13426702 0.58400244 -0.0054312348 7174714
0.12847412 0.57907128 -0.0058147311 7895865
0.13030128 0.58031499 -0.0064588524 7830847
0.12605909 0.57817233 -0.005676046 7764020
0.39093634 0.76908118 0.011690173 6269550
0.39354619 0.77098912 0.011485364 6006383
0.38464335 0.76290053 0.013199389 5678192
0.3860904 0.76455653 0.012645535 5809260
0.38712794 0.76702631 0.012015056 6072430
0.38839102 0.76918471 0.012334503 5743722
0.3939248 0.77706915 0.0047844835 5743459
0.39661536 0.78444123 0.0034182929 10523991
0.38176697 0.76019496 0.013302006 5414766
0.38240793 0.76205659 0.012929261 5941362
0.38899276 0.77489012 0.0057912432 5743202
0.39219412 0.77583969 0.0053261742 5874789
0.37421268 0.75345463 0.014261335 5084772
0.37603027 0.75560999 0.013735704 5480043
0.37760705 0.7584039 0.01339804 5545833
0.37874034 0.76062578 0.013766799 5481321
0.38284156 0.76874846 0.0064631552 5742180
0.38467529 0.76946378 0.0060443766 5742689
0.38548362 0.77328169 0.0063627996 5676895
0.36929125 0.74878275 0.014148828 5083747
0.37177551 0.75218779 0.013937354 5546090
0.37262741 0.7530179 0.0139281 5348458
0.37381452 0.75637472 0.013708893 5743728
0.37784523 0.76233697 0.007110849 5347677
0.37974727 0.76779181 0.0064424947 5676637
0.36650982 0.74620891 0.015075136 5217385
0.36737072 0.75139832 0.014170505 5546088
0.36935225 0.7519573 0.013869043 5546090
0.37429824 0.76265788 0.0065496042 5150555
0.36109173 0.74248946 0.014725875 5413736
0.36224824 0.74528933 0.014400002 5084514
0.36400685 0.74840271 0.01390389 5017695
0.36552039 0.74954855 0.013439029 5083491
0.37032261 0.75620902 0.0075672269 5018201
0.37241834 0.76172513 0.0069922321 5084506
0.35594219 0.73812222 0.014994342 5018209
0.35687664 0.74209547 0.014948796 5149793
0.3589178 0.74275923 0.014669135 5149540
0.36523718 0.7555021 0.0076592304 5083477
0.36760774 0.75604331 0.0075262152 5083733
0.35293341 0.7370072 0.015650127 4886109
0.35388896 0.73799175 0.014735062 5216616
0.35987779 0.75091094 0.0074385628 4951641
0.36242315 0.75107032 0.0075143613 4952155
0.34658962 0.73347986 0.014846642 5016926
0.34828481 0.73371547 0.014815994 5018469
0.35055828 0.73762536 0.014818266 5018209
0.3561306 0.74548447 0.0077403225 5082709
0.3574613 0.75015217 0.0075955018 4754520
0.34374335 0.72797918 0.015791006 5215845
0.34457925 0.72892714 0.015148569 5017697
0.34458393 0.73286581 0.015020095 4952161
0.34969041 0.74005485 0.0078490935 4885335
0.35195565 0.7455771 0.0072393939 5016921
0.33927289 0.72507179 0.015031781 5084517
0.3395595 0.72789502 0.014638685 4885600
0.34039757 0.72954822 0.014422201 4885088
0.34748945 0.73951977 0.0079474635 4885334
0.33325645 0.72163218 0.014402181 5018468
0.33482948 0.7235865 0.014854796 4820576
0.33598846 0.72567755 0.014220651 4621662
0.34027886 0.73363006 0.0082427785 4622163
0.3430436 0.7337653 0.008521799 4753748
0.34452802 0.73960382 0.0076115318 4950866
0.32876626 0.71740776 0.014172427 4424278
0.33048797 0.72090352 0.014573611 4754274
0.33667716 0.73004282 0.0075720474 4556372
0.33724278 0.73386228 0.0078574494 4556628
0.32354596 0.71181929 0.015602775 5148767
0.32367647 0.71543908 0.01574355 5017443
0.3263272 0.71665931 0.014797799 4819553
0.32830966 0.72140497 0.014106024 5017701
0.33411673 0.72919232 0.0078735873 4556115
0.31570348 0.70711619 0.018788189 5279843
0.31694645 0.70845675 0.017900474 5082720
0.32132041 0.71215695 0.015019 4819290
0.32382324 0.71693277 0.014138054 4489305
0.32873845 0.72415817 0.0077683516 4555347
0.33133164 0.72875428 0.0077282973 4555857
0.31364605 0.70428759 0.018164217 5082719
0.31817162 0.71050209 0.014605381 4753242
0.31873161 0.71242732 0.0143767 4555095
0.32379615 0.72351038 0.0074175484 4292942
0.32607251 0.72392958 0.0076669455 4424271
0.30999103 0.70257485 0.015411071 4685911
0.31205428 0.70633584 0.014072172 4620119
0.31426048 0.70855969 0.013873182 4488792
0.31964236 0.71770734 0.0081137531 4489039
0.30727375 0.70251679 0.015090007 4619863
0.31059548 0.70446336 0.014096513 4751446
0.31352124 0.71200365 0.008435905 4423505
0.31606165 0.71691066 0.0081943534 4292175
0.30223024 0.69791591 0.014970049 4684886
0.30408585 0.69879383 0.014399312 4619092
0.30936879 0.71040374 0.008890979 4488783
0.31137303 0.71115792 0.0087356567 4423249
0.29775065 0.69480324 0.014417633 4684627
0.3000316 0.69727325 0.01534842 4619350
0.30430788 0.70521951 0.0088683143 4422993
0.30692494 0.70551115 0.0090299919 4554578
0.30704734 0.70979947 0.0089636743 4422991
0.29485768 0.69094038 0.014277954 4684628
0.29633453 0.69370425 0.015078314 4618836
0.2993215 0.69988698 0.0088951252 4619596
0.29961723 0.70393378 0.009055879 4553806
0.30171791 0.70470238 0.0087981895 4422736
0.2883175 0.68594974 0.014841981 4684371
0.289949 0.68849194 0.014341641 4553043
0.29260632 0.69060862 0.014454845 4553045
0.29688019 0.69924611 0.0092404634 4553804
0.2848947 0.68609214 0.014568128 4618577
0.29159316 0.69461429 0.0087893605 4487757
0.29404229 0.69911885 0.0088937432 4488012
0.27970439 0.68083876 0.015341356 4421201
0.28276083 0.68175071 0.014880806 4421200
0.286836 0.69280839 0.0091344677 4356173
0.28937858 0.69324815 0.0092467517 4487760
0.31917056 0.74187309 -0.018482739 4556890
0.32050699 0.74350834 -0.019436406 4622427
0.27595937 0.67549366 0.016388722 4420688
0.28159741 0.68828642 0.0089394078 4486991
0.28438917 0.68819612 0.0093100294 4618577
0.31398696 0.74108654 -0.018884718 4556633
0.31566852 0.74237895 -0.01936616 4556632
0.2705735 0.67030311 0.016937785 4223568
0.27151427 0.67372042 0.015958212 4354898
0.27883786 0.68776298 0.0089040138 4355403
0.26664069 0.66914207 0.015952609 4223309
0.27509749 0.68275207 0.0090262443 4289612
0.26144245 0.66476268 0.017133474 4288590
0.26236433 0.66744518 0.015496548 4288845
0.26968914 0.67822385 0.0088658482 4355146
0.27157971 0.6817959 0.0092414804 4223819
0.25764117 0.66251642 0.015729994 4288588
0.26181072 0.67058861 0.010192145 4157767
0.26329339 0.67220795 0.0093738213 4157771
0.26511532 0.67423433 0.0095663778 4223563
0.26647365 0.67642671 0.0095409155 4223817
0.29514164 0.72539759 -0.019296082 4292693
0.29834282 0.72559237 -0.018890729 4292950
0.29919714 0.73046887 -0.019308453 4227412
0.25374115 0.65868098 0.015573502 4222797
0.25458476 0.66160458 0.016190566 4222800
0.25897658 0.67021358 0.010107175 4091974
0.2878412 0.7137121 -0.015014291 4160597
0.2907432 0.71972042 -0.018763838 4292435
0.24876784 0.65435249 0.015557654 4353866
0.24921565 0.65782225 0.015780918 4288332
0.25114843 0.65844423 0.015539758 4288332
0.25536638 0.66549331 0.010197282 4157511
0.28697971 0.71894377 -0.018852467 4160850
0.24247713 0.64883161 0.016380131 4353868
0.24506021 0.65403116 0.01553642 4288074
0.24909158 0.66040426 0.010167763 4288332
0.25181219 0.66454118 0.010378674 4288583
0.27977741 0.71005607 -0.015698094 4160334
0.28141826 0.7122308 -0.017851684 4291665
0.28371421 0.71292037 -0.018034276 4225874
0.23696417 0.64495772 0.01611504 4156239
0.2387566 0.64939433 0.015591733 4287819
0.24432325 0.65518785 0.010416009 4222535
0.24621296 0.65883005 0.010800712 4222539
0.274216 0.70606691 -0.016269024 4094285
0.2765784 0.70767123 -0.015528899 4225617
0.23176256 0.63970959 0.017122511 4024906
0.23339526 0.64343369 0.017130151 3959626
0.23520342 0.6442343 0.016601484 4090958
0.24066935 0.65439922 0.010428928 4222537
0.27080736 0.70290273 -0.016064346 4094031
0.27184835 0.70485067 -0.017252531 4094028
0.22763199 0.6359033 0.016996913 4090700
0.22805949 0.63907027 0.017353944 4024904
0.23511219 0.648296 0.011128459 4090438
0.23726028 0.64914185 0.010828648 4090439
0.2370721 0.65305191 0.010905102 4287559
0.26191506 0.69215006 -0.013053373 4159057
0.26403457 0.69336164 -0.01342666 4093520
0.26729292 0.70168245 -0.01573649 4028238
0.22111002 0.63211197 0.019307747 4222282
0.22317225 0.63384974 0.018173069 4090957
0.22567751 0.63511866 0.017390147 4156749
0.22846536 0.6420064 0.011801198 4156745
0.23044179 0.64731318 0.011182278 3959107
0.23293827 0.64753544 0.01131843 4090438
0.25903118 0.69180524 -0.013376232 4159059
0.21987747 0.62920618 0.018522203 4156747
0.2255528 0.6420275 0.011404969 4222537
0.2114597 0.62317508 0.019808862 4090956
0.21409848 0.62447047 0.019106511 4090955
0.21520658 0.62839621 0.01889243 4090956
0.21674497 0.62942415 0.018239193 4090956
0.22098485 0.63634396 0.011971898 4156998
0.22291015 0.64182121 0.011133388 4156746
0.24855283 0.68520045 -0.013328634 4092748
0.24988931 0.68683583 -0.014282282 4093263
0.25267434 0.68727392 -0.014137141 4158538
0.2079962 0.62024033 0.019066475 3959884
0.20869347 0.62317997 0.019548152 4090955
0.21601965 0.63134688 0.012163147 4091468
0.21738233 0.63538468 0.012204543 3960137
0.24631774 0.68274254 -0.014897857 4026698
0.20145828 0.61514187 0.019910496 4025419
0.20474778 0.61583054 0.019540709 3959883
0.20511228 0.61915696 0.019763146 4025420
0.20962945 0.62835836 0.013245944 4157257
0.21275079 0.62993073 0.012645964 4091466
0.24092725 0.67505431 -0.013237786 4091978
0.24232158 0.68211913 -0.015086498 4091978
0.19710308 0.60828006 0.021879807 3960398
0.19811307 0.61317307 0.021074113 4025678
0.19901307 0.61474895 0.019994125 4091214
0.20642206 0.62436509 0.012987234 3894858
0.20704186 0.62773365 0.013455808 4091466
0.23589671 0.67372352 -0.013279 4026185
0.23853262 0.67445815 -0.013232812 4157512
0.19202451 0.6054309 0.020897925 4025932
0.19287004 0.60823053 0.021645978 3960139
0.19993953 0.61847001 0.013381582 4091724
0.20132114 0.62210971 0.014019631 4026187
0.20405295 0.62368357 0.01310201 3894860
0.23009028 0.66627872 -0.011878965 4288327
0.23137909 0.66783673 -0.012790661 4157253
0.23249324 0.66977668 -0.013911031 4091721
0.23272102 0.6734435 -0.013574585 4091722
0.1876466 0.60450226 0.021380898 4091724
0.19640067 0.6172812 0.013739675 4157519
0.22662072 0.6661709 -0.012427162 4222536
0.18535653 0.60172421 0.020349741 4288073
0.19085293 0.61139953 0.01438145 4157772
0.19369401 0.61560571 0.014617939 4157770
0.2211806 0.65851313 -0.011004971 4222285
0.2239576 0.66566193 -0.012565024 4222280
0.18142791 0.59909582 0.019407526 3366970
0.18227302 0.60187924 0.020006411 4222023
0.18714865 0.60815352 0.013271246 4288068
0.18836555 0.61054111 0.014750667 4157514
0.2123477 0.65049183 -0.0098014325 4287816
0.21432106 0.65171951 -0.01031008 4353608
0.21708079 0.65744364 -0.011060655 4222025
0.17807212 0.59711426 0.017923571 2576936
0.17910482 0.59863192 0.019498464 3037744
0.1835836 0.608064 0.013123777 3959105
0.20657003 0.64704072 -0.0084018558 4287307
0.20797971 0.64866799 -0.009287782 4287306
0.21027413 0.64949775 -0.0094520934 4222025
0.17340875 0.59749103 0.017393015 2970412
0.17973304 0.60483408 0.0118782 2774564
0.18099225 0.60768712 0.013071876 3564606
0.17114225 0.59567928 0.015786756 4349992
0.17393014 0.59583694 0.015895542 3824160
0.17645587 0.60492778 0.011441492 2708508
0.19325981 0.63034052 -0.0044266619 4156488
0.19746614 0.63938671 -0.0073045827 4090439
0.20250639 0.64347929 -0.0093087647 4090182
0.20381871 0.6450597 -0.010390539 4155975
0.16840954 0.59414154 0.013682492 6124345
0.17404434 0.602992 0.0096816421 4284447
0.19187516 0.63384825 -0.00738772 4221768
0.19502357 0.634354 -0.0071838126 4222024
0.19616476 0.63606834 -0.0082126595 4156231
0.19830787 0.6425029 -0.0095419642 4155975
0.16630743 0.59351307 0.013958383 6584381
0.17172283 0.60238779 0.0097543672 4744482
0.18582295 0.62311524 -0.0037500635 3894344
0.18688948 0.62497795 -0.0048284456 3959882
0.18664855 0.62919885 -0.0049534142 4025160
0.16286558 0.5915823 0.012351766 7635012
0.16813357 0.60042411 0.0075650066 6189877
0.17485398 0.61164892 -0.00035335124 3960138
0.17874813 0.62045717 -0.0030703358 4025672
0.18116315 0.62135607 -0.0032090917 3959881
0.18294129 0.6226629 -0.0037928671 3959880
0.15866393 0.58973706 0.011945181 8423757
0.16512099 0.59717679 0.0065200254 8423502
0.17440023 0.61457664 -0.0026166365 3894601
0.17632608 0.61572707 -0.0030831695 3894344
0.17655249 0.61953408 -0.0027284808 4025672
0.15399894 0.5876798 0.01038947 8882518
0.16191448 0.59737015 0.0058711395 8554833
0.1650195 0.60410804 0.00036465377 3960650
0.1667975 0.60541475 -0.00021916255 4026445
0.16822226 0.60852194 0.00067801774 4091727
0.16828492 0.61097276 -0.0011658221 4025677
0.17065249 0.61179447 -0.0012624189 4025675
0.15063117 0.58522397 0.010634009 8816211
0.1579186 0.59418893 0.0047883317 9342548
0.15917689 0.59700936 0.0056837648 8751951
0.16232099 0.60092264 0.0021622926 3960651
0.16260293 0.60334927 0.0005216971 3960394
0.14883152 0.5822435 0.010377914 6643759
0.15278482 0.59337211 0.0046242103 9145175
0.15542744 0.59357834 0.0048957542 9276502
0.15816274 0.59929991 0.0011444427 3829065
0.1451405 0.5812372 0.009593185 6116892
0.15037027 0.58993149 0.0040176958 7037476
0.15192997 0.5947051 0.00088190287 3827517
0.15483671 0.5971905 0.00064682215 3959877
0.14037937 0.57907921 0.007981725 6050075
0.14505722 0.58547145 0.0036149248 6180627
0.14656767 0.58935297 0.0037734434 6576413
0.14913648 0.59252173 -0.00010088459 3695672
0.13678807 0.5778231 0.0072071999 6444842
0.140425 0.58518565 0.0029722676 6509337
0.14645152 0.59184998 -8.6888671e-05 3957814
0.13919477 0.58217216 0.0024666116 7035693
0.1443332 0.58970928 -0.0018922687 4416819
0.13273633 0.57801461 0.0015646666 6970415
0.13620839 0.58216864 0.001704447 6970156
0.13938773 0.58923906 -0.0025140308 4547629
0.12953147 0.57806778 0.00089750439 6970160
0.13686933 0.58627993 -0.0035414994 6452017
0.13265295 0.58441222 -0.0045995414 7043382
0.12813976 0.5829975 -0.0058737434 7568701
0.12550369 0.58226281 -0.0059200004 7765568
0.38648412 0.76847726 0.012685578 5677413
0.38912964 0.776025 0.0096907839 6659675
0.39069548 0.77881813 0.0086266026 6593110
0.39317095 0.78014624 0.0066524744 7049293
0.3947905 0.78243768 0.0055201277 8689740
0.38120246 0.76366287 0.013092596 5217132
0.38263676 0.76694602 0.012819208 5874797
0.38396662 0.768125 0.01299965 5873765
0.38473207 0.77274913 0.01094991 6464617
0.38726056 0.77412677 0.010154944 6463585
0.39048457 0.77779531 0.0076994635 6460492
0.38958958 0.78087896 0.0047497787 6201439
0.39159495 0.78326184 0.0033101514 6200923
0.37534714 0.76050359 0.014069371 5545832
0.37805161 0.76261276 0.013786491 5544808
0.37874287 0.76561624 0.01295349 5743723
0.3859151 0.77808857 0.0061717853 5873501
0.38747752 0.77917153 0.0056465492 6070367
0.37183303 0.75581557 0.014010403 5677934
0.37257931 0.75849777 0.013916507 5413736
0.3782838 0.77097505 0.0070714168 5479003
0.38162598 0.77238309 0.0066565759 5413724
0.36521581 0.75108093 0.014244948 5414502
0.36754185 0.75334138 0.013773363 5083747
0.3684358 0.75655955 0.013681967 5414246
0.37322658 0.76554292 0.0073106177 5544539
0.37654728 0.76670206 0.0068894327 5544798
0.36133519 0.74894041 0.014490068 5215843
0.36342472 0.75179106 0.0141223 5216099
0.36541572 0.75494051 0.014191654 5546344
0.37004641 0.76132417 0.00714349 5018458
0.37071365 0.76476985 0.0075700097 5281625
0.35669309 0.74549854 0.014812384 5281895
0.35816261 0.74699533 0.014387511 4952671
0.36508599 0.76026577 0.0072065033 5018195
0.36780322 0.76032376 0.0075275339 5018199
0.35179144 0.74130219 0.014882535 5282149
0.3537339 0.74188167 0.014970057 5017951
0.35446739 0.74508131 0.015099145 5479016
0.36039743 0.75451303 0.0077478439 4952155
0.36269331 0.75520241 0.0075652488 5017689
0.34702405 0.73706239 0.015024137 4886626
0.34921432 0.73742968 0.014843486 5216358
0.34959447 0.74146324 0.01483785 5084000
0.35513976 0.7495479 0.0076682456 4886101
0.35765302 0.75468045 0.0073350482 4951897
0.3427425 0.73498076 0.015241586 4952673
0.34460068 0.7368319 0.014955763 4886883
0.35237497 0.74941272 0.0073892139 4820306
0.3381297 0.72866571 0.014994614 5281380
0.34018019 0.73261213 0.014971256 4820319
0.34716716 0.74441737 0.0075475909 4951129
0.3494916 0.74474114 0.0074384175 4885335
0.34960878 0.74941766 0.0071284957 4754517
0.33497378 0.72791737 0.015286706 5084259
0.33629429 0.73016757 0.015087385 4687707
0.33777243 0.73239666 0.014789376 5084771
0.34200978 0.73921889 0.007627327 4950869
0.34492022 0.74366492 0.007669799 4885336
0.33044714 0.72379971 0.015330505 4754019
0.33201182 0.72467226 0.014777862 4754272
0.33281282 0.72889936 0.014414512 4687454
0.3372958 0.73791075 0.007985089 4753494
0.33946961 0.73867136 0.0077951439 4950872
0.32664549 0.72069591 0.014490038 4754014
0.32725242 0.72410691 0.014903758 4754017
0.3346785 0.73325968 0.0078970827 4490579
0.3205741 0.71346843 0.016940128 5017181
0.32154661 0.71586126 0.01506643 4753243
0.32178319 0.72055829 0.014334805 4687965
0.32375151 0.72124624 0.014136549 4753760
0.32863998 0.72861099 0.0075170062 4555602
0.3302303 0.73290008 0.0075637288 4490067
0.31278807 0.70741755 0.01842843 5148514
0.31630656 0.71215457 0.015732482 4819037
0.31731424 0.71414548 0.016406193 5082975
0.31900173 0.71655953 0.014427539 4554584
0.32604867 0.72823399 0.0074651279 4555347
0.30996913 0.70773339 0.017966211 5082978
0.31156057 0.71164274 0.014349055 4685655
0.31371409 0.71210045 0.01429278 4620374
0.31618953 0.71634692 0.014190674 4554584
0.32014883 0.72406501 0.0066969432 4489552
0.32263753 0.72744358 0.0075110272 4489811
0.30923522 0.70713246 0.014848433 4751445
0.31371823 0.71614391 0.0084190592 4226128
0.31576648 0.72158271 0.0078861117 4489552
0.31766671 0.72281832 0.0073097795 4555089
0.30279723 0.70159519 0.01523716 4750679
0.3043597 0.70267814 0.014711969 4685400
0.30499956 0.707277 0.014492828 4619860
0.31120148 0.71561867 0.0084166341 4357455
0.29897889 0.70228374 0.014569491 4685142
0.30477694 0.70902461 0.009256091 4422992
0.30648759 0.71431071 0.0087743625 4423247
0.30868328 0.7152338 0.0084324777 4423248
0.29504269 0.69752461 0.014933031 4684628
0.29966885 0.70812261 0.0092018135 4554067
0.3025285 0.70841241 0.009396486 4488530
0.29028806 0.69408339 0.014417354 4684372
0.29290795 0.6940946 0.014542628 4750164
0.29693094 0.70340228 0.0090881586 4553804
0.32810163 0.75412786 -0.019880623 4950875
0.28676218 0.69065434 0.014913835 4552785
0.28818583 0.69345516 0.014693238 4618581
0.29167181 0.69857764 0.0090267882 4356685
0.29325187 0.70271516 0.0091403201 4553805
0.32551682 0.75322264 -0.019707285 4819545
0.28148189 0.68552834 0.014790487 4355919
0.28267518 0.68947357 0.014708132 4618322
0.28847352 0.69726115 0.0092972666 4487758
0.27498531 0.68002158 0.015762854 4420687
0.27694812 0.6835531 0.015907958 4420945
0.27821827 0.68466806 0.015111916 4421203
0.28221712 0.69165474 0.0094080195 4421454
0.28454018 0.69211876 0.0093170516 4356172
0.28473431 0.69653952 0.0093366615 4356430
0.27219811 0.67895263 0.016357094 4420686
0.27723476 0.69043386 0.0096229054 4355657
0.27974641 0.69134712 0.0093817264 4421453
0.30999821 0.74173635 -0.019815944 4490584
0.26414949 0.67242795 0.017629698 4288847
0.26541805 0.67368311 0.016851775 4223567
0.26765364 0.6751793 0.015944131 4223569
0.27517304 0.68689311 0.0089928992 4420940
0.2601018 0.66959 0.016643584 4288847
0.26271796 0.67069018 0.015794992 4354639
0.26878643 0.68202633 0.0088890605 4289610
0.27168164 0.68578148 0.0093088374 4289612
0.25728104 0.66568661 0.016273394 4354126
0.26447642 0.67950362 0.0098477565 4223817
0.26625305 0.68095046 0.0092822015 4289608
0.29629666 0.72873217 -0.018523553 4292948
0.25169656 0.66168052 0.015922457 4222799
0.25500703 0.66515964 0.016304027 4419662
0.25900555 0.67420715 0.010106839 4091976
0.26136398 0.6756649 0.0095048361 4223562
0.29230693 0.72934932 -0.019752948 4227156
0.24895591 0.66160011 0.015771464 4288333
0.25549549 0.66925341 0.010356281 4091719
0.25638846 0.67391557 0.009945076 4157768
0.28469071 0.71767354 -0.015571907 4029523
0.28776079 0.72382843 -0.019338001 4292431
0.28986007 0.72473717 -0.019577488 4292436
0.29023182 0.72849548 -0.019385461 4161107
0.24241708 0.65646923 0.016317271 4222538
0.24477361 0.65794814 0.015277103 4288331
0.24936855 0.66400808 0.010444015 4288329
0.25184092 0.66853482 0.010378279 4288839
0.28144711 0.71622455 -0.017852088 4094802
0.2839092 0.72152758 -0.018404823 4160852
0.28583503 0.72267801 -0.018871441 4161105
0.24010636 0.65347487 0.015578076 4287820
0.24687356 0.66364545 0.010289647 4288331
0.27920011 0.71547204 -0.017729843 4160593
0.23598142 0.64835274 0.016250037 4287564
0.24082226 0.65819788 0.01056689 4156742
0.243866 0.66351187 0.0099776462 4222538
0.2711302 0.70672399 -0.015812026 4159823
0.27300879 0.71215647 -0.016310232 4160082
0.22862941 0.64246911 0.017584682 3827784
0.22992137 0.64374667 0.016636625 3959370
0.23095563 0.64775056 0.016363993 4287818
0.23467585 0.65259594 0.010928314 4287558
0.23677455 0.65783155 0.010316797 4156485
0.26705095 0.70595717 -0.01600147 4094029
0.22556312 0.63884795 0.017217897 4090699
0.2254253 0.64255476 0.017215732 4024647
0.23064782 0.65081728 0.011670783 4222024
0.2326009 0.6517421 0.011295848 4287559
0.26211569 0.70045412 -0.015754879 3962445
0.21854426 0.63164979 0.019365665 4091465
0.21974574 0.6367116 0.018373393 4090443
0.22197792 0.63847196 0.01735311 4090699
0.22792363 0.64692819 0.011198089 3959108
0.22800903 0.65036303 0.011660941 4090437
0.25437617 0.69142705 -0.013857897 4093264
0.25656724 0.69532871 -0.013250956 4159313
0.25694132 0.69819039 -0.014939358 4027983
0.25852561 0.69943583 -0.015616547 4027983
0.21298239 0.62783891 0.019160941 4025165
0.21381679 0.63308108 0.017848261 3959370
0.22421405 0.64578694 0.011450872 4090694
0.25009 0.69072801 -0.014037427 4224334
0.20659138 0.62255156 0.019824088 4090700
0.20877801 0.62658226 0.019712768 4090957
0.21088012 0.62721056 0.01943684 4156492
0.21706927 0.63955986 0.012151696 4222536
0.2202238 0.64128977 0.011165604 4156742
0.24735242 0.69036722 -0.014224766 4224336
0.20210811 0.6180042 0.020434275 4156749
0.20380177 0.62253416 0.019733422 4025164
0.21208285 0.63431376 0.012336824 4025673
0.24304977 0.68561566 -0.014498018 4092234
0.19627938 0.61245769 0.021492928 4025936
0.19723965 0.61738092 0.020449389 4025422
0.19929425 0.61793196 0.020215578 4090956
0.20489594 0.62678009 0.014035601 4025931
0.20776865 0.63391054 0.012074847 4025672
0.23426516 0.67676014 -0.012633575 4157257
0.23622482 0.67894191 -0.013900222 4091721
0.23899116 0.68072218 -0.014756542 4026445
0.19305147 0.6116634 0.021857318 3894348
0.20213267 0.62650454 0.013738416 3960397
0.23243937 0.67537624 -0.012007702 4222795
0.18828255 0.60756391 0.022017162 4025933
0.19563217 0.62019902 0.014546521 4157518
0.19780606 0.62095946 0.014356591 4091723
0.1991252 0.62637103 0.013426397 3960395
0.22701809 0.66984403 -0.01212541 4222533
0.22882412 0.67264032 -0.013743773 4157001
0.18489487 0.60689849 0.022200212 3829322
0.19117576 0.61522079 0.014633745 4223308
0.19306636 0.61973685 0.014604419 4157516
0.21883209 0.65892351 -0.0088634025 4156491
0.21965306 0.66106838 -0.0099383667 4156748
0.21976298 0.66359645 -0.011824306 4156746
0.22259419 0.6642521 -0.011702951 4156489
0.22293204 0.67044681 -0.01325235 4222278
0.18017092 0.60125089 0.02028235 4156224
0.18069699 0.60432464 0.020816844 3960393
0.18279923 0.60495293 0.020540979 4026187
0.18599978 0.61393857 0.014755294 4157516
0.1891225 0.61452949 0.014849335 4157772
0.21590151 0.65853405 -0.0088459402 4156488
0.1756378 0.59975499 0.019905586 3432243
0.17784636 0.60092717 0.020391569 4090174
0.18403675 0.61030442 0.014302805 4223048
0.2117212 0.65625161 -0.011099342 4287561
0.1728633 0.5990901 0.01876241 2971692
0.17939879 0.60831338 0.013611637 3761987
0.20332149 0.64676869 -0.0087650102 4221769
0.2059741 0.65409595 -0.010612518 4221770
0.20819406 0.65507394 -0.010826368 4221771
0.17059517 0.59741873 0.017174333 3364650
0.17571586 0.60663849 0.013034027 2972467
0.19984363 0.64554435 -0.008403277 4090440
0.16778471 0.59668767 0.015988119 4218665
0.17322695 0.60542321 0.012033992 2840099
0.1915106 0.63302737 -0.0038432255 4090694
0.19300298 0.63740838 -0.0067068078 4156233
0.1941442 0.63912272 -0.0077357143 4156231
0.16434111 0.59527522 0.015330866 5335855
0.1709829 0.60409844 0.011346839 3233307
0.1898817 0.63667732 -0.0068190321 4155976
0.16026098 0.59389234 0.013297435 6978880
0.16273172 0.59419996 0.01332365 6782014
0.16692975 0.60238731 0.0090976954 5467176
0.1805062 0.6258204 -0.003594134 4090952
0.1837334 0.63064969 -0.0051033944 4025159
0.18675709 0.63186717 -0.0068211965 4024903
0.15774274 0.59350741 0.013313182 7241543
0.16290127 0.60055822 0.0066601261 6978112
0.17214905 0.61503381 -0.00027930364 3959883
0.17299631 0.61692065 -0.001560837 3894089
0.17462666 0.61838359 -0.0022618622 3959882
0.17685831 0.62457359 -0.0033467114 4025159
0.18091016 0.62817609 -0.0052274652 4025413
0.15567274 0.59147644 0.011763938 8095048
0.15987045 0.60040236 0.0065182671 7503684
0.16679129 0.61109149 0.0016421713 3894349
0.1694399 0.61430728 -0.00039324537 3960137
0.15098432 0.58929408 0.010071009 8817239
0.15239401 0.59171039 0.011345536 8094795
0.15651228 0.59664053 0.005564101 8817485
0.1566911 0.60037023 0.0059609488 7831877
0.1611868 0.60303926 0.0033427104 4091724
0.16146865 0.60546595 0.0017020553 4025931
0.16393286 0.60630196 0.0015030466 4025931
0.16414303 0.60859638 -0.00022361428 4091724
0.1665584 0.61385483 -0.00043605268 3894602
0.14718397 0.58455658 0.011102412 8421196
0.14880839 0.58884668 0.010595664 8685906
0.15387344 0.59618634 0.0055543222 8883025
0.15808585 0.60261095 0.0030967668 4091724
0.14266446 0.58255339 0.0096913427 6314274
0.14350957 0.5853368 0.010290153 8421457
0.15012638 0.59472471 0.0047020689 8948050
0.1529924 0.59972292 0.0013144463 3960648
0.15540901 0.60048163 0.0011574961 4026187
0.14004751 0.58226174 0.0095295608 6116889
0.14425263 0.59048653 0.004192885 7300907
0.14682254 0.59279418 0.0042015985 8749898
0.14771062 0.59470302 0.0011067986 3762239
0.14875028 0.59758019 0.0020973459 3894598
0.15045533 0.59889489 0.0014458038 3829063
0.13548347 0.5799008 0.0081241541 5852699
0.137802 0.58107734 0.0088606142 5918998
0.14126424 0.58852994 0.003643997 6181138
0.14341724 0.59273094 0.0016700476 3826742
0.14522094 0.5939523 0.0011960939 3892795
0.13355595 0.57810175 0.0064483956 6444584
0.1371735 0.58519411 0.0026455373 6509337
0.13806306 0.58833522 0.0032386295 6115342
0.14283583 0.59175825 -0.00077047199 4089399
0.1293482 0.57795054 0.0061753951 6510376
0.13305846 0.58180332 0.0015187785 6969904
0.13416746 0.58492029 0.0023152344 6575136
0.13846436 0.59103996 -0.0010817274 4154669
0.13044512 0.58126378 0.0016188547 6904368
0.13143359 0.58431166 0.0023896843 6772776
0.13478239 0.58881408 -0.0029068738 5204526
0.12751234 0.58098197 0.0013562925 6904368
0.13037483 0.58545542 -0.0043044724 6846260
0.13092379 0.5887242 -0.0036236197 5204525
0.12391453 0.57714683 0.00094739348 7035954
0.1268834 0.58518517 -0.0047007352 6911795
0.12265836 0.57926631 -0.0039414167 8092738
0.12323485 0.58134782 -0.0056458227 7765311
0.12461613 0.58412981 -0.0044447556 7239989
0.11889625 0.57919079 -0.0047605596 7961150
0.11613835 0.57852709 -0.0048141889 8092476
0.38295233 0.77384883 0.011673205 6201185
0.38599205 0.77505112 0.010895919 6529377
0.37572327 0.76490563 0.014062606 5348453
0.37808385 0.76550096 0.014611028 5413478
0.37939453 0.76722157 0.013547525 5347687
0.38069913 0.77250791 0.011658534 6136164
0.38201192 0.77297169 0.010665208 6333544
0.38355657 0.776631 0.0067737214 5741920
0.38660294 0.78372514 0.0056547634 7045953
0.38889778 0.78541249 0.0049273148 8160320
0.37014085 0.759848 0.014396444 5676650
0.37169933 0.76224929 0.014425796 5545321
0.37375316 0.76415247 0.013664324 5480294
0.37812489 0.77156496 0.011299558 6136936
0.37881547 0.77554834 0.0070398822 5478745
0.38179731 0.77576727 0.0072420128 5610591
0.36548325 0.7556988 0.014946938 5281381
0.36722657 0.75791597 0.014213551 5479269
0.36741531 0.76064759 0.014333762 5150050
0.37378785 0.76978308 0.0076506734 5478746
0.37620878 0.77012122 0.0074389875 5479003
0.36167496 0.75351793 0.014961511 5545325
0.36272055 0.75525045 0.014333338 5281893
0.36493349 0.75902295 0.014015473 5874539
0.37039813 0.76829779 0.008107692 5412952
0.35876513 0.75097597 0.014258381 5215587
0.36002657 0.75313789 0.014186271 5281381
0.36597261 0.76368737 0.007836096 5149529
0.36824292 0.76446217 0.0075436719 5149786
0.35204414 0.74485099 0.01503069 5347685
0.35328457 0.74772412 0.014696546 5084258
0.35541156 0.7495333 0.014755365 5281380
0.35677058 0.75148994 0.014258351 5083228
0.36068934 0.75880772 0.0076466911 4820821
0.36221966 0.76089871 0.0078665502 5017943
0.36365107 0.7630831 0.0079088621 5215064
0.34798974 0.74085891 0.015243761 4819804
0.34947702 0.74547297 0.01470197 5083744
0.35146099 0.74686831 0.01427551 4886109
0.3552621 0.75383645 0.0076018684 4885849
0.35624385 0.75741261 0.0081473105 5017431
0.35831881 0.75826645 0.0077798069 4886358
0.34529483 0.74091691 0.014764614 4952929
0.34717193 0.74447554 0.014784057 5216103
0.35281849 0.75330323 0.0076672174 5017175
0.3394419 0.73587614 0.015220389 5017952
0.34210747 0.74068862 0.014709331 4755298
0.34790316 0.7503528 0.007752277 4754262
0.3506417 0.75282317 0.0078936629 4951636
0.33480775 0.73190367 0.015053004 4886108
0.33629161 0.73499662 0.015515633 4887396
0.33644241 0.73644775 0.014786609 4753754
0.34196258 0.74350101 0.0075956993 4885332
0.34244978 0.74771667 0.0075697228 4754007
0.34484586 0.74817264 0.0075465292 4754007
0.329862 0.72652459 0.015990138 4621915
0.33117068 0.72918767 0.014991291 4951904
0.33213758 0.73200923 0.014848005 4754526
0.33973974 0.74280334 0.0078459866 4819542
0.32487285 0.72336042 0.015243664 5018215
0.32527333 0.726753 0.015509091 5017958
0.32695705 0.72780079 0.014897943 4820323
0.33453107 0.73777556 0.0077061355 4753494
0.33697498 0.74266815 0.007567022 4753747
0.31905785 0.71864498 0.015943285 4952163
0.32064518 0.72043383 0.015475057 4819550
0.32209802 0.7240178 0.014626697 4819806
0.32476208 0.72437024 0.014597211 4490327
0.33061689 0.7374357 0.0075366348 4687446
0.31351659 0.7115826 0.017988138 5082208
0.31492275 0.71762818 0.016301002 5148770
0.31718737 0.71877491 0.015615925 4819036
0.32402283 0.73167664 0.0076985694 4555604
0.3263934 0.73221791 0.0075654909 4489809
0.30788875 0.7072677 0.018090181 5017185
0.3100279 0.7112211 0.018020965 5147743
0.31364268 0.71632773 0.014133092 4620376
0.3215279 0.731314 0.0075442083 4555603
0.31131816 0.71600395 0.014242239 4685912
0.31719083 0.72645891 0.0075170472 4358227
0.30258057 0.70587105 0.015240282 4619606
0.30648011 0.71241945 0.013725713 4620117
0.31122214 0.72028095 0.0082090795 4292178
0.31347212 0.72075289 0.0080504827 4423504
0.31339771 0.72526073 0.0079271719 4423760
0.29996341 0.7055794 0.015078451 4685142
0.30596775 0.71939486 0.0080194175 4357457
0.30863225 0.71976376 0.0081389882 4291922
0.29641306 0.70182151 0.014627356 4619092
0.29685965 0.70543152 0.014868982 4554068
0.30296791 0.71347845 0.0088587031 4357198
0.29083613 0.69731963 0.014799964 4619093
0.29193902 0.70079219 0.015054595 4619094
0.29271686 0.70243913 0.013967123 4684883
0.29754099 0.70757961 0.0093678907 4619600
0.29940456 0.71232116 0.0092468783 4422992
0.28647873 0.69660747 0.014991008 4618837
0.2883639 0.69715226 0.014791906 4553044
0.29297215 0.70715052 0.0090088099 4619341
0.28025195 0.6892432 0.014639832 4553043
0.28297538 0.69309968 0.014814205 4552782
0.28828883 0.70185089 0.0090814829 4487757
0.27787998 0.68884212 0.014791079 4486993
0.28241262 0.69593519 0.0094093457 4356428
0.28423864 0.70167857 0.0087096393 4422221
0.27327758 0.68408543 0.015357472 4289617
0.27560297 0.68859565 0.014858123 4421202
0.27742517 0.69510233 0.009380661 4355915
0.27964786 0.69580001 0.0091303885 4356172
0.30974358 0.74344355 -0.018157467 4556377
0.31009868 0.74586219 -0.019730467 4621912
0.31293297 0.75059676 -0.019719306 4556887
0.26630431 0.67792976 0.016620114 4354639
0.26872408 0.67926556 0.01586356 4354894
0.26938915 0.68281895 0.016010113 4289358
0.2706576 0.68407422 0.01523219 4355153
0.274813 0.6900633 0.0095362589 4355657
0.30706021 0.74263155 -0.018161595 4556117
0.25950348 0.67149997 0.017811589 4288592
0.26059863 0.67299682 0.016806647 4354384
0.26307642 0.67713553 0.016984466 4354896
0.26936021 0.68517727 0.0093815997 4289610
0.27068406 0.68942946 0.0094163045 4355402
0.30437323 0.74168938 -0.019358639 4555860
0.25533515 0.66859287 0.016799897 4223051
0.25758499 0.66906488 0.016641188 4223308
0.26711035 0.68470532 0.0095401928 4289609
0.29602626 0.73328626 -0.019020135 4358739
0.25172824 0.66539365 0.015885592 4288591
0.25193208 0.66900551 0.0160941 4288588
0.26158953 0.67943931 0.0095613636 4158027
0.26407573 0.68479735 0.0091366246 4355401
0.29326671 0.73276281 -0.019055599 4358482
0.24832968 0.66464704 0.016144656 4222541
0.25086015 0.66753095 0.01692887 4354127
0.25401658 0.67351454 0.010096382 4026440
0.25743464 0.67897725 0.0094897822 4223562
0.28425083 0.72222143 -0.0160338 4160849
0.28793752 0.72766572 -0.019221123 4226901
0.2900874 0.73273081 -0.019612901 4292695
0.24395414 0.66010886 0.016418286 4353867
0.24638487 0.66152608 0.01558581 4288076
0.25132638 0.67323095 0.0098669194 4223306
0.28354228 0.72606736 -0.018799059 4161104
0.28601158 0.72651523 -0.018754557 4226898
0.23950957 0.65826547 0.015978623 4222539
0.24641022 0.66817087 0.0099978894 4288329
0.24885534 0.6685639 0.0099144019 4354377
0.24895585 0.6726898 0.0099999197 4223050
0.27572253 0.71682197 -0.016324727 3963728
0.27836138 0.71727616 -0.016314887 4095059
0.27979136 0.71920621 -0.017334664 4094805
0.2352573 0.65444386 0.015687488 4222282
0.23649415 0.65663725 0.015645511 4353614
0.24139382 0.6633445 0.0099695995 4288072
0.2416451 0.66703349 0.010136001 4222794
0.24423625 0.66741043 0.010187835 4222794
0.2737287 0.71450245 -0.017842725 4029007
0.23248048 0.65136284 0.016400918 4156234
0.23315945 0.65310299 0.015135825 4156489
0.23709901 0.66151249 0.010550991 4288068
0.23924555 0.66249865 0.010269336 4288069
0.26479056 0.70789176 -0.014881693 4028492
0.26715812 0.70871335 -0.014978353 4094289
0.26859826 0.71163619 -0.016777132 4028751
0.22716507 0.64730221 0.016491033 4156234
0.23172298 0.65637076 0.010725781 4222278
0.23452619 0.65721929 0.010457344 4156487
0.23446384 0.66081047 0.010802977 4156484
0.26255885 0.70432836 -0.015626132 4027981
0.22120139 0.64271057 0.016775109 4090440
0.22369103 0.64761525 0.015997395 4156237
0.22559097 0.64974451 0.011836167 4024646
0.22857314 0.65516412 0.011252347 4287559
0.25816035 0.70383543 -0.016028956 4093520
0.21562596 0.63638574 0.018353961 4090696
0.21808468 0.64176404 0.017222822 4024906
0.22348793 0.64908367 0.01181379 4155975
0.25087637 0.6943832 -0.013567129 4093264
0.25253251 0.69576097 -0.014158288 4159056
0.25470129 0.70126897 -0.014665566 4159311
0.2556707 0.70308477 -0.015939701 4159312
0.20924626 0.6320374 0.01837793 3959373
0.2117403 0.63236749 0.018234015 4090701
0.21135591 0.63632393 0.017937057 4090442
0.21891055 0.64496386 0.01132144 4024904
0.22047906 0.64909035 0.011520036 4090693
0.24557418 0.68906045 -0.013641004 4158540
0.2048631 0.62631255 0.019552421 3959370
0.20597427 0.63006049 0.019609265 3893833
0.20714393 0.63140917 0.018653795 3959627
0.21297504 0.63904607 0.01193472 4091211
0.21434173 0.64453483 0.010962389 4156485
0.24215069 0.68917036 -0.014213115 4092490
0.19984245 0.6211682 0.020598318 4156492
0.20157613 0.62211716 0.020020176 3959370
0.20126639 0.62592548 0.019772731 4025165
0.20870566 0.63712889 0.01262591 4025416
0.21041073 0.63844371 0.011974432 4025419
0.23716578 0.68369764 -0.01420442 4091981
0.23946035 0.68452734 -0.014368709 4026442
0.23961361 0.68834239 -0.014081663 4026698
0.19389164 0.6156925 0.02164951 3894352
0.19508851 0.61681551 0.020785719 3960142
0.19573234 0.62097752 0.020362839 3893835
0.20308325 0.63223666 0.012505908 3959879
0.20562199 0.63292444 0.012356408 4025671
0.20562522 0.63700336 0.012246273 4025418
0.23460147 0.68309516 -0.014164761 4091723
0.18798989 0.61015385 0.022640504 3959887
0.18950492 0.6111595 0.022157382 3828812
0.19141938 0.61552519 0.021641433 3893837
0.1952706 0.62435061 0.014395915 4025930
