# .PCD v0.7 - Point Cloud Data file format
VERSION 0.7
FIELDS x y z rgba
SIZE 4 4 4 4
TYPE F F F U
COUNT 1 1 1 1
WIDTH 1142
HEIGHT 1
VIEWPOINT 0 0 0 1 0 0 0
POINTS 1142
DATA ascii
0.186611 0.51270491 0.019099392 4156487
0.18845782 0.51374424 0.019002728 4156488
0.19143215 0.51808399 0.020070236 3959883
0.19429848 0.51851034 0.020448387 4025416
0.19954915 0.52816993 0.019260764 3696454
0.20212837 0.53008592 0.018786609 3565381
0.20347109 0.53168434 0.018176865 3696708
0.26544333 0.60160524 0.01623686 3827261
0.26764935 0.60412532 0.016163785 3631172
0.26916397 0.60585552 0.016113587 3631428
0.28106517 0.61935174 0.015645143 3959615
0.28257987 0.62108195 0.015594947 3894341
0.28371534 0.62465614 0.017264083 3566158
0.28595424 0.62721366 0.01718992 3632464
0.28816026 0.6297338 0.017116897 3894096
0.29043218 0.63232911 0.017041575 4157506
0.29188091 0.63398415 0.016993627 4486471
0.29411986 0.63654172 0.016919475 4551513
0.29635882 0.6390993 0.016845282 3960407
0.29787332 0.6408295 0.016795084 4026200
0.30002144 0.6433984 0.01665682 4026195
0.31874281 0.66203594 0.016583953 4160072
0.32011998 0.66545069 0.015464506 3963716
0.32131752 0.66622257 0.014057436 4424269
0.32483029 0.67003053 0.01762256 4160334
0.32645068 0.6716677 0.017561737 4226906
0.33084992 0.67748034 0.016165331 4423518
0.33651969 0.68341392 0.016030446 5013340
0.33818677 0.68524116 0.014766824 5014107
0.33976078 0.68668807 0.015908983 5012084
0.34173363 0.69044507 0.015538733 4881770
0.34439686 0.69140869 0.016090959 4162669
0.34800375 0.6962229 0.013653836 4685930
0.34988248 0.69963115 0.014460911 6780494
0.35253984 0.70121455 0.013284539 6387797
0.35299891 0.70391697 0.014901838 8549945
0.35527071 0.70651221 0.014826491 8942415
0.18364452 0.5126245 0.018456101 4090436
0.18866408 0.51744038 0.0197488 4025676
0.1951734 0.52504182 0.019964252 3762503
0.1967224 0.52620131 0.019608997 3762502
0.21038575 0.5424701 0.016660288 3761986
0.28346479 0.62745923 0.014679502 3435077
0.28502727 0.62914515 0.014553518 3435334
0.28803107 0.62997466 0.014651564 3829577
0.29461384 0.63986367 0.013448066 4159821
0.29637039 0.64124405 0.013227203 4028494
0.29938376 0.64445633 0.013261662 3830846
0.30100432 0.64609337 0.01320088 4093760
0.3021329 0.64875466 0.01526584 3699808
0.30483899 0.65037453 0.012999614 4028752
0.30741856 0.65277022 0.013037859 3896654
0.308669 0.65549421 0.01407482 3962954
0.31122833 0.65784198 0.014141128 3963463
0.31200477 0.65963608 0.014641966 4094008
0.31442669 0.66256136 0.01442524 4160337
0.31674257 0.66437155 0.013824292 4358484
0.31929114 0.66507709 0.014234145 4292689
0.32244816 0.67293054 0.013631984 4424531
0.32431838 0.67434227 0.013333227 4424787
0.32686973 0.67539859 0.01446382 4292948
0.32869315 0.67678994 0.01434509 4358745
0.33245119 0.68258858 0.013738501 4819030
0.33590159 0.68428183 0.013549776 4950356
0.33760172 0.69050622 0.01363523 4883021
0.34060383 0.69261444 0.011931618 4817996
0.34284601 0.69410473 0.011821829 4752206
0.34423336 0.69566679 0.012448967 4947792
0.34634414 0.69806612 0.011066521 5276235
0.17903006 0.51034313 0.015941788 2840111
0.18107025 0.51184535 0.017017029 3432505
0.19109635 0.52226979 0.016757146 3631686
0.19261107 0.52400005 0.016707044 3566150
0.20436226 0.53911358 0.01704751 3827780
0.20695019 0.54108924 0.016610142 3761988
0.21250232 0.54884762 0.016260341 3630405
0.21396112 0.5503481 0.015780978 3630404
0.21683307 0.55214626 0.015494897 3630146
0.21920313 0.55437464 0.014903915 3695937
0.22055373 0.55609715 0.014226793 3695938
0.22669937 0.56374389 0.014185782 3958601
0.22778599 0.56595409 0.013188972 3958599
0.23416641 0.57307047 0.01417758 3433283
0.23742025 0.57498926 0.015074193 3301963
0.23893483 0.57671958 0.015024037 3564600
0.24087772 0.57974464 0.014489857 3499327
0.24287021 0.58195406 0.014066962 3500101
0.24486144 0.58348989 0.01482769 3564364
0.24637607 0.5852201 0.014777488 3498572
0.24839792 0.58852726 0.014128889 3761477
0.25064096 0.59043628 0.013973844 3761729
0.25236866 0.59206539 0.01457901 3695418
0.25462261 0.59454143 0.014430077 3893054
0.25615561 0.59736723 0.01375291 3828292
0.25864562 0.59891373 0.013899346 3828032
0.25997397 0.60218561 0.014019788 3499832
0.26049665 0.60511917 0.013299777 3566146
0.26347959 0.60682178 0.013073509 3566147
0.26679239 0.60811186 0.01316491 3697990
0.26881343 0.6107524 0.013960036 3631423
0.27007163 0.61340737 0.013604072 3895112
0.27248493 0.61545551 0.013453356 3763524
0.27455243 0.61753708 0.013174676 3960386
0.27625486 0.6192528 0.013713515 4156474
0.27728122 0.62186527 0.013301655 3894853
0.27967492 0.62454069 0.012794894 3830602
0.28257048 0.63084608 0.01279826 3830860
0.28564283 0.63083351 0.01343093 3765322
0.28852832 0.63348114 0.013053698 3765068
0.28932601 0.63754135 0.012115004 3961412
0.29169986 0.63828784 0.013247973 4027727
0.29509416 0.64325738 0.0120369 3305519
0.2963571 0.64582169 0.012528639 3831618
0.29957479 0.64767957 0.013283978 4029008
0.30259749 0.64921415 0.013049343 4029005
0.30433571 0.65539879 0.012918002 4160845
0.32024765 0.67193186 0.013613191 4490067
0.32577783 0.67937952 0.011055969 4621136
0.3290033 0.68149662 0.011819144 4621397
0.33225891 0.68288088 0.011137472 4490320
0.33440995 0.6897862 0.011639087 4818517
0.33676076 0.69026607 0.012055563 4752721
0.33865264 0.69240284 0.012204919 4817739
0.34081408 0.69430494 0.012398221 5144903
0.34651282 0.69911546 0.011089239 5995067
0.34725142 0.70161909 0.0097012706 5603399
0.35038942 0.70421839 0.010699484 6190410
0.35013297 0.7072174 0.010107704 8090711
0.35208353 0.70829237 0.0097921612 8483920
0.35885501 0.7153852 0.0095465677 10057301
0.36034474 0.71798068 0.011087163 10254672
0.17373438 0.50894064 0.014001465 3364130
0.17691875 0.50979203 0.015718643 2708268
0.18098298 0.51736271 0.014404298 3565366
0.18322189 0.51992035 0.014330116 3828800
0.18669529 0.52333236 0.013747546 3828806
0.18855153 0.52642071 0.014309068 3894342
0.19092737 0.52793288 0.014403352 3828808
0.19227187 0.5299781 0.013973794 3631940
0.19458535 0.53176504 0.014022465 3631684
0.19689342 0.53363252 0.013625001 3697222
0.19820309 0.53703392 0.013833837 3565126
0.20047501 0.53962946 0.013758543 3499846
0.20198956 0.5413596 0.013708408 3434053
0.20343834 0.54301441 0.013660389 3302723
0.20616323 0.54580253 0.013275654 3564609
0.20826413 0.54800653 0.012880479 3761216
0.21100311 0.54964352 0.012208369 3827520
0.21197799 0.55169433 0.011497803 3696191
0.2183536 0.55923343 0.014699581 3827270
0.21921049 0.56151056 0.013650321 3827269
0.22213128 0.56306857 0.013447267 3826504
0.22373584 0.56610167 0.012913792 3103551
0.22594178 0.56862205 0.012840663 3499329
0.22747353 0.57021636 0.013210447 3367494
0.23039167 0.57169783 0.013336145 3564615
0.23377386 0.57783133 0.012164472 3301964
0.23483093 0.57971573 0.012790198 3958854
0.2371795 0.58032441 0.012998347 3958855
0.24002479 0.58363688 0.011416615 3302464
0.2416037 0.58620018 0.012240652 3499331
0.24341466 0.58841854 0.012753072 3893319
0.245607 0.58929342 0.012839166 3893574
0.2503283 0.59501797 0.013544937 3828296
0.25225776 0.59736019 0.012740812 3893827
0.25687751 0.60245132 0.013751854 3631680
0.25813967 0.60457671 0.010540989 3763012
0.26048818 0.60652846 0.011219178 3631168
0.26241297 0.60885251 0.011939869 3893048
0.26418072 0.61111289 0.012598443 3828545
0.26635456 0.61288106 0.013141108 3960905
0.26632246 0.6149624 0.010588073 3697987
0.26969793 0.61768246 0.010698632 3632452
0.27223179 0.62002516 0.010584556 3763522
0.27396157 0.62239969 0.011746362 3829829
0.27522901 0.62457716 0.010487292 3829313
0.27769208 0.6245777 0.011518297 3829313
0.27980244 0.62921613 0.011699531 3698762
0.2831085 0.63005602 0.010960684 3961418
0.28701481 0.63768166 0.01136155 3896393
0.28914118 0.64007264 0.011313471 3962186
0.29236895 0.64242256 0.010996884 4027971
0.294258 0.64420837 0.010425434 3962186
0.29617226 0.64598268 0.010206504 3962443
0.30343845 0.65564317 0.010294584 4029003
0.30620295 0.6580677 0.010036819 4094795
0.3085773 0.65891993 0.010251185 4160585
0.30843073 0.664105 0.010433394 4160586
0.31125888 0.66457099 0.011028263 4095052
0.31239921 0.66713965 0.010252209 4160844
0.31586942 0.66882366 0.010345471 4160844
0.31884781 0.67093354 0.010274892 4161357
0.32044357 0.6779108 0.010250952 4424015
0.32266188 0.67902893 0.010343337 4424271
0.34731331 0.70515519 0.0082062371 5864000
0.34732378 0.70753109 0.0094663417 7566419
0.3514781 0.70853746 0.0091339219 7108156
0.3539269 0.71111244 0.0091163944 8484656
0.35358545 0.71493018 0.0089833094 9794635
0.35575038 0.71569008 0.0088549675 9992265
0.16845107 0.50740451 0.012410362 4875294
0.17120348 0.50779998 0.012866574 4349729
0.18045826 0.52080786 0.011931334 3893312
0.18299867 0.52138925 0.012408735 4090689
0.18537298 0.52224171 0.012623142 4091207
0.18726517 0.52620131 0.013754823 3763015
0.18981005 0.52861321 0.013299468 3566151
0.19013613 0.53214437 0.011974628 3566146
0.19176678 0.53377658 0.012054926 3631939
0.19419767 0.53623223 0.011963794 3631686
0.1974633 0.5388453 0.012705062 3565380
0.19914919 0.54087734 0.012191702 3499587
0.20118216 0.54178602 0.013212468 3630914
0.20300458 0.54324174 0.01298949 3630913
0.20427512 0.54530078 0.012329162 3630656
0.2169334 0.56095093 0.010424368 3564094
0.21855479 0.56371725 0.01036543 3827008
0.22032948 0.56521696 0.010218279 3892801
0.22210382 0.56671691 0.01007107 3827008
0.22399214 0.56824774 0.0098459003 3761472
0.23011084 0.57713312 0.010450787 3433019
0.23211975 0.57776475 0.010364603 3827264
0.23501915 0.58015037 0.010545149 3564609
0.23861036 0.58618528 0.010750299 3696447
0.2401627 0.5878759 0.010483422 3564866
0.24224235 0.58889997 0.010015131 3564865
0.2450109 0.5910297 0.010030912 3565118
0.24720493 0.59364587 0.0094654458 3828288
0.24882162 0.59624457 0.010358847 3499578
0.25020206 0.59834731 0.0099404296 3499833
0.25172243 0.60127932 0.010248815 3500093
0.25451899 0.6029644 0.010673653 3631168
0.25658464 0.60555154 0.01096724 3368248
0.25820526 0.60718858 0.010906518 3499576
0.25945413 0.61113369 0.010452139 3368763
0.26153213 0.61276627 0.010287778 3500606
0.26433885 0.61377507 0.010618494 3697219
0.26536164 0.61697483 0.0097298538 3827776
0.26698223 0.61861199 0.0096690832 3631685
0.27173701 0.62470424 0.010313728 3764293
0.27437472 0.62585753 0.010519305 3764547
0.27625507 0.62726444 0.010361577 3764803
0.28429458 0.636994 0.010964446 3896134
0.29725581 0.65339541 0.009736794 4028235
0.29963028 0.65424758 0.009951123 4028746
0.34600568 0.70924276 0.0057865139 6977840
0.34787706 0.71058995 0.0055919634 6846776
0.16664663 0.50546986 0.010417487 6846525
0.17461698 0.51668084 0.0095849037 2576934
0.17802106 0.51831412 0.010972055 2840879
0.18159589 0.52287596 0.0098622506 3236665
0.19982721 0.5441975 0.0096293306 3302980
0.20146558 0.54595423 0.0096421158 3368518
0.20308633 0.54759127 0.0095813638 3565127
0.20554589 0.55002266 0.0095227752 3630659
0.20769615 0.55268717 0.010451498 3629885
0.20920184 0.55460572 0.0097580757 3630144
0.2115864 0.55653256 0.0091324663 3630401
0.21311161 0.55931097 0.0092581287 3695424
0.21467519 0.56094968 0.010974635 3563838
0.21720117 0.56440383 0.0099876747 3563321
0.21887331 0.56682515 0.0079632113 3366730
0.22264956 0.57287228 0.0095979199 3433274
0.22427009 0.57450938 0.009537125 3104576
0.22655118 0.57522857 0.0099900533 3564352
0.22746296 0.57782775 0.009491317 3170359
0.23587421 0.58524936 0.010487888 3761726
0.23446073 0.58656007 0.0084328987 3564607
0.2451449 0.596268 0.010194977 3630912
0.24671775 0.59794903 0.010209952 3564610
0.24833816 0.59958625 0.010149202 3433537
0.34923592 0.71316093 0.0046231458 8091700
0.35051236 0.71547282 0.0036870628 8616494
0.15286788 0.49367529 0.0083093932 7366705
0.15344448 0.49679047 0.0093645798 8749904
0.15563709 0.49766532 0.0094507672 8750158
0.15846713 0.4993661 0.0091289533 8553548
0.16035399 0.50230438 0.0092696911 8028233
0.16165158 0.50437278 0.0097425748 7371584
0.16378626 0.50529647 0.0097635528 7174715
0.1714751 0.51608711 0.008866122 2773528
0.17422651 0.51950854 0.0082167843 2838828
0.17666318 0.5222919 0.0081360694 2642996
0.34767327 0.71594983 0.0031950874 6846770
0.34954366 0.71736121 0.0028963243 7240246
0.14443845 0.48772228 0.0069727069 5982997
0.14637381 0.49124587 0.0081222346 6049555
0.14727296 0.49322593 0.0072728703 6312738
0.15012349 0.49340385 0.0077858744 6971179
0.16681476 0.5135715 0.0060636569 5597737
0.16894449 0.5155009 0.0085297655 3495964
0.17369965 0.52114415 0.0074572144 2774059
0.1310551 0.47598484 0.0050156876 6641459
0.13666815 0.48382077 0.004593221 6641452
0.13833252 0.48557585 0.0053489283 6509605
0.13971712 0.48757082 0.0059196074 6246430
0.1567533 0.50525123 0.004480605 8947527
0.15946747 0.51133436 0.005092375 7436858
0.16166811 0.51233315 0.0051111495 7108666
0.16443019 0.51272392 0.005708294 6451510
0.16755457 0.51718366 0.0062725516 3889720
0.16906905 0.51891392 0.0062223738 3494963
0.17071664 0.52043098 0.0051272772 2969891
0.12729754 0.47474641 0.0047448245 6641202
0.13381769 0.48364225 0.0040803007 6707246
0.14455387 0.49547619 0.0027883365 5522176
0.14700076 0.49771076 0.0024404549 5653763
0.14845416 0.49983251 0.00258487 5588480
0.15068962 0.50280774 0.0030567506 8155675
0.15272124 0.5040257 0.0032366114 8945196
0.15451245 0.50675327 0.0023842081 9143865
0.15678427 0.50934863 0.0023089512 8816193
0.15829894 0.51107866 0.0022588186 8618813
0.16060364 0.51371163 0.0021823961 7633980
0.16290843 0.51634449 0.0021060454 6319926
0.16442303 0.51807475 0.0020559174 5398823
0.16732192 0.51915741 0.0031273845 4480296
0.12546273 0.47585183 0.0012234836 8023584
0.12697721 0.4775821 0.0011732662 7102482
0.13128723 0.48305604 0.0037439982 6706734
0.1411802 0.49507758 0.0018088249 5981968
0.1434487 0.49602294 0.0020337533 5785100
0.145493 0.49728787 0.0019306312 5850887
0.14868012 0.50162178 0.0023444323 6839573
0.15082556 0.50257146 0.0013015587 6509833
0.15254299 0.50970393 0.0011321486 8947006
0.15418144 0.51146042 0.0011450478 8685123
0.15580188 0.51309752 0.0010842769 8487744
0.15887573 0.51493829 0.001494586 7633983
0.16188364 0.51670438 0.0019070744 6451770
0.16352192 0.51846093 0.0019198726 5662252
0.12261661 0.47526658 0.00055494113 7495729
0.13696204 0.49396214 0.001042685 6376731
0.35061812 0.65534514 0.044421803 3365466
0.3543548 0.65974832 0.045472842 3628635
0.35771784 0.6646266 0.044757318 3431512
0.37061587 0.67843693 0.043944865 3562583
0.37192276 0.67994612 0.043760281 3431261
0.3766191 0.68433952 0.04364337 3364954
0.35180277 0.65851158 0.044974614 3431514
0.35444254 0.66177344 0.044611506 3497051
0.35454842 0.66391772 0.043823883 3431512
0.35897109 0.66736525 0.044085309 3431510
0.361395 0.66963243 0.044165745 3299928
0.36363104 0.6719889 0.043943241 3431515
0.36506188 0.67464316 0.043433107 3497309
0.36778072 0.67658901 0.043623716 3431259
0.37272036 0.68176156 0.043338258 3431261
0.37443891 0.68318146 0.043334305 3431003
0.37718055 0.68740714 0.042605747 3430490
0.376573 0.69081765 0.041024156 3627349
0.37459433 0.69395322 0.03899876 3692115
0.37813792 0.69833916 0.035913628 3755856
0.37512198 0.70196807 0.033339821 4148558
0.37511554 0.70539105 0.031999685 5000519
0.37677231 0.7079165 0.031575557 5656391
0.37810102 0.71072584 0.03104239 5918792
0.38119867 0.71254486 0.03141477 6049867
0.38224354 0.71441317 0.031118836 6049867
0.38432792 0.71670347 0.030904867 6049868
0.19289695 0.51383239 0.027698345 3171427
0.19585735 0.51502365 0.02749224 3236960
0.32625294 0.66577685 0.023906 4422991
0.32770172 0.66743189 0.023858003 4489040
0.32921621 0.66916203 0.023807809 4883541
0.33142233 0.67168218 0.023734707 4619370
0.33362818 0.67420226 0.023661654 4750427
0.33514297 0.67593229 0.023611482 5079392
0.18489935 0.50858003 0.026886176 3433560
0.18862392 0.50970602 0.026871972 3303000
0.19134817 0.51267302 0.028053537 3171679
0.19596417 0.51964027 0.027176544 3170909
0.19804247 0.52177274 0.02592944 3039581
0.20353214 0.52791965 0.025424287 2842711
0.20698033 0.52869779 0.025701899 2907733
0.20866448 0.53307551 0.025798284 3170136
0.2107867 0.53622049 0.024120469 3170393
0.32383454 0.66460246 0.020421419 3703147
0.32837182 0.67032892 0.020218179 3703668
0.33497918 0.67756373 0.019917995 3900541
0.33635104 0.68068486 0.022264589 4749397
0.20003614 0.52718544 0.025222499 2907994
0.20589525 0.53322065 0.025148403 3104599
0.20895995 0.53517175 0.024499144 3235926
0.20964584 0.54066348 0.023710195 2973527
0.21259467 0.54062444 0.024279956 3104854
0.21432219 0.54299849 0.023065683 3104599
0.21856984 0.54850012 0.022414472 3038812
0.22006883 0.54983252 0.021926675 2907482
0.22356902 0.55388945 0.022238243 3170393
0.22871965 0.55942011 0.022339545 3170391
0.23389117 0.56616563 0.021415815 3236183
0.23791896 0.5701105 0.022324637 3302236
0.24019246 0.57194781 0.021372989 3302237
0.2443544 0.57721359 0.021464847 3105884
0.25370812 0.58809686 0.021303382 3172189
0.25900361 0.59389961 0.021403484 3172958
0.26446715 0.60027194 0.021014035 3107159
0.26720184 0.60453343 0.021315768 3173216
0.26959151 0.60627294 0.020494606 3108189
0.27293885 0.61105257 0.020486239 3174756
0.27756435 0.61671597 0.020771187 3241316
0.27979475 0.61755121 0.020640511 3241315
0.29566774 0.63685089 0.019302234 3438439
0.30057159 0.64161468 0.019892164 3373420
0.3045913 0.64752352 0.019518971 3373676
0.30653414 0.64847422 0.019270863 3373671
0.30933413 0.6513623 0.020018823 3700827
0.31121367 0.65312469 0.019872945 3831634
0.31330979 0.65545905 0.020014286 4159041
0.31453615 0.65777409 0.019968495 3701090
0.31684443 0.65855122 0.020185031 3767393
0.3187629 0.66437304 0.019851655 3506800
0.32119319 0.66411167 0.020025078 4030557
0.32485387 0.66948819 0.020262569 3637617
0.32779372 0.67561257 0.01993762 3966322
0.33080599 0.67577761 0.020296823 3835502
0.33242559 0.67844832 0.019170951 4292967
0.33594811 0.68413544 0.019073896 4228467
0.34307462 0.68946099 0.019028258 5534805
0.21615888 0.54834735 0.022296865 3038805
0.21920791 0.55403596 0.021701377 3038808
0.22316033 0.55920947 0.021450408 3170389
0.22627291 0.55902869 0.022074666 3104857
0.22843432 0.56339228 0.022349533 3170396
0.22980931 0.5646984 0.021798778 3170650
0.23162846 0.56562269 0.021487553 3235928
0.23478559 0.56900167 0.022439338 3236950
0.23907523 0.57676315 0.02076067 3236445
0.2419077 0.5768221 0.021199953 3171164
0.2435271 0.58178473 0.021178406 3040086
0.24699053 0.58240616 0.02109519 2909009
0.24827129 0.58628339 0.021558065 3171671
0.25000018 0.58754903 0.02112285 3171673
0.25403741 0.59180886 0.021722123 3041625
0.25661486 0.59345907 0.021203786 3172955
0.25971511 0.59963477 0.020620883 3172699
0.26215401 0.59990209 0.020953219 3107160
0.26354757 0.60531288 0.020395145 3238494
0.26906693 0.61064667 0.02025114 3173986
0.27368245 0.61385298 0.02031339 3306086
0.27525792 0.61581016 0.020762961 3241063
0.28053018 0.62365866 0.01965576 3306342
0.28387982 0.6249736 0.019426163 3306343
0.28725216 0.6301356 0.019606121 3438177
0.28998435 0.63158441 0.019105565 3372392
0.29064831 0.63631982 0.019073356 3437932
0.29324898 0.63657403 0.019251917 3438185
0.29682243 0.64129949 0.019615915 3438952
0.29896593 0.64437073 0.018324278 4092488
0.30131194 0.64657617 0.019271061 3503717
0.30268636 0.64862108 0.018201068 3895904
0.30492538 0.65117866 0.018126901 4027980
0.30727035 0.65170497 0.019963924 3373927
0.31175166 0.65735149 0.019903891 3439729
0.31540814 0.66285628 0.017556991 4094034
0.31606832 0.66392887 0.019460637 3637099
0.32618532 0.67578024 0.018425975 4555607
0.32848242 0.6760515 0.019194067 4620134
0.33345327 0.68378818 0.018884744 4031349
0.33677545 0.68675667 0.01754155 4554086
0.33903334 0.68855542 0.017086279 4489068
0.34293962 0.69470292 0.016941778 6583106
0.34445435 0.69643307 0.016891632 7043657
0.3459031 0.69808811 0.016843669 8026173
0.34741765 0.69981819 0.01679346 8420930
0.18561515 0.51605684 0.019812904 4091465
0.18653187 0.52052301 0.020427734 3828556
0.18896995 0.52157921 0.020431563 3893836
0.19064282 0.52276498 0.020139355 3828041
0.19260359 0.52383512 0.019964792 3828297
0.21305436 0.54865217 0.021605119 3038551
0.28452551 0.62998378 0.019156203 3306598
0.31656328 0.666462 0.01631774 4225618
0.31975639 0.66978025 0.016272016 4358226
0.32144275 0.6714927 0.016209032 4357714
0.32898772 0.68032795 0.016888328 4488802
0.33371559 0.6852923 0.016788229 4750423
0.33836648 0.69321251 0.015443823 5207132
0.17846318 0.51195681 0.017808612 3629884
0.1785446 0.51392275 0.019286506 4156228
0.1816605 0.51531696 0.019324377 4288069
0.18385985 0.51979077 0.019954782 3959882
0.1927183 0.52937508 0.019643657 3630665
0.19548695 0.53139275 0.01923031 3696453
0.19765851 0.53346002 0.018541805 3696197
0.20013568 0.53553087 0.018044457 3761989
0.20181654 0.53684074 0.01768491 3761988
0.20891459 0.54779488 0.016054533 3761477
0.23310135 0.57401919 0.016270477 3301198
0.23631692 0.57600594 0.016817495 3170897
0.23783144 0.5777362 0.016767364 3498557
0.23928013 0.579391 0.016719304 4090694
0.25951159 0.60240334 0.015974969 3499063
0.26171753 0.60492337 0.015901845 3630401
0.26323226 0.60665351 0.015851635 3564607
0.26543817 0.60917372 0.015778556 3368523
0.27758706 0.62414056 0.016192403 3763266
0.27910149 0.62587082 0.016142197 3631946
0.28081271 0.62891471 0.016901832 3763783
0.28305152 0.63147247 0.016827628 3829576
0.28380173 0.63351244 0.015849046 3763270
0.286015 0.63485754 0.016729444 3828804
0.28828686 0.63745266 0.016654208 3894597
0.29049286 0.63997281 0.01658117 3894865
0.2920076 0.64170289 0.016530935 3960658
0.2942614 0.64461511 0.015379949 4026961
0.29994029 0.65201509 0.015671194 3896154
0.30210721 0.65320623 0.01366545 4029007
0.30447391 0.65516293 0.013538732 3568210
0.30765277 0.66111028 0.014325884 4029002
0.30951312 0.66260135 0.014172233 4160073
0.31162253 0.66368628 0.014413127 4160079
0.31596252 0.66983658 0.013706011 4292690
0.31754711 0.67066002 0.014294655 4292432
0.32037294 0.6767534 0.014047655 4358997
0.32331863 0.67875075 0.013691979 4555861
0.32626435 0.68074787 0.013336309 4687445
0.32850644 0.68637347 0.013718187 4621397
0.33092085 0.68705767 0.013924115 4752720
0.33458215 0.68870378 0.01389617 4817741
0.34167215 0.69754112 0.012373608 5405280
0.34728283 0.70506018 0.014706918 9205813
0.34966993 0.70702833 0.014058988 8615736
0.35182661 0.71025068 0.01455636 9139502
0.35327518 0.71190578 0.014508358 9533006
0.17363232 0.51071763 0.017188367 2971953
0.17603879 0.51127774 0.017461639 3300920
0.18511468 0.52435946 0.015974239 4090695
0.18738666 0.52695495 0.01589888 3565895
0.18890095 0.52868527 0.015848707 3566152
0.19110724 0.53120506 0.015775673 3697218
0.19337896 0.53380018 0.015700366 3631169
0.20029114 0.54227656 0.016980112 3695940
0.20332366 0.54420066 0.016722336 3696195
0.20627239 0.54593009 0.016392961 3761730
0.20999791 0.5536837 0.015747055 3629892
0.21261762 0.55576146 0.015204458 3629893
0.2156418 0.55723143 0.015073984 3761475
0.22338946 0.56798357 0.014631982 3168825
0.22507198 0.56948429 0.014030418 3958597
0.22640081 0.57132453 0.014458097 3694152
0.22791544 0.57305449 0.014407859 3628359
0.22959895 0.57568449 0.013808065 3958598
0.23313448 0.57815766 0.013284556 3958852
0.23886333 0.58490187 0.013857906 3630146
0.24062473 0.58757293 0.013986873 3432773
0.24701144 0.59438014 0.013664613 3629899
0.2488562 0.59697616 0.013714192 3564115
0.25037074 0.59870642 0.01366396 3761468
0.25223517 0.60033423 0.013762915 3828034
0.25419405 0.60249233 0.013612618 3761726
0.25638375 0.60714102 0.013871402 3697476
0.25803229 0.60874313 0.013452803 3697221
0.25995293 0.60998172 0.013286666 3631940
0.2623094 0.61071438 0.013427352 3829318
0.26612428 0.61660343 0.013067932 3566135
0.2682327 0.61894631 0.013102357 3829317
0.27071273 0.62058276 0.012992312 3895369
0.27211669 0.62344903 0.012869404 3959610
0.27433461 0.62622994 0.012981446 3829573
0.27598247 0.62750202 0.012623019 3764295
0.27781487 0.62895322 0.012540968 3698507
0.28210846 0.63603187 0.012648122 3699533
0.28422478 0.63698596 0.013167829 3698764
0.28649822 0.63792884 0.013463263 3764555
0.28835541 0.64399272 0.012752231 4028492
0.2920191 0.64399725 0.013485323 3897422
0.29441389 0.64867592 0.013328525 3700294
0.29596546 0.65043092 0.012957315 3962447
0.29826286 0.65135181 0.013214909 4028240
0.30166957 0.65704167 0.01429648 4027986
0.30361333 0.65968621 0.013655066 4094543
0.30552483 0.66156864 0.014030944 3962700
0.31102991 0.66843271 0.013513069 4358226
0.31364766 0.6695953 0.013436778 4358224
0.31809366 0.67518681 0.011935033 4358480
0.32334489 0.68364948 0.011511763 4621393
0.32543647 0.68565899 0.011004392 4752467
0.32725912 0.68711448 0.010781388 4686932
0.32997334 0.68754959 0.011454275 4686929
0.33219171 0.68866777 0.011546721 4818516
0.33465394 0.69614911 0.011513378 4882763
0.33755168 0.69913948 0.011867804 5339464
0.33940691 0.70035976 0.012154836 5929562
0.3424553 0.70168626 0.011639589 6191191
0.34422162 0.70353127 0.011681845 7370075
0.34607226 0.7056765 0.010876824 7173708
0.35005659 0.71207052 0.010131983 9400901
0.35163462 0.71320558 0.009809399 9139264
0.35287476 0.71477872 0.009808992 9205068
0.35610479 0.71795207 0.010465062 10123340
0.16853213 0.50832647 0.014562964 3561244
0.17067167 0.50954705 0.01579925 2905126
0.18180428 0.52353597 0.013699318 4157255
0.18368465 0.52494282 0.013541655 4091464
0.18744397 0.53170043 0.013959675 3631432
0.18903068 0.53336424 0.013795831 3631427
0.19158235 0.53452659 0.014007826 3565635
0.19412196 0.53589684 0.014156672 3696965
0.19552304 0.53744632 0.013612143 3893828
0.21667227 0.56493527 0.013872861 3827012
0.21830294 0.56641793 0.013380799 3892549
0.22177535 0.56789839 0.013396147 3827013
0.22710069 0.57480574 0.013530771 3958600
0.23099987 0.57723403 0.013263573 3958854
0.23131919 0.58087575 0.01325513 3695689
0.23229268 0.58314049 0.013012731 3958597
0.23464927 0.58387333 0.013153537 3893061
0.2385702 0.59093732 0.012967386 3695942
0.24072891 0.59122032 0.012256174 3564869
0.24350488 0.59221238 0.013368719 3959110
0.24477258 0.59438944 0.012109682 3762242
0.2470628 0.59750909 0.012334132 3631168
0.24928266 0.60031104 0.013226989 3959878
0.25421831 0.6073395 0.012648514 3368250
0.25675255 0.60992604 0.011029405 3434045
0.25782418 0.61139858 0.011640514 3301950
0.26023978 0.61393625 0.01162398 3368252
0.26321882 0.61660028 0.012352023 3697734
0.26532453 0.61842263 0.012688463 3961163
0.26570848 0.62015671 0.01073265 3763776
0.26825851 0.62275082 0.010614094 3698245
0.27140737 0.6259706 0.011939318 3829829
0.27296278 0.62763792 0.010962158 3698242
0.27768251 0.63389629 0.011685726 3830090
0.28043014 0.63542312 0.011281182 3896136
0.28633225 0.64242971 0.012382974 3962184
0.28766939 0.6447444 0.011088009 4158796
0.29191545 0.64931607 0.010406199 3765060
0.29563731 0.65162957 0.010005943 4027979
0.30138764 0.66121179 0.009773355 4094795
0.30458009 0.66300672 0.0098900581 4160331
0.30836985 0.66935611 0.010895232 4095053
0.30987811 0.67147261 0.010220031 4160845
0.31192261 0.6727373 0.01011686 4160845
0.31481862 0.67315 0.010917929 4161103
0.31835291 0.68148506 0.010801338 4489809
0.32044852 0.68323708 0.010710641 4489808
0.33159336 0.69411033 0.011556565 4883281
0.34008208 0.70390153 0.0095053799 5732672
0.34462124 0.71188617 0.009305859 9335118
0.34813237 0.71253842 0.0094330236 8745537
0.35068032 0.71593034 0.010783025 9794635
0.35252297 0.71722692 0.010269647 9860425
0.16525279 0.50751948 0.011506402 5203748
0.16512193 0.50862753 0.013680189 3823900
0.17552234 0.519925 0.012796236 3827251
0.17807889 0.52192014 0.013602865 4222266
0.17989932 0.52453381 0.011999839 4091201
0.18170929 0.52788514 0.011828758 3959621
0.1833297 0.52952236 0.011768028 3828291
0.18471681 0.53114372 0.013283663 3631687
0.18936896 0.53668731 0.012534198 3697218
0.19191013 0.53839809 0.013013401 3631168
0.19337164 0.54056907 0.012804279 3696450
0.1958064 0.54323632 0.013251803 3630658
0.19790813 0.54536885 0.012712299 3630912
0.19987644 0.5474726 0.012500437 3499331
0.20146309 0.54897332 0.012827624 3499073
0.20404589 0.55145776 0.01258487 3630146
0.20758726 0.55382693 0.012092747 3761470
0.20846187 0.55622327 0.011117136 3761470
0.21045829 0.55753243 0.011089755 3761470
0.21803792 0.56771493 0.011137351 3497796
0.21956277 0.56971717 0.010847188 3497792
0.2209516 0.57154971 0.010525767 3301175
0.22271982 0.57435757 0.011599674 3761217
0.22867392 0.58099282 0.010786922 3564096
0.23177084 0.5836004 0.010830848 3761218
0.23319428 0.58439338 0.010082305 3695937
0.23357587 0.58860272 0.010903806 3564346
0.23685119 0.59065664 0.010987764 3433019
0.23982848 0.59283084 0.010812989 3433530
0.24204212 0.59396434 0.011289308 3432771
0.24607189 0.60264736 0.010624109 3433034
0.24892543 0.60414547 0.010896998 3630912
0.25054392 0.60663575 0.010403407 3631170
0.25235254 0.6081087 0.010359364 3565118
0.25530538 0.60878152 0.01038488 3500097
0.2593177 0.61631387 0.010775215 3566397
0.26187408 0.61714363 0.011117852 3632194
0.2633588 0.6196124 0.010420333 3631934
0.26478174 0.62174827 0.010141831 3566406
0.2687653 0.62596941 0.010069943 3632192
0.27120662 0.63009351 0.01052978 3764290
0.27334136 0.63101715 0.010550712 3764547
0.27479348 0.6330536 0.010018666 3698756
0.28133842 0.6410436 0.010953698 3765063
0.28346434 0.64263195 0.010713519 3830856
0.28477854 0.64505392 0.010133128 3961927
0.28859198 0.6482901 0.009934173 4159047
0.29665545 0.65896666 0.0095383115 3897414
0.29893959 0.66016024 0.0096285129 3963465
0.3422215 0.70810413 0.0081451423 6519109
0.34613958 0.71369869 0.0076268939 7632191
0.16020946 0.50646657 0.010907336 5860395
0.16234419 0.5073902 0.010928324 5531941
0.17014882 0.51808298 0.010161129 2643487
0.17317396 0.5195632 0.010421116 3102766
0.17852955 0.5282048 0.011674811 4091194
0.20074663 0.55045271 0.010125936 3433796
0.20236699 0.55208987 0.010065221 3695428
0.20393957 0.55377132 0.010080079 3629634
0.2049478 0.55812949 0.0097273886 3629376
0.20792282 0.56008023 0.0086587975 3431995
0.20937984 0.56248879 0.0096281236 3563581
0.21178085 0.56487322 0.0096253743 3563327
0.21292749 0.56704527 0.010272093 3629374
0.21562603 0.56855828 0.009811569 3695421
0.22330847 0.57855868 0.0101295 3629632
0.22568437 0.58028764 0.010053594 3695423
0.23266488 0.58869433 0.0094821146 3892034
0.23602161 0.59122127 0.010001421 3367484
0.24676999 0.60401982 0.010265465 3565376
0.33958068 0.71010596 0.0066256728 6256441
0.14879735 0.4954001 0.0090809269 8486214
0.15107533 0.4980033 0.0094665736 8553036
0.15289907 0.50099325 0.0094716121 8291150
0.15481211 0.50210744 0.0093727764 8160076
0.1567129 0.50471997 0.010151817 6911549
0.16783251 0.51718187 0.010012036 2642973
0.17266202 0.52223581 0.0091983294 3103277
0.17470345 0.52456796 0.009130707 3499060
0.19257256 0.54577512 0.010054496 3696703
0.19414513 0.5474562 0.01006956 3565116
0.20655029 0.56218225 0.0076199872 3432506
0.20817102 0.56381917 0.0075592529 3432508
0.20979153 0.56545645 0.007498485 3498044
0.33920556 0.71573895 0.0038952809 7369779
0.3409082 0.7172302 0.0035756356 8680745
0.14114915 0.49021524 0.0073949173 5655056
0.14334643 0.49253049 0.0084033487 7036963
0.14615873 0.49503559 0.0085467221 8222278
0.14852411 0.49923894 0.009440206 8553804
0.16221426 0.51561201 0.0063158376 5466410
0.16431879 0.51699841 0.0076309433 3693087
0.16796562 0.51993048 0.0079657128 2904873
0.1694802 0.5216608 0.0079155369 3035690
0.13270348 0.4854522 0.0053541772 6575658
0.13528731 0.48766524 0.006095252 6180894
0.13726163 0.4905301 0.006333814 5720596
0.14810771 0.50171417 0.0043031401 8023602
0.14962238 0.50344443 0.0042529972 8552236
0.15416631 0.50863487 0.004102408 8684611
0.15617627 0.51047051 0.0043043457 8093748
0.15699664 0.51335168 0.0046606874 7173926
0.15961364 0.51473838 0.0046510058 6911533
0.16125347 0.51786917 0.0047209803 4875331
0.16276796 0.51959944 0.0046708323 4217657
0.16554615 0.52111238 0.0054812972 3101474
0.16814798 0.52329516 0.0057235779 2839336
0.12377259 0.47849146 0.0045516007 6772532
0.12580687 0.47976094 0.0043073515 6706737
0.12816876 0.48238805 0.0042267102 6640944
0.12967105 0.48529652 0.004713044 6575403
0.14312297 0.5003131 0.0026244554 6509589
0.14567119 0.50101882 0.0030344999 7299610
0.14946249 0.50795346 0.0036334191 8750409
0.15206873 0.50861025 0.0041085375 8487749
0.1538913 0.51006567 0.0038856403 8093764
0.1546299 0.51374251 0.0039904085 7239983
0.15718019 0.51672673 0.002808956 7174199
0.15964364 0.51922023 0.0027166526 5860914
0.16241843 0.51947737 0.003663097 5071654
0.12135804 0.47780755 0.0043456261 6706741
0.13348566 0.49234504 0.0007748513 6705954
0.13774392 0.49750197 0.0023101796 5719052
0.14091931 0.49950746 0.0022930782 5720073
0.14222659 0.50174087 0.0018842169 5588739
0.14374134 0.50347102 0.0018340559 6378777
0.14561683 0.50694764 0.0018515955 8485435
0.1482427 0.50837606 0.0012515718 8946485
0.14986543 0.51046705 0.0016311938 8750404
0.15137722 0.51309448 0.0026393863 7962429
0.11889388 0.47878584 0.00036821421 6837795
0.12142555 0.48003197 0.00058437022 6837544
0.12491461 0.48734456 0.0005081573 6903331
0.13351621 0.49646565 0.001689299 5982229
0.13537496 0.49931005 2.0285603e-05 5653546
0.35329711 0.66532421 0.045377996 3365980
0.36422831 0.67766219 0.044443388 3300190
0.34194192 0.6526109 0.043492891 3234395
0.34541371 0.65502954 0.043752231 3234138
0.34838501 0.66282344 0.044650733 3497053
0.35028532 0.66422105 0.044774853 3365982
0.35461605 0.66774416 0.044868018 3365720
0.35642052 0.67027384 0.044468973 3431511
0.35771224 0.67298365 0.043970507 3562843
0.3605012 0.67506653 0.044125427 3628380
0.36234349 0.6765129 0.044184398 3300442
0.3650915 0.67955303 0.044019185 3497051
0.36548504 0.68158185 0.043349143 3497047
0.36773947 0.68366319 0.043364529 3365465
0.37038633 0.68671936 0.042994168 3430745
0.37049106 0.69004673 0.041713953 3495766
0.36862841 0.69308466 0.039818913 3626324
0.37411466 0.69633341 0.037834909 3625296
0.37000337 0.7005046 0.034647513 4017484
0.36966547 0.70303071 0.03362032 4541517
0.36866599 0.70572191 0.032078143 4869195
0.3726058 0.7118175 0.031149421 5984328
0.37664551 0.71532983 0.031262714 6049869
0.37926924 0.71761906 0.031258684 6050123
0.3739554 0.71447837 0.030716114 6050122
0.32664609 0.66840422 0.025525421 4488260
0.32816085 0.67013443 0.025475226 4751432
0.33036673 0.67265439 0.025402158 4094309
0.33257279 0.67517447 0.025329065 4487252
0.33408734 0.6769048 0.025278918 4487251
0.18706045 0.51354218 0.029450502 3171165
0.19002655 0.51603019 0.02829387 3236705
0.19385514 0.51896036 0.027161788 2974300
0.18299337 0.51106483 0.027529258 3368031
0.18520837 0.51165164 0.027533311 3302494
0.19164015 0.51837331 0.027157735 3039839
0.1931584 0.52302152 0.02699114 3039581
0.19499506 0.52406549 0.026753545 2908250
0.19679582 0.52623385 0.025243588 2908248
0.20328489 0.53297102 0.024828874 3039060
0.31673214 0.66154695 0.021533452 4159562
0.31824657 0.66327709 0.021483254 4159819
0.31969538 0.66493189 0.021435216 4291404
0.32138264 0.6679979 0.022232696 4291661
0.32306969 0.6710639 0.023030177 4357198
0.33021259 0.67793673 0.021828972 4487771
0.33419868 0.6837768 0.022661589 5009998
0.33976513 0.68795741 0.020844609 6321742
0.19667034 0.53104609 0.024667218 2907479
0.20107 0.53238398 0.024824813 3039063
0.20455666 0.53887635 0.023905702 3235417
0.20704305 0.54053801 0.023323383 3170137
0.20862912 0.54513282 0.023363054 3104599
0.21170709 0.54746091 0.022370581 3038807
0.22084339 0.55740339 0.022158075 3104854
0.23167312 0.56918222 0.021814995 3170645
0.24566087 0.58603352 0.021238707 3171412
0.25800452 0.59848833 0.021129888 3172702
0.26181671 0.60417616 0.020622205 3173212
0.27030286 0.61469424 0.020652112 3371109
0.27554926 0.62021154 0.020887997 3307106
0.2939029 0.64027005 0.019753493 3439209
0.29784092 0.64585543 0.019517239 3242348
0.30327129 0.65154052 0.019639358 3373675
0.30714032 0.65619999 0.019767366 3374450
0.30902985 0.65766627 0.019646429 3635041
0.31129619 0.66073304 0.019622613 3830362
0.31359324 0.66324174 0.019613706 3766634
0.31770587 0.66796666 0.020187508 3506541
0.32105583 0.66888738 0.020122163 3637612
0.32120806 0.67301381 0.020318907 3703409
0.32470968 0.67400068 0.020244896 3769203
0.32843316 0.67972034 0.020453848 3769201
0.33025214 0.68064481 0.020142768 3965555
0.33220279 0.6817196 0.019827101 4096630
0.33589172 0.68882966 0.018807817 5338193
0.19731991 0.53310227 0.023483399 2907734
0.20159203 0.53801739 0.023981355 3104347
0.20629834 0.5446434 0.023228481 3104347
0.21017589 0.54642099 0.022799414 3104855
0.21236545 0.55283779 0.021367073 3104597
0.2159466 0.55323279 0.021622501 3038810
0.21598448 0.55660397 0.022121664 3104346
0.22253723 0.56347013 0.021210201 3170393
0.22541995 0.56335604 0.021782074 3235674
0.22624208 0.56769663 0.022080325 3301466
0.2290902 0.56904751 0.021710109 3170648
0.23261473 0.57485056 0.021084793 3302235
0.23582101 0.57582921 0.020960581 3302235
0.23675908 0.579997 0.021103024 3105369
0.2391956 0.58039337 0.021226987 3040089
0.24034679 0.58201879 0.020347938 3040088
0.24366789 0.5852558 0.021354336 3040079
0.24600573 0.59103769 0.020848043 3040345
0.24904703 0.59222221 0.020565078 3040602
0.25219059 0.59738684 0.020796709 3106904
0.25540182 0.59836268 0.020743087 3172701
0.25816771 0.60351491 0.020611007 3172698
0.26100746 0.60886645 0.020409428 3238496
0.26452523 0.60970718 0.020364854 3042398
0.26742208 0.61467975 0.020288527 3305314
0.27226517 0.62040991 0.020276524 3241314
0.27704746 0.62265199 0.019621409 3371621
0.27836138 0.62729114 0.019859012 3241317
0.28082183 0.62805974 0.01978083 3372645
0.28161907 0.62972569 0.018786456 3306596
0.28372943 0.63335752 0.019785479 3306852
0.2864905 0.63478208 0.019317485 3372643
0.28803763 0.63607001 0.018753998 3306858
0.28992435 0.63962716 0.019589014 3437930
0.29326737 0.64481384 0.019736275 3373163
0.29525048 0.64559627 0.019479711 3307625
0.29826728 0.64948934 0.020174734 3242597
0.29997021 0.6505115 0.01973303 3308135
0.30343932 0.65552109 0.019865561 3505007
0.31012356 0.66196275 0.019746542 3308910
0.31347388 0.66806209 0.01949805 3441004
0.31893739 0.67234683 0.020458031 3637868
0.32530504 0.67965299 0.019964367 3965812
0.32920825 0.68599933 0.017415162 5013080
0.33082855 0.68763673 0.017354298 4880978
0.18179111 0.51894248 0.01993164 4025674
0.18399405 0.52394736 0.020650439 3762506
0.18897033 0.52780199 0.019573763 3762249
0.21017061 0.55224133 0.02164501 3038807
0.22038053 0.5628342 0.021271225 3104853
0.23039991 0.57426387 0.021080654 3301976
0.23449609 0.57945418 0.02117468 3170902
0.24035142 0.58574665 0.020683859 3105621
0.25467831 0.60296935 0.020237658 3172700
0.26504117 0.61436343 0.020021461 3173983
0.2753793 0.62696242 0.019350536 3371878
0.27709785 0.63032067 0.017424729 3567171
0.28119108 0.63162363 0.018596001 3698239
0.28346288 0.63421893 0.018520743 3960641
0.29314688 0.64533919 0.018166326 3764563
0.29532412 0.64788353 0.018060677 3633732
0.29683855 0.64961374 0.018010534 3699782
0.29907739 0.65217143 0.017936349 4027745
0.30131632 0.65472907 0.017862152 4684618
0.30283105 0.65645921 0.017811988 4224324
0.30503702 0.65897936 0.017738916 4224587
0.31226704 0.66784626 0.016881149 4094040
0.31684455 0.67221087 0.016771857 4160590
0.3193084 0.6747039 0.016679741 4226644
0.320815 0.67631018 0.016696788 4292180
0.32249367 0.67789847 0.016701244 4423502
0.33144492 0.69099802 0.01664184 4684893
0.33362621 0.69306064 0.016094156 4685928
0.33461156 0.69478691 0.015975069 5928789
0.33872008 0.69745708 0.016623057 6712897
0.34023473 0.6991871 0.01657293 7434547
0.34250665 0.70178235 0.016497612 8024884
0.3447127 0.70430237 0.016424622 8747062
0.3462272 0.70603263 0.016374405 9206042
0.34849921 0.70862776 0.016299125 9206041
0.35077095 0.71122295 0.0162239 9337625
0.17202616 0.5129534 0.01829838 3695678
0.17471276 0.51327366 0.01875674 3958850
0.17455539 0.51701462 0.01924644 4091210
0.17828907 0.51788098 0.019719418 4091208
0.18144554 0.52324194 0.020240378 3828297
0.18493257 0.52592927 0.01876976 3696967
0.18653513 0.52744722 0.018635344 3697222
0.18773191 0.52962637 0.017594207 3632196
0.18955691 0.53270102 0.018275809 3696711
0.19249515 0.53520352 0.019072246 3630404
0.19360821 0.53686875 0.018410139 3630403
0.19634733 0.53858066 0.018024176 3630659
0.19821455 0.54130399 0.017024379 3696194
0.23431911 0.58264685 0.015902549 3433020
0.23576763 0.58430183 0.015854478 3367227
0.25082991 0.6014089 0.015281309 3630915
0.25303596 0.60392898 0.015208288 3564621
0.25530785 0.60652417 0.015132959 3301936
0.25682238 0.60825443 0.015082861 3565108
0.25902852 0.61077452 0.015009704 3761988
0.2613003 0.61336976 0.014934476 3236680
0.26281485 0.61510003 0.014884288 3500109
0.26502091 0.61761999 0.014811289 3631678
0.26729286 0.62021506 0.014735953 3697471
0.26880729 0.62194538 0.014685758 3697727
0.27046153 0.62497383 0.015484386 3632190
0.27273348 0.62756902 0.01540915 3566660
0.27369657 0.62980711 0.016230658 3632708
0.28265226 0.64003789 0.015933923 4092227
0.28416672 0.64176822 0.015883733 3894844
0.28568134 0.64349836 0.015833583 3960894
0.28792042 0.64605594 0.015759315 3894352
0.29238096 0.64821589 0.014024968 3897679
0.29689988 0.65665889 0.015260641 3962458
0.30521712 0.66597831 0.014695368 4094030
0.30786356 0.66834176 0.014112855 4028497
0.31333205 0.67179304 0.015517729 4094544
0.31373164 0.67392498 0.013999675 4161616
0.31593204 0.67492384 0.01401849 4292945
0.31974918 0.68195224 0.014051356 4621655
0.32199749 0.68290699 0.0139943 4621649
0.32547083 0.68432313 0.014113891 4555858
0.3322143 0.69486135 0.014941907 5404752
0.33514702 0.69666225 0.014296976 4947556
0.33643761 0.69856226 0.013346354 5406051
0.16794035 0.51136965 0.016833607 3037484
0.19743891 0.54636192 0.016750507 3695684
0.19905347 0.54759669 0.016392961 3695684
0.20235823 0.5491572 0.016387418 3761476
0.20480531 0.55131686 0.015753489 3761220
0.2067181 0.55243129 0.015654597 3695686
0.23718517 0.58963603 0.013377263 3761731
0.24489957 0.59843272 0.013263085 3761989
0.25039247 0.60349208 0.014317487 3894088
0.25226489 0.60477495 0.014227054 3696966
0.25913695 0.61520803 0.013021092 3829319
0.26131958 0.61608726 0.012966243 3829320
0.26703122 0.62411094 0.012826718 4026954
0.26938787 0.62484372 0.012967386 3895624
0.2729933 0.63068706 0.013117866 3698761
0.27536777 0.63236654 0.012827756 3698762
0.27785516 0.63411343 0.012921796 3501125
0.2798056 0.63785422 0.015141527 3698242
0.2818042 0.64082319 0.01282838 3831118
0.28477067 0.64090377 0.013471697 3831375
0.28462362 0.6444906 0.013529961 3895363
0.28615448 0.64679891 0.01328507 3961677
0.28923482 0.64802921 0.013461812 3962962
0.29283732 0.65243107 0.012713617 3896394
0.29529801 0.6546495 0.013747179 4028750
0.29769817 0.6572367 0.013449931 4226383
0.29984626 0.65853757 0.013127743 4160846
0.29938912 0.66267693 0.013722899 4027984
0.30175737 0.66503096 0.013585492 4094542
0.30492392 0.66658562 0.013034063 4029774
0.31071925 0.67376 0.013640578 4161613
0.31684145 0.68066019 0.012370748 4489809
0.3261058 0.69182026 0.012189274 4620621
0.3284094 0.69389975 0.012082922 4948301
0.33132389 0.6960932 0.01220879 5537354
0.33269826 0.69818807 0.011329611 5798984
0.33422032 0.70064086 0.013501544 6451274
0.34264341 0.71005732 0.010307781 9269578
0.34403771 0.71005505 0.0110598 8812859
0.34569308 0.71510667 0.010613166 9597250
0.34778401 0.71566749 0.010554242 9663303
0.34939581 0.71841788 0.011949526 9795654
0.16373788 0.51067209 0.014909967 2707995
0.17738998 0.52320844 0.015845839 3827770
0.17924294 0.52634358 0.014860821 3763265
0.18099833 0.52786326 0.014821905 3762758
0.18300557 0.52927309 0.014016938 3631684
0.18577674 0.53529692 0.014303547 3828036
0.18875659 0.53702283 0.01478749 3630915
0.19065091 0.53904116 0.014743614 3498818
0.19297856 0.54116207 0.014518692 3695683
0.1943633 0.54293257 0.014230776 3564355
0.20536661 0.55772048 0.015145508 3629893
0.20825864 0.55943447 0.014855261 3695426
0.21087854 0.56151199 0.014312529 3892803
0.21341345 0.56353408 0.013880498 3892547
0.2203953 0.57177389 0.013693349 3827267
0.22341262 0.57750976 0.013775681 3826756
0.22673661 0.57984948 0.013723639 3826502
0.2285855 0.5818786 0.013446874 3629130
0.2302701 0.58539295 0.013585455 3760713
0.23151931 0.58806956 0.012947201 3827268
0.23502125 0.5888117 0.013609837 3498560
0.23681828 0.5908978 0.013728765 3367488
0.23726822 0.59348625 0.013427843 3564362
0.23929122 0.59609318 0.01312247 3827525
0.24273926 0.5972656 0.013235827 3827782
0.24435978 0.59994668 0.012500308 3235660
0.24593328 0.60240251 0.013273845 3565128
0.24737018 0.60333174 0.013817384 3828293
0.25112703 0.61053771 0.013576687 3828549
0.2524955 0.61237979 0.012973101 3894600
0.25573328 0.61392915 0.012865608 3763012
0.25669551 0.61540926 0.010434739 3500095
0.2590293 0.61956465 0.01331496 3960647
0.26083377 0.62090111 0.013018277 4026439
0.26398894 0.6227808 0.012643941 3895110
0.26604128 0.62534869 0.011874031 3697729
0.26766181 0.62698579 0.011813246 3566654
0.26940989 0.62950522 0.011648516 3698501
0.27475482 0.63637799 0.013465135 3435590
0.27702537 0.63843685 0.012426456 3699016
0.27926403 0.6400919 0.011778652 3830858
0.28403848 0.64632452 0.013277614 3897162
0.28879866 0.65286016 0.01102838 3764808
0.29331717 0.65703887 0.0096049579 4028492
0.30324754 0.66770124 0.010069145 4291661
0.30564982 0.66866833 0.010498047 4094797
0.31132782 0.67871124 0.010215048 4292175
0.31347021 0.67975891 0.010168694 4226892
0.31767631 0.68713564 0.01103651 4489806
0.3207745 0.6873666 0.011675446 4620873
0.32254818 0.68965524 0.011199736 4686413
0.3246263 0.69128752 0.0110355 4686416
0.33328241 0.7016176 0.0096994415 5995332
0.33648655 0.70693451 0.010144675 7172677
0.33819526 0.708359 0.0099997427 7762243
0.34031257 0.70956808 0.010173163 9072458
0.34278882 0.71471983 0.010451781 9531977
0.34510204 0.71479046 0.0093680006 9074229
0.34751377 0.71726596 0.0093850913 9271090
0.15997091 0.50779617 0.012883318 4743457
0.1616817 0.50931633 0.013805202 3692569
0.16950087 0.519373 0.012164917 3235636
0.1712295 0.52169979 0.012793104 3958334
0.17296588 0.52350116 0.013864351 4156483
0.17437772 0.52498168 0.013564921 3894342
0.17663378 0.52630514 0.012703941 4025664
0.17822157 0.53012151 0.013462505 3697216
0.18051951 0.53264087 0.013843908 3696964
0.18203187 0.53449988 0.013585302 3762500
0.1852272 0.53649592 0.013850334 3696965
0.18724327 0.53923392 0.013265832 3630658
0.19044568 0.54333633 0.013032642 3630143
0.19333364 0.54824942 0.012919529 3433274
0.19549227 0.55056089 0.012630114 3433534
0.19796017 0.55354923 0.012163952 3564610
0.19994532 0.55492747 0.011891306 3564354
0.20137812 0.55672854 0.011813868 3301442
0.20359948 0.55862266 0.011257942 3695419
0.20599113 0.56142718 0.010542729 3564092
0.21352437 0.56901211 0.013593017 3826757
0.21411288 0.57084107 0.011909618 3892547
0.21608807 0.5728249 0.011593964 3563583
0.21840437 0.57543725 0.011154397 3431992
0.21989703 0.57716036 0.011731965 3695422
0.22202034 0.57954592 0.012168673 3826755
0.22673115 0.58514649 0.010565827 3892800
0.22785084 0.58641142 0.011592214 3695429
0.23073201 0.58788848 0.010443763 3564607
0.23316036 0.59308439 0.010798099 3301944
0.23527625 0.59557277 0.010730398 3236157
0.23760863 0.59778768 0.010827257 3433027
0.23976918 0.59986043 0.010766366 3236417
0.24166603 0.60109967 0.010672752 3302209
0.24488945 0.60261321 0.010423172 3565375
0.24584673 0.60674107 0.012052495 3564866
0.24778146 0.60980523 0.011094552 3564872
0.24926148 0.61137396 0.01054501 3433535
0.25156671 0.61332119 0.010516787 3433530
0.25380319 0.61520153 0.010704165 3302461
0.255968 0.61818546 0.010862088 3434300
0.25680998 0.6202994 0.010624181 3369023
0.2597976 0.6229769 0.010536249 3500863
0.26211783 0.62527525 0.010093044 3698241
0.26470777 0.62647247 0.01037459 3764039
0.26645648 0.627729 0.010221165 3698500
0.26857188 0.63439536 0.010575542 3633221
0.27181938 0.63594013 0.010609118 3764548
0.2746591 0.63810521 0.010550127 3830342
0.28016961 0.64775896 0.010124192 3765062
0.28488615 0.64975584 0.01049399 3896645
0.28563428 0.65279871 0.0096551273 3896391
0.28803062 0.65375757 0.009623182 4027981
0.28991881 0.65528864 0.0093980264 4093770
0.29400277 0.66314918 0.0095104696 4094280
0.29726499 0.66508132 0.0095912293 4029003
0.30036122 0.66728419 0.0094088912 4226125
0.30665118 0.6765461 0.0098368609 4292171
0.30853975 0.67807692 0.0096116168 4292175
