# .PCD v0.7 - Point Cloud Data file format
VERSION 0.7
FIELDS x y z rgba
SIZE 4 4 4 4
TYPE F F F U
COUNT 1 1 1 1
WIDTH 1118
HEIGHT 1
VIEWPOINT 0 0 0 1 0 0 0
POINTS 1118
DATA ascii
0.40126246 0.67999983 0.0084187388 6466665
0.40374503 0.68133759 0.0072302818 6466665
0.40608928 0.68156016 0.0070431828 6466412
0.40899122 0.68245751 0.0060142279 8370044
0.4135282 0.68543291 0.0031458735 5796641
0.36730748 0.66593146 0.012212932 5873771
0.37186015 0.6662451 0.011958063 5545050
0.37350973 0.66712654 0.0111202 5742173
0.3749927 0.66953826 0.011778891 5939293
0.37783861 0.67167652 0.0094147325 6070630
0.38590187 0.67377728 0.0059925914 4163951
0.38918763 0.67625362 0.0055065155 5018472
0.39215147 0.67702544 0.0059592724 5939041
0.39432645 0.67729831 0.0056350231 5873505
0.39716461 0.67930412 0.0054197311 5742430
0.40014842 0.68109322 0.0053824782 5808220
0.4015137 0.68254387 0.0040108562 5874273
0.40447009 0.68337929 0.0025147796 6267767
0.40741879 0.68415886 0.0010325313 5541237
0.41027036 0.68545681 0.0018533468 4944961
0.41495252 0.6880964 0.0011253953 5005334
0.41797119 0.68902874 0.00018399954 6383657
0.4214434 0.68934137 -8.6605549e-05 8945207
0.36641726 0.66683006 0.0087561011 4359254
0.36932725 0.66823417 0.0080851912 4294012
0.37406695 0.6706723 0.0064470172 5543000
0.37659454 0.67387563 0.0066532493 5806166
0.38008735 0.67359251 0.0061265826 5281121
0.38283908 0.67416906 0.0055783987 5018470
0.38513321 0.67466438 0.0050065517 5741402
0.38721269 0.67665952 0.0049216151 5742167
0.39045432 0.67903042 0.0036129355 5217115
0.39322212 0.68069983 0.0030447245 4626023
0.39547521 0.68072957 0.0023041368 5020766
0.39799029 0.68240595 0.0019655824 5086816
0.40140358 0.68322885 0.00070339441 5284202
0.40400928 0.68463552 0.00027567148 6203245
0.40629122 0.68566084 2.2470951e-05 6594661
0.40882933 0.68771631 -0.0008983016 4944941
0.41156763 0.68861425 -0.0016520619 1585678
0.41350767 0.68955028 -0.0020993352 2111508
0.41941607 0.69240093 -0.0034613013 7759915
0.42232618 0.69380498 -0.004132092 9535039
0.3542785 0.66296917 0.0080320835 5213262
0.35630065 0.6633237 0.0077076554 5278799
0.35982585 0.66618884 0.0080898404 4687457
0.36252877 0.66694045 0.0078606009 4556124
0.36518317 0.66825348 0.007119596 5279821
0.36823738 0.66931367 0.0061082244 5017435
0.37098271 0.67077982 0.0065748096 4820320
0.37250236 0.67319411 0.0051839948 4755041
0.375673 0.67373884 0.0049515367 4952412
0.37842757 0.67468894 0.0046647191 4821347
0.38127369 0.67613721 0.0041373372 5150308
0.38449639 0.6776377 0.0040399432 4953705
0.38671041 0.67859709 0.0038464665 4888172
0.3887552 0.67960691 0.0035158992 4757100
0.39450318 0.68264812 0.0023488402 4495723
0.40501034 0.68748868 -0.00097054243 7119455
0.40691507 0.68860185 -0.002184093 4881213
0.41035664 0.6905911 -0.0035879016 2050583
0.4129253 0.69151926 -0.0041943192 2377242
0.4158932 0.69237983 -0.0040300488 5068074
0.41788718 0.69455957 -0.005083859 8090665
0.42051134 0.69545877 -0.0057147145 9929263
0.34129459 0.65875471 0.0088049769 4950347
0.34409255 0.6583575 0.0092887282 5015886
0.34910524 0.66308594 0.0079713464 5082190
0.35127309 0.66322351 0.0078248978 5344850
0.35436767 0.66521358 0.005245626 4491870
0.35706699 0.66630995 0.0067878962 4621919
0.3589353 0.66629159 0.0051797032 4426340
0.36111489 0.66792154 0.0047643781 4885592
0.36465621 0.66888475 0.0045562387 5017176
0.36811411 0.66975319 0.0045257807 5411405
0.36959326 0.67313766 0.0047439933 5411408
0.40781048 0.69137883 -0.0038017631 3759892
0.40961242 0.69242293 -0.0046220422 2641677
0.4113968 0.69392455 -0.0055446029 2969361
0.41396809 0.69463325 -0.0059430599 3623964
0.41700554 0.69535714 -0.006254971 7959067
0.33430871 0.65670049 0.0081433654 5081167
0.33852035 0.65931839 0.0082803369 4884305
0.34710783 0.66318035 0.0058171749 4490839
0.35015249 0.66414142 0.0050486922 4555867
0.35213357 0.66507334 0.0048528314 4227426
0.35484049 0.6683048 0.0046661496 5081933
0.3587763 0.66856742 0.0048257709 5279051
0.32256976 0.65432513 0.0078356266 4817999
0.32531059 0.65394318 0.0081037283 4949329
0.33010438 0.65740502 0.007612884 4949583
0.33507112 0.66069829 0.0060442686 3831671
0.33709937 0.66167688 0.0055767298 3767145
0.33971289 0.66289312 0.0049479604 4424028
0.34306908 0.66375446 0.0045844913 4359258
0.3127988 0.65091729 0.0080009103 4751697
0.3161338 0.65134043 0.0076121688 4751947
0.31729138 0.65461242 0.0076757073 4751952
0.32036793 0.65461385 0.0077428818 4751950
0.32664382 0.65802431 0.0039816499 4424531
0.32941589 0.65806913 0.0042947531 4490323
0.33119839 0.66012084 0.0042691827 4490322
0.33281893 0.66223621 0.0039201379 4228186
0.33655387 0.66292006 0.0043365359 4621651
0.3397803 0.66363037 0.0040779114 4293977
0.30398011 0.6480661 0.0075593591 4685897
0.30615711 0.65153098 0.0075291991 4751438
0.30874225 0.65171462 0.0073218942 4817234
0.31435025 0.65334636 0.0050570369 4160854
0.31669849 0.65540832 0.0050973296 4160854
0.31979126 0.65597808 0.0046532154 4424530
0.32210952 0.65676463 0.0043039918 4424017
0.32445782 0.6573016 0.0043003559 4424275
0.29475731 0.6459285 0.0068576932 4685644
0.29840744 0.64608419 0.0067841411 4751435
0.29959989 0.64935946 0.0065141916 4685640
0.30137104 0.65101975 0.0053743124 4619846
0.30521476 0.65159786 0.0046882033 4226385
0.30816156 0.65276456 0.0040487647 4358228
0.31044209 0.6531136 0.0040960908 4358229
0.31241918 0.65393537 0.0038164854 4095839
0.2810058 0.64217621 0.0077272058 4750926
0.28345507 0.64222836 0.0076392293 4685391
0.28522676 0.64272606 0.0070201755 4619597
0.28821179 0.64467996 0.0066774487 4619849
0.29067463 0.64600277 0.0062738061 4685385
0.29392654 0.64663607 0.0052264333 4619847
0.29659587 0.64979899 0.0057169795 4619848
0.3002525 0.65210688 0.0032894015 4030040
0.30261284 0.652605 0.003256619 3964502
0.26764798 0.63725758 0.0068801641 4619083
0.27029073 0.63718158 0.0068711042 4684876
0.27364066 0.6402691 0.0067126751 4619340
0.27628624 0.64027882 0.0060753226 4553287
0.28193736 0.64385462 0.0054430366 4028241
0.28458849 0.64495838 0.0051518083 4290893
0.29298142 0.64796495 0.0024325252 3701340
0.29543525 0.64939642 0.0032830834 3306595
0.29751617 0.65114784 0.0026938319 3700579
0.30014098 0.65269369 0.0028039813 3700326
0.25593406 0.63388872 0.0073071122 4618572
0.25901532 0.63524711 0.00728333 4618573
0.26169381 0.63707709 0.0072370172 4684877
0.26422864 0.63667357 0.0060742497 4553032
0.26711792 0.63932717 0.0059607625 4552775
0.269916 0.64031881 0.005908668 4093517
0.27139524 0.64114648 0.0049573779 3896653
0.27448788 0.64325964 0.0041028857 3174226
0.27753022 0.64472747 0.0034015775 3371604
0.279553 0.64563376 0.0025128722 3634521
0.28285739 0.64667284 0.0018048882 3766615
0.28604752 0.64780635 0.0017826557 3765851
0.28818071 0.6487366 0.0014230609 3569754
0.28961146 0.6505565 0.00061649084 3241310
0.23885751 0.62697363 0.0085318089 4683589
0.24123393 0.62885147 0.0086690784 4552518
0.24508356 0.63005513 0.008539319 4618314
0.24812944 0.63018167 0.0079974532 4618317
0.25001186 0.63376844 0.0076828599 4486985
0.25274032 0.63452387 0.0063419938 4486982
0.25560632 0.63541561 0.005391717 4421186
0.25838721 0.63523161 0.0057559013 4486978
0.26066637 0.63582265 0.0055655837 4552516
0.26399073 0.63972092 0.0055174232 4486981
0.26559186 0.64100182 0.0048133135 3370840
0.27016467 0.64306474 0.0024043322 3700310
0.27360341 0.6440503 0.0021669269 3700311
0.27718738 0.64506316 0.002124846 3831638
0.21863879 0.61926085 0.0099517703 4223299
0.22730528 0.62317252 0.0090013146 4092228
0.23064035 0.62359548 0.0086126924 4355139
0.23286997 0.62685299 0.0086233616 4552267
0.23668957 0.62683624 0.0086782575 4683850
0.24159873 0.63087434 0.0049750209 4552003
0.24400707 0.63121712 0.0048257709 4552261
0.2463437 0.63154876 0.0048336983 4617799
0.25123358 0.63561809 0.0035719872 4158536
0.255613 0.63566756 0.0029966235 3765323
0.25686681 0.63773203 0.0037378669 3371606
0.25936002 0.63931537 0.0030276775 3633757
0.26243085 0.6407758 0.0024340749 3568216
0.26511216 0.64254892 0.0020353198 3765590
0.26761812 0.64283007 0.0021805167 3700310
0.21343431 0.61932003 0.010127127 4223300
0.21595542 0.61938334 0.0098820329 4223296
0.21937892 0.62248683 0.010076106 4025921
0.22173072 0.62260056 0.009693861 4025918
0.22380053 0.62304401 0.00927037 4025922
0.22909093 0.62682331 0.0086473227 4552263
0.23385634 0.63010108 0.0046966672 4551493
0.23679659 0.63021523 0.0049005747 4551495
0.23939076 0.63053894 0.0050254464 4683079
0.24212235 0.63240254 0.0030662417 3830350
0.24502185 0.63360345 0.0026621222 3502413
0.24755491 0.63483286 0.0020400882 3436882
0.25023824 0.63583291 0.0016713738 3502164
0.25249964 0.63743067 0.00055974722 3239764
0.19848837 0.61412394 0.0096806884 4419910
0.20157532 0.61353254 0.010027885 4354373
0.20296252 0.617356 0.0095364451 4354884
0.20586556 0.61813366 0.0087535977 4354888
0.20964977 0.61884892 0.0094491839 4354376
0.22290544 0.62399483 0.0056560636 4156992
0.22757897 0.62820828 0.00351125 3501130
0.23016363 0.63004726 0.0038149357 4091970
0.23306082 0.63056767 0.0027143955 3567177
0.23559034 0.63101554 0.002818644 3567437
0.23873012 0.63162577 0.0029584765 3699278
0.19066501 0.61062527 0.0097416639 4354110
0.19121179 0.61397922 0.0097870231 4485442
0.1946841 0.61429179 0.0095165372 4354626
0.21083584 0.62375808 0.0051924586 4418881
0.21332584 0.62376368 0.0051832795 4288066
0.21614023 0.62474304 0.0044383407 3763013
0.21852785 0.62535334 0.0042670369 3697218
0.2210229 0.62689888 0.0033217072 3435337
0.22386794 0.62683523 0.0037238598 3435084
0.2266307 0.62790209 0.0031841397 3237713
0.2296731 0.62936997 0.0024828315 3238226
0.23271538 0.63083792 0.0017815232 3172690
0.23474364 0.63181651 0.0013139844 3107402
0.23750933 0.63417768 0.0012820363 3435860
0.24055168 0.63564551 0.00058060884 3435858
0.16844065 0.60258919 0.011623025 3892281
0.1696081 0.60551268 0.011983991 4286525
0.17237245 0.60529745 0.012211263 4155456
0.17495172 0.6065712 0.011062324 4089921
0.17814463 0.60727882 0.010406673 4352832
0.18044826 0.60754788 0.010140836 4287554
0.18239965 0.6098547 0.0099880695 4287807
0.18626368 0.61139017 0.0092211366 4419395
0.19881764 0.61895955 0.0049963593 3959878
0.20167468 0.61946893 0.0050106049 3565644
0.2043198 0.62037748 0.0047767758 3500108
0.20681609 0.6214565 0.0042542815 3631434
0.20940092 0.62335461 0.003534317 3762514
0.21191445 0.62460864 0.0030428767 3631441
0.21432912 0.62545341 0.0027418733 3500110
0.2174359 0.6273464 0.001241982 3761755
0.22047827 0.62881422 0.00054067373 3827801
0.22250654 0.62979281 7.3134899e-05 3630678
0.15933546 0.59999782 0.010974228 3956794
0.16094448 0.60092562 0.010057628 3891009
0.16326736 0.60270602 0.011562407 3956795
0.16498156 0.60346329 0.010745108 3694901
0.18247308 0.61292744 0.0070633292 3762766
0.18440935 0.6148361 0.0061756372 3828301
0.18718858 0.61391121 0.0056379437 4156485
0.18963704 0.61647499 0.0057197213 4090951
0.19233346 0.61754131 0.0053828359 3894089
0.19516478 0.61836946 0.0051327348 4025415
0.19686982 0.61868167 0.0048196912 4353344
0.14187774 0.5937801 0.012742996 4089144
0.14334102 0.59492493 0.011648357 4022844
0.14690892 0.59756231 0.011493266 3957306
0.15686856 0.6018123 0.010711491 3825208
0.16033365 0.60297161 0.011198103 3956797
0.16739976 0.60614818 0.0081617832 3498295
0.1707124 0.60763001 0.0066943765 3629126
0.17407127 0.60809755 0.0062562227 3564612
0.17745063 0.61205739 0.0059195161 4155972
0.18057838 0.61274707 0.0060912967 4156486
0.18308626 0.61339617 0.004801333 3958604
0.18583034 0.61504054 0.0039131045 3629904
0.18896085 0.61655098 0.0031914711 3564617
0.19200322 0.61801887 0.0024901628 3630916
0.13571531 0.5910632 0.01279068 4220738
0.14470299 0.59759486 0.01010865 3693893
0.14794022 0.59863073 0.0093484521 3759677
0.15031855 0.6004281 0.0085058808 3562561
0.15319876 0.60130775 0.0084937811 3562555
0.1556765 0.6023286 0.0068671107 3168074
0.15770477 0.60330719 0.0063995719 3365453
0.16093025 0.6057198 0.0060594678 3628357
0.16327822 0.60692263 0.0061691403 3629112
0.16668274 0.60692441 0.0058559775 3957822
0.16840805 0.60766357 0.0058689713 3695431
0.17161368 0.61207145 0.0044044852 3628882
0.1736782 0.61238426 0.0046685338 3826503
0.17567018 0.61402857 0.0034692883 3630158
0.17778659 0.61504966 0.0029814839 3564364
0.14710563 0.60110509 0.0059878826 3825721
0.14904052 0.60191047 0.0062282681 3759935
0.15152448 0.60257906 0.0061052442 3759678
0.15456431 0.60363483 0.0059241652 3562813
0.15828893 0.60544276 0.0060245395 3825725
0.12987107 0.59273183 0.0081483722 3628882
0.1329575 0.594221 0.0074368715 3825488
0.13466455 0.59582496 0.0073766112 3891274
0.13682549 0.59711403 0.0071508288 3563091
0.13957134 0.59930176 0.0066204667 3563083
0.14243431 0.6012429 0.0059350133 3694399
0.14492007 0.60154718 0.0060408711 3694142
0.11424345 0.58908206 0.0089649558 5928555
0.11772721 0.59054738 0.0075902939 3891013
0.12050459 0.59210283 0.0075216293 3892047
0.12274639 0.59356362 0.0071859956 4286021
0.12569447 0.59422249 0.0069240928 4154440
0.12909055 0.59494472 0.006934464 4417088
0.13089992 0.59686196 0.0064982772 4023616
0.13549583 0.5994637 0.006300509 3629895
0.13895246 0.60066557 0.0056098104 4088638
0.11392713 0.59020001 0.0066121221 5269842
0.10484031 0.58739907 0.0064651966 9079408
0.10907783 0.59079838 0.0053984523 7305306
0.10359588 0.58886045 0.0031417012 8816752
0.10777618 0.59240282 0.004093945 7831660
0.095024496 0.58788139 0.0022798181 9207154
0.10055754 0.5890522 0.0026608109 9276516
0.094872102 0.59139121 0.00011020899 9406554
0.098382041 0.59171426 0.00027084351 9473645
0.091280237 0.58784938 -0.00025588274 8353088
0.093459442 0.58874172 -0.0012329221 9472108
0.38452089 0.67389846 0.010585845 6203234
0.39171314 0.67842054 0.009929359 6335075
0.39518544 0.67873335 0.0096587539 6466153
0.39863408 0.67887926 0.0094291568 6335334
0.36924833 0.6692611 0.012351453 5611105
0.37152559 0.67076564 0.011113346 5676895
0.38138384 0.67464066 0.0098451972 6071391
0.38800585 0.6784023 0.0097959638 6006369
0.39108649 0.67993551 0.0064461827 6004576
0.3934713 0.68011165 0.0063377023 6004832
0.39550045 0.6806016 0.0058355927 5873506
0.40145299 0.68537927 0.0067306161 6793833
0.40414917 0.68656576 0.0056604743 7514979
0.40692657 0.68765938 0.0047478676 10666115
0.40961033 0.68729258 0.0048002005 10729096
0.42105424 0.69363731 -0.0006545186 10652980
0.36530682 0.66953933 0.012069225 5676904
0.37573284 0.67545485 0.0091717839 6399336
0.37802947 0.67558843 0.0090838075 6268002
0.38157606 0.67683202 0.0066567063 5872477
0.3851541 0.67801678 0.0062109828 5084516
0.38701168 0.68035197 0.0060386658 5478755
0.38882181 0.68034744 0.004616797 4953441
0.39205459 0.68223512 0.0046365857 3706738
0.39505285 0.68368179 0.0039454103 3903607
0.39716882 0.68543816 0.0037645698 4888681
0.39941806 0.68605322 0.0027569532 4888682
0.40290129 0.68746847 0.0021361709 6132359
0.40484127 0.68840456 0.0016889572 6461324
0.40781385 0.68986583 0.001654923 8622420
0.41096377 0.69092345 0.0015452504 7895349
0.41333765 0.69236398 0.0003464818 8091707
0.41594541 0.69363004 -0.00069457293 9076804
0.41847625 0.69438523 -0.0011716485 9535292
0.42144436 0.69681758 -0.0018163919 10126911
0.36341742 0.66978908 0.0073471665 5214032
0.36711207 0.67339998 0.0073199272 5608536
0.36945629 0.67362261 0.0071328282 5608538
0.37322006 0.67350125 0.0072182417 5740123
0.37527168 0.67703778 0.0070407391 5937497
0.37782237 0.67760336 0.005679369 5544029
0.38041866 0.67895055 0.0048403144 5347171
0.38339198 0.67998338 0.004404664 5347422
0.38542545 0.68066549 0.0040771365 5216610
0.38878348 0.68321669 0.0039791465 4888932
0.39147431 0.68457758 0.0033324361 4954719
0.39351636 0.68594927 0.0025179982 4889440
0.39580762 0.68650138 0.0022986531 5020510
0.39970481 0.68690383 0.0013539195 5415013
0.40200382 0.68881845 0.00082278252 6661735
0.40468711 0.68958235 -0.00020414591 7907446
0.40595001 0.69163787 -0.0017378926 7048029
0.41992223 0.69763768 -0.004570663 10520364
0.42274779 0.69906676 -0.005309999 10520113
0.35044903 0.66609454 0.0082917213 5279314
0.3524712 0.66644901 0.0079672933 5278803
0.35456127 0.66686928 0.0075830817 4621404
0.35713428 0.67040104 0.0071977973 5410390
0.36082226 0.66995406 0.0072570443 5410646
0.36426097 0.67234874 0.0067712665 4688478
0.36581671 0.67293227 0.0060344338 5147996
0.36868274 0.67508888 0.0060589314 4951142
0.37113625 0.6767354 0.0055630803 4886114
0.37438157 0.67720544 0.0053752065 5018205
0.37693208 0.67891824 0.0053893924 4033397
0.37984216 0.68032229 0.0047186017 3639924
0.38187039 0.68130082 0.0042510629 4295790
0.40301293 0.69220459 -0.0017324686 8432230
0.40504217 0.69269443 -0.0022347569 7508817
0.40797302 0.69395387 -0.0027899146 4807195
0.41091171 0.69537985 -0.0038647652 5002518
0.41394454 0.69588137 -0.0039245486 6906140
0.41616404 0.69865656 -0.0053361058 9468718
0.41902664 0.69943029 -0.006015718 10060340
0.42170811 0.70024258 -0.0066214204 10651162
0.33916235 0.66285044 0.0081276298 4884563
0.34188622 0.66268146 0.0082761645 4950355
0.3434844 0.66451037 0.0082141161 5015892
0.34623927 0.66629952 0.0081679225 5081936
0.35528982 0.66939306 0.0052035451 4557666
0.3566407 0.67102432 0.0051311851 4950867
0.35980716 0.67123485 0.0050424933 4885592
0.3621099 0.67199254 0.0048113465 4885848
0.41311318 0.6982426 -0.0057870746 6052656
0.41432133 0.69915551 -0.0065059066 8416786
0.33189499 0.66088158 0.0074074864 4884301
0.33504611 0.66041028 0.0077925324 4884046
0.33660728 0.66321319 0.0081335902 4884309
0.34176451 0.66649354 0.0058876872 4555355
0.34457001 0.66774237 0.0050945282 4621659
0.3477309 0.66810572 0.0051372051 4686939
0.35078666 0.66880322 0.0049312711 4490072
0.35243785 0.67060852 0.004722178 4819798
0.32094589 0.65802544 0.0075523257 4752205
0.32350054 0.65790689 0.0075636506 4818252
0.3259334 0.65792775 0.0073389411 4884046
0.32805663 0.66137207 0.0065408349 4883792
0.33112308 0.66151488 0.0053842664 4818254
0.33360216 0.66235769 0.0051125288 5015116
0.33580023 0.66580164 0.0053766966 5015113
0.3389008 0.66664362 0.0048474669 4621908
0.34064066 0.66745007 0.0044905543 4228442
0.34309906 0.66764224 0.004734695 4294744
0.30745322 0.65445065 0.0079484582 4686160
0.31112731 0.65452874 0.0078166723 4686161
0.31480142 0.65460682 0.0076848865 4752206
0.31609994 0.65720165 0.0071069598 4159578
0.31861746 0.65901423 0.006244123 4292435
0.32102305 0.65988165 0.0056225657 4095831
0.32427171 0.66053045 0.0048398376 4030301
0.32764447 0.66155457 0.0041512847 3767900
0.3292594 0.6628015 0.0039278865 3701861
0.33119944 0.66373742 0.0034806728 4029050
0.33550006 0.66689146 0.0041418672 4359261
0.2968986 0.64926553 0.0068975091 4816972
0.30227143 0.65191388 0.0072161555 4685901
0.30497837 0.65465438 0.006739676 4751437
0.30697563 0.65519339 0.0056603551 3897188
0.30992338 0.65629232 0.0051373839 3963484
0.31194639 0.65728259 0.0050816536 4095063
0.314928 0.65879107 0.0048165917 4424017
0.31817311 0.65956485 0.0036649108 4161883
0.3205263 0.65992749 0.0038098693 4162142
0.28669232 0.64559531 0.0075767636 4750922
0.2929979 0.6495887 0.0062713027 4619850
0.29786372 0.65309507 0.0063093305 4685644
0.30007219 0.65410411 0.0057036281 4685896
0.30264261 0.65426135 0.0058692694 4685894
0.30596972 0.65680999 0.0034996867 4030298
0.30820072 0.65755647 0.003425777 4030300
0.31084904 0.65834904 0.0032910705 4096092
0.27480814 0.64319259 0.0070735812 4684878
0.27818713 0.64461899 0.0072539449 4685135
0.28084087 0.646402 0.0070021749 4685390
0.28371751 0.64615178 0.007150948 4750926
0.28633681 0.64952344 0.006139338 4685386
0.28891468 0.64969379 0.0061185956 4619594
0.29958761 0.6544801 0.0041427016 3765856
0.30230081 0.65655661 0.0031231046 3964249
0.26397139 0.64030129 0.0071399808 4684620
0.26609862 0.64048529 0.0069147944 4684622
0.26859343 0.64267588 0.00682652 4290894
0.27140331 0.64361721 0.0064741373 4093779
0.27394703 0.64476299 0.0053951144 3896654
0.27739447 0.64551985 0.0052088499 3962445
0.27900505 0.64749277 0.004272759 3502938
0.28253078 0.64934516 0.003644526 3897174
0.28518909 0.65042973 0.0025657415 3766105
0.28760475 0.65170395 0.0016919971 4029523
0.2898784 0.65261197 0.0016490817 3634783
0.29310384 0.6528101 0.0015439391 3964250
0.24601711 0.63315308 0.0087425113 4486984
0.24872451 0.63295299 0.0087541938 4552777
0.25180706 0.63639688 0.0081816316 4355656
0.25496101 0.63678694 0.007676065 4553034
0.25720274 0.64000553 0.0076577663 4487502
0.26027471 0.6399951 0.0064502358 4487241
0.26177227 0.64010614 0.0075224042 4684621
0.26455122 0.64358997 0.0052246451 4552775
0.26795238 0.64321977 0.0059216619 4487238
0.26981175 0.64400446 0.0052996278 4553029
0.27422294 0.64699066 0.0031377673 3897425
0.27598661 0.64784169 0.0027311444 3766356
0.27813643 0.64868093 0.0024997592 3766355
0.28049672 0.6491791 0.0024668574 3832150
0.23679975 0.63059682 0.0081723332 4618310
0.2394058 0.63327289 0.0085989833 4486726
0.24293065 0.63350022 0.0083780885 4486979
0.24885869 0.6366359 0.0081900954 4421189
0.25137365 0.63876569 0.0053566098 4355397
0.25329015 0.63953519 0.0049502254 4486727
0.25652188 0.6394608 0.0056549907 3567960
0.2591151 0.64063978 0.0053109527 3698776
0.26142555 0.64196348 0.0049862862 3370842
0.26412925 0.64494121 0.0037623048 3634003
0.26630169 0.64637208 0.0024074316 3831633
0.26891291 0.64648259 0.0026518703 3831633
0.27131373 0.64693439 0.0026977658 3831634
0.28533542 0.65443695 2.7537346e-05 3699806
0.21699415 0.6223107 0.010184586 3960385
0.22022192 0.62578189 0.009807229 4091455
0.22324692 0.62629795 0.009252131 4157506
0.22644818 0.62689924 0.0086562037 4486729
0.22768025 0.62969863 0.0090376735 4749385
0.23116437 0.63009453 0.0087467432 4618060
0.23435034 0.63054466 0.0082601905 4684108
0.23954053 0.63474172 0.0046329498 4486211
0.24213515 0.63482112 0.004740417 4552004
0.24506833 0.6347999 0.0051221251 4617799
0.24705604 0.63582492 0.0045759082 4618056
0.24972378 0.63882613 0.0028761029 3501912
0.25246739 0.63978696 0.002728045 3108941
0.25729841 0.643484 0.0030555129 3831116
0.25980657 0.64309287 0.0022948384 3765326
0.26179171 0.64503455 0.002671659 3831117
0.20816265 0.62176508 0.0098393559 4354633
0.21201377 0.62254381 0.01022023 4223558
0.21431084 0.62243307 0.010114849 4157506
0.21716836 0.6261915 0.0097165704 4091458
0.22439031 0.62867475 0.0049208999 4288318
0.22630686 0.62944406 0.0045146346 4354369
0.23456156 0.63424188 0.0046165586 4617543
0.2372849 0.6343174 0.0047823787 4617541
0.24006017 0.63644648 0.002830565 3764560
0.24387336 0.63733709 0.0027887225 3764818
0.24611187 0.63797462 0.0025196671 3699028
0.19471641 0.61698991 0.010138571 4420164
0.19678618 0.61743331 0.0097150803 4485703
0.19956537 0.61902267 0.0096020699 4485958
0.20223226 0.62064707 0.0095674396 4420420
0.20508544 0.62022996 0.0097569823 4420422
0.21649702 0.62798774 0.0051522851 4025150
0.22047952 0.62833691 0.004957974 4025407
0.22217144 0.63101286 0.0036325455 3632460
0.2283673 0.63354802 0.0038413405 4289092
0.23138456 0.63429511 0.00349015 4158026
0.23360218 0.63483119 0.0029180646 3698521
0.23660098 0.6360141 0.0025790334 3567190
0.23999834 0.63743198 0.0019194484 3962202
0.24202661 0.63841057 0.0014519095 3567444
0.24506901 0.63987839 0.00075060129 3501916
0.17939322 0.61010945 0.010925114 4222017
0.18476973 0.61404872 0.0097804666 4419651
0.18897982 0.61372149 0.0098956823 4485443
0.18948615 0.61712182 0.0098623633 4485442
0.19178274 0.61725545 0.0097743273 4420161
0.20878707 0.62476116 0.0045531392 3762505
0.21139529 0.62725592 0.0043637753 3630919
0.213605 0.62802327 0.0039954782 3630663
0.21637833 0.62975252 0.0029200315 3171145
0.2196697 0.63086009 0.0025447607 3434574
0.22192903 0.63165712 0.001470089 3368020
0.22488762 0.63278925 0.0029001832 3697998
0.16603677 0.60642183 0.011184633 4154939
0.17253116 0.61049467 0.010495603 3959102
0.17645948 0.61037511 0.010560811 4221758
0.18113644 0.61472011 0.0094442964 4485189
0.1898285 0.61959344 0.0061903 3697485
0.19406086 0.62188005 0.0052317977 3763022
0.19617777 0.62265682 0.0047266483 4091204
0.19928075 0.62325907 0.0046901107 4025670
0.20241611 0.62392223 0.0047575831 3828552
0.2051459 0.62517273 0.0041311979 3960132
0.20715739 0.62765145 0.0032870173 3500875
0.20947614 0.62868464 0.0032101274 3500105
0.21174815 0.62914026 0.0031976104 3171911
0.15803497 0.60663366 0.010858834 3694395
0.1625777 0.60729587 0.010306537 3892022
0.16889435 0.61018026 0.010786355 4221252
0.17496511 0.61173534 0.0069252849 3696455
0.17988297 0.61653244 0.0060784817 4156489
0.18242812 0.61700916 0.006064713 4090954
0.18564272 0.61696064 0.0053964257 4353090
0.18851785 0.6188525 0.005348742 3696718
0.19171244 0.62048316 0.0046649575 3696974
0.19292866 0.62153387 0.0040232539 4024905
0.19559453 0.62180507 0.0028734803 3564621
0.19762279 0.62278366 0.0024059415 2843223
0.14310634 0.60012615 0.012169838 4089409
0.14720348 0.6024639 0.010485828 4022845
0.15110478 0.60431516 0.0098856688 3890743
0.15445867 0.60361171 0.010664463 3693880
0.15981324 0.60751116 0.010079205 3825976
0.16550693 0.61099601 0.0064077973 3958067
0.16820998 0.61143768 0.0063171983 3629637
0.17170985 0.61139745 0.0061166883 3827009
0.17301942 0.6153816 0.0053786635 4221247
0.17696726 0.61560524 0.0055093169 4418625
0.18543434 0.62079316 0.0024296641 3302997
0.13106953 0.59498662 0.012163341 4286531
0.13537951 0.59711254 0.011451364 4351810
0.13795586 0.59893411 0.010944545 4286270
0.1402595 0.59920317 0.010678649 4220222
0.14401414 0.6013329 0.01076287 3892030
0.14834031 0.60453045 0.0096583962 3957052
0.15381604 0.60660589 0.0059450269 3759676
0.15660712 0.60872883 0.00609833 3365950
0.15861928 0.60992289 0.0057660937 3694649
0.1612898 0.61020589 0.0058910251 3760445
0.16402002 0.61053896 0.0058878064 3892287
0.14011611 0.60187113 0.0082617402 3431246
0.14214437 0.60284972 0.0077940822 3430989
0.14402008 0.60470581 0.0067797899 3431496
0.14713928 0.60542953 0.0063301921 3562819
0.14983274 0.60633671 0.0059751868 3431229
0.15204084 0.60783607 0.0055741072 3299906
0.15569647 0.60947233 0.0050160885 3627840
0.1167966 0.59245664 0.0096402764 5005907
0.11992715 0.59396702 0.0089185834 4087630
0.12195541 0.59494555 0.0084510446 4154707
0.12407185 0.5959667 0.0079631209 3891535
0.12749705 0.5975585 0.0069683194 3563344
0.13009223 0.59947586 0.0061697364 4022853
0.13337821 0.59948051 0.0060040355 3957828
0.13616747 0.60200822 0.0059312582 3891778
0.13788533 0.60418415 0.0058852434 3825985
0.14049256 0.6047765 0.005399406 4022589
0.14442728 0.60515875 0.00531286 3825720
0.11553182 0.59443235 0.0065669417 5072715
0.11851768 0.59432566 0.0069984198 4219967
0.1210124 0.59697551 0.0066410899 4089409
0.12440145 0.59723485 0.0066361427 3958342
0.1267847 0.59847152 0.0067728758 4351552
0.11240883 0.5946492 0.0060175061 6714719
0.1049241 0.59233117 0.0038695931 8751204
0.10867432 0.59574187 0.0046480298 7896932
0.10401957 0.59308672 0.0030030012 9079668
0.10676454 0.59528822 0.0037767291 8094568
0.10014413 0.59434414 0.0016130805 9670761
0.093584612 0.59326649 -0.0015498996 10063977
0.090155825 0.59285051 -0.0015530586 8089922
0.38425082 0.67829484 0.0097615719 6071391
0.39288247 0.68403935 0.0080686212 6728038
0.39560631 0.68387055 0.0082172155 6925418
0.39843315 0.68456686 0.0074257255 6662500
0.36560279 0.67328084 0.011837363 5742174
0.36785877 0.67346096 0.01167053 6070878
0.37020314 0.6736834 0.011483371 5938781
0.37327105 0.67517936 0.010870039 5808222
0.37969828 0.67798114 0.010016501 5808219
0.38195422 0.67816126 0.0098497272 5940060
0.38667518 0.68160391 0.0070351958 4230505
0.3884486 0.68308842 0.0075052381 5282146
0.39143813 0.68431336 0.0064762235 5610853
0.39434242 0.68550003 0.004833281 5479014
0.39646363 0.68632662 0.0047788024 4624503
0.39937371 0.68773073 0.0041078925 5149536
0.402219 0.69122291 0.0045751333 7904063
0.40394261 0.69187599 0.0040724874 9675607
0.42112583 0.69888037 -0.00052028894 9928526
0.4236244 0.70041323 -0.00090306997 9665356
0.36319393 0.67318231 0.012004077 5807968
0.37377277 0.67901623 0.0091068745 5874016
0.37554401 0.67975819 0.0085051656 5807964
0.3799431 0.68076044 0.0062372684 5806426
0.38280356 0.68186736 0.0057131648 5610077
0.38456327 0.68348765 0.0054238439 5544542
0.38748652 0.68468809 0.005007267 5479264
0.38964522 0.68697751 0.0043563843 5741907
0.39268532 0.68868488 0.0031625628 5807699
0.40655375 0.69467723 0.0015854239 10524230
0.40876925 0.69490367 0.001339972 9864757
0.41096917 0.69644654 -0.00015336275 10390338
0.41417879 0.69706345 -0.00068074465 10652996
0.41740859 0.69765705 -0.0011686087 10784315
0.42177647 0.70111555 -0.0027758479 10849324
0.36193877 0.67351675 0.0072592497 5542487
0.36505389 0.67726731 0.0069778562 5674329
0.36750323 0.67731953 0.0068899393 5739863
0.37109247 0.67754489 0.0066983104 5805912
0.3724246 0.67991525 0.0056319833 5609041
0.37605262 0.68117023 0.00569731 5346399
0.37825698 0.68262625 0.0053697824 4492660
0.38059694 0.68314761 0.0052976012 4558955
0.3836056 0.68449241 0.005176127 5018720
0.38628742 0.68602109 0.0047599673 5872722
0.3896943 0.68725157 0.003667295 4362859
0.39189488 0.68940997 0.0027272105 4823404
0.3945179 0.69003099 0.0021235943 5873235
0.39694059 0.69003165 0.0013204217 5414239
0.39977062 0.69214243 5.9902668e-05 6331500
0.40266234 0.69404364 -0.0005518198 9219460
0.40469921 0.69505799 -0.0012354851 8687730
0.40691456 0.69534838 -0.00036364794 5791039
0.41305071 0.69917297 -0.0036183 9074216
0.41637552 0.70104879 -0.0037165284 9928244
0.41915196 0.70122182 -0.0043460727 10717224
0.42098403 0.70373052 -0.0059057474 10585388
0.42375308 0.7034632 -0.0055211186 10585135
0.34784627 0.66967773 0.0081897378 5082193
0.35154906 0.669626 0.0081568956 5279063
0.35428679 0.6712594 0.0077101588 4818527
0.35579276 0.67389548 0.007134378 5015900
0.35878667 0.67426032 0.0062097311 5016415
0.36146849 0.67483908 0.0057728887 4820060
0.36481267 0.67579007 0.0052990317 5083224
0.37034178 0.68042636 0.0052915812 5346652
0.37301302 0.68175197 0.0051420927 5084258
0.403804 0.69662756 -0.0023254752 10132334
0.40683639 0.697523 -0.003899157 6973988
0.40934297 0.69908953 -0.0049964786 7366942
0.41196004 0.70012808 -0.0058589578 8024100
0.41373366 0.70240855 -0.0059357285 9994534
0.41666403 0.70321798 -0.0062056184 10388261
0.41854537 0.70375949 -0.006093204 10322753
0.33345854 0.66344488 0.0082409382 4949842
0.3352291 0.66639543 0.0088151693 4949847
0.33927602 0.66625154 0.0083604455 5015890
0.34401453 0.66973341 0.0081638694 5016144
0.34664324 0.67115891 0.0063171387 4621405
0.34945899 0.67220235 0.0056303144 4621916
0.35191542 0.67373848 0.0054405332 4556636
0.35532439 0.67448491 0.0053523183 5082455
0.32963231 0.66400003 0.0078085065 4949583
0.340267 0.67042959 0.0051703453 5147217
0.34285146 0.67102039 0.0049919486 4556889
0.34652716 0.67210281 0.004837811 4491871
0.31717071 0.66161954 0.0075525641 4949068
0.32072943 0.66142082 0.007570684 4949325
0.32409266 0.66158938 0.0070175529 4883791
0.32630515 0.66450626 0.0061586499 4489557
0.32901233 0.66495717 0.0050725341 4292954
0.3317425 0.66625333 0.0046086907 4292962
0.33427519 0.66925675 0.0045166612 4096356
0.33684689 0.66994679 0.0045728087 4359003
0.33900923 0.67125934 0.0044023395 4360029
0.30194789 0.65504795 0.0074531436 4751439
0.30555487 0.65837187 0.0074288249 4751692
0.3091169 0.65838242 0.0069971681 4751696
0.31158113 0.65931886 0.0063651204 4488534
0.31427252 0.66154146 0.0064588189 4291163
0.31686044 0.66360724 0.0052012801 4029525
0.31899381 0.66441524 0.0048329234 4161368
0.32218394 0.66489744 0.0041853786 3964767
0.32509965 0.66512489 0.0045197606 4490064
0.29436857 0.65274036 0.0068843961 4751440
0.29688594 0.65561819 0.0073487163 4882770
0.29944053 0.6554997 0.0073600411 4816974
0.30333853 0.65850639 0.0054744482 4685896
0.30578738 0.65880275 0.0054039359 4620363
0.31520212 0.66374505 0.0032153726 4030552
0.31894851 0.66444993 0.0034796 4227674
0.28209651 0.64936817 0.007342875 4685389
0.28428799 0.64967221 0.007155478 4685387
0.28763747 0.65300405 0.0070144534 4685904
0.2903868 0.65353358 0.0057834983 4750920
0.29464942 0.65387559 0.0053136349 4685641
0.2957654 0.65768266 0.0053331852 4554569
0.29802054 0.65835142 0.0052010417 4489287
0.30127299 0.65819126 0.0049552321 4226131
0.30457544 0.66155303 0.0029509068 4161366
0.30660272 0.66302019 0.0025180578 4095828
0.30892944 0.66370022 0.0022286773 4096083
0.31159106 0.66341585 0.0028491616 4096084
0.26530802 0.64317453 0.007637918 4553548
0.27312958 0.64666855 0.0070672631 4685134
0.27606383 0.64824092 0.0065254569 4619339
0.27893156 0.64938247 0.0061873794 4553803
0.28129721 0.65129834 0.005209744 4553799
0.28453118 0.65306616 0.0054758191 4685385
0.28670615 0.65333915 0.0051514506 4751176
0.29028046 0.65592372 0.0034376979 3634785
0.29235929 0.65681231 0.0025098324 3700830
0.29467562 0.65755445 0.0023049116 3701078
0.29730141 0.65920436 0.0023912191 3766870
0.24810743 0.63719332 0.0095409155 4486727
0.25376511 0.63939118 0.0084310174 4421703
0.25844419 0.64270067 0.0083539486 4553037
0.26163396 0.64309645 0.0077697635 4619085
0.2672478 0.64662397 0.0075303912 4619340
0.27085632 0.64725089 0.006295383 4553544
0.27377281 0.6477477 0.0057211518 4553287
0.28001359 0.65305525 0.0023347735 3766869
0.28331128 0.65420568 0.0020766854 3898456
0.28536308 0.65535092 0.0015682578 3898458
0.28791669 0.65572107 0.0016143918 3898456
0.29021943 0.65647876 0.001383245 3964505
0.2395383 0.63597471 0.0091716647 4224067
0.24133363 0.636639 0.0085117221 4289860
0.24380663 0.63685763 0.0083829761 4420932
0.25013131 0.6393888 0.0086502433 4486986
0.2544331 0.64278066 0.0053867102 4486725
0.25839263 0.64308774 0.0054969192 4421191
0.26211834 0.64356923 0.0054494739 4618309
0.26365179 0.64650416 0.005946219 3830863
0.26613432 0.64741474 0.0055854321 3962190
0.26817495 0.64823228 0.0050801635 3962191
0.27106351 0.65045202 0.0034407973 3568727
0.27461517 0.65128148 0.0032436252 3568985
0.27679747 0.65205854 0.0030226111 3568987
0.2797997 0.65381956 0.0025147796 3436642
0.28275383 0.65524495 0.0018338561 3634025
0.28478211 0.65622354 0.0013663173 3437922
0.28681031 0.65720212 0.00089865923 3503714
0.22527145 0.62960005 0.0092043281 4749129
0.23000433 0.6327045 0.0094230771 4486986
0.23310898 0.63336968 0.0087877512 4683853
0.23532444 0.63359618 0.0085422397 4618313
0.23696017 0.63592649 0.009201169 4421191
0.24753779 0.63954729 0.0046180487 4289346
0.24990487 0.64214504 0.0055660009 4552009
0.2514807 0.64284587 0.0041939616 3764818
0.25370115 0.64361191 0.0034596324 3436888
0.25902775 0.64776552 0.0030389428 3699794
0.26269358 0.64831901 0.0031283498 3765590
0.26473826 0.64932889 0.0027977228 3700053
0.26691222 0.65009046 0.0025081038 3766359
0.21222912 0.6261338 0.0098136067 4157763
0.2156859 0.62727749 0.010231674 4157508
0.21791565 0.62955284 0.0096630454 4354370
0.22144808 0.62967128 0.009247005 4420419
0.22605927 0.63291502 0.0092296004 4486727
0.2367695 0.63825548 0.0046399236 4354626
0.24035087 0.63871205 0.0046520829 4223295
0.24237256 0.63931084 0.0043449402 4289088
0.24465172 0.63990188 0.0041547418 4420677
0.24675252 0.64223945 0.0024190545 3567695
0.24925849 0.64252061 0.0025641322 3765072
0.20310879 0.62376028 0.0095550418 4420680
0.2064925 0.62513459 0.0098927617 4486218
0.20952123 0.62657821 0.0098193288 4223815
0.22300321 0.63171667 0.0052704811 4551234
0.22485508 0.6326102 0.0048435926 4617284
0.22809029 0.63695455 0.004850328 4617538
0.23034544 0.63762319 0.0047183633 4617794
0.23260799 0.63818306 0.0043910742 4551747
0.23859584 0.63991523 0.0028364658 3436111
0.24172887 0.64067554 0.0026872754 3436112
0.24437506 0.64178991 0.0021508336 3370583
0.18706025 0.6172365 0.0099093318 4551238
0.19240081 0.62086499 0.0096798539 4485702
0.19472145 0.62092096 0.0095335245 4485959
0.19725893 0.62101567 0.0094252229 4485959
0.20059475 0.62383235 0.009622395 4420935
0.2131746 0.62948668 0.004699409 3301957
0.21612327 0.63136256 0.0044457316 3499336
0.21925342 0.63294488 0.0042005777 3566417
0.22067972 0.63451183 0.0035009384 3435094
0.22311631 0.63575459 0.0030213594 3763027
0.2262639 0.63703328 0.0023066998 3697491
0.22930877 0.63816774 0.0020170212 3632465
0.23124355 0.63948351 0.0021775961 3829847
0.23406906 0.64099503 0.0015289187 3501139
0.17460454 0.61376595 0.010595024 4155967
0.17780939 0.6144349 0.0099102855 4353345
0.18009783 0.61731291 0.010365546 4419137
0.18342675 0.61711192 0.010119975 4616259
0.18869461 0.62072682 0.0097927451 4485700
0.20296827 0.62765276 0.0043025613 4484928
0.20692451 0.62860769 0.0046061873 4025412
0.20900592 0.63117903 0.0046694875 3762500
0.21099007 0.63213634 0.0042122006 3696963
0.21714887 0.63484377 0.0031447411 3500876
0.16382624 0.6101265 0.010824978 4352576
0.16659068 0.6099112 0.011052191 4352580
0.16879416 0.61428201 0.010081828 4155709
0.17109779 0.61455107 0.0098159313 4090173
0.17772008 0.61727226 0.010296106 4287294
0.18494266 0.61987996 0.0057641864 4025415
0.18753184 0.62129617 0.005202353 4419140
0.18931158 0.62332332 0.0055235028 3960137
0.19249682 0.62508136 0.0056394935 3829069
0.19500919 0.62629151 0.0048051476 4091462
0.19795111 0.62622291 0.0042399764 3696464
0.20069635 0.62740046 0.0037574172 3696717
0.20296569 0.62844169 0.0029910207 3302483
0.20557784 0.63004422 0.0025907159 3367760
0.20877378 0.63227057 0.0022577643 3170115
0.15066317 0.60631096 0.011163235 3956796
0.15410668 0.60675323 0.010793626 3759422
0.1593693 0.61066467 0.010326207 4220474
0.16785781 0.61435848 0.0066719651 3630156
0.17001477 0.6153332 0.0062628388 3564872
0.17279521 0.61539346 0.0066444278 3696714
0.17513339 0.61768818 0.0060949326 4090438
0.17757359 0.6182133 0.0059732795 4222021
0.17955829 0.62021351 0.0052413344 4419138
0.18241757 0.62042034 0.0052879453 4353346
0.18688527 0.62363583 0.0033590794 3302995
0.18891352 0.62461436 0.0028915405 3302995
0.19102991 0.62563562 0.0024036169 3630162
0.19305815 0.62661421 0.0019360781 3564369
0.14481227 0.60687327 0.01057148 4023613
0.14650238 0.60770822 0.0098122954 4088638
0.1556311 0.6104663 0.010420263 4220219
0.16002814 0.6130541 0.0063792467 3629896
0.16298585 0.61393505 0.0059680343 4155197
0.16577387 0.6144985 0.0057957768 3958340
0.16932201 0.61501467 0.0055425763 4220736
0.17167735 0.61844718 0.0059730411 4221246
0.13022994 0.59917402 0.011382401 4614728
0.13276403 0.60281539 0.010319591 4352583
0.13504361 0.60316205 0.010111928 4549701
0.1398697 0.60472554 0.010707438 4155200
0.14298211 0.60515976 0.0098683238 4088898
0.1498803 0.60863572 0.0072219968 3036990
0.1518631 0.61004853 0.0061131716 3562813
0.15468055 0.61180186 0.0061405897 3365952
0.15749918 0.61289263 0.0058930516 3563071
0.15953675 0.61366343 0.005276978 3694895
0.16848722 0.6176132 0.0029327273 3498320
0.17051548 0.61859179 0.0024651885 3498320
0.17263192 0.61961287 0.0019772649 3629904
0.17466016 0.6205914 0.001509726 3629904
0.17774668 0.62208056 0.00079828501 3695696
0.18094532 0.62353456 8.225441e-06 3302997
0.1300759 0.60163891 0.0092321634 3957325
0.13180782 0.6017527 0.0073910356 3693648
0.13493842 0.60326314 0.0066693425 3497039
0.13751559 0.60656005 0.007286489 3431250
0.14014237 0.60663563 0.0062955618 3431499
0.1416603 0.60855973 0.0063310266 3431750
0.14465889 0.60982311 0.0056267977 3365695
0.14720558 0.60999668 0.0058464408 3628350
0.14950912 0.6112479 0.006159842 3497284
0.12405047 0.60021508 0.0069236159 3761736
0.12616688 0.60123622 0.0064356923 3761736
0.12870431 0.60274017 0.0060791373 4023876
0.13146709 0.60288894 0.0060774684 3958084
0.13379033 0.60350132 0.0058770776 3957828
0.13882464 0.60937369 0.004588306 4022844
0.14123298 0.60971653 0.0044390559 3956793
0.11462027 0.59836733 0.0078969598 6782323
0.11616847 0.59936476 0.0068623424 5137491
0.11853625 0.60021305 0.0063653588 4285761
0.12157871 0.60165185 0.0062183738 4089162
0.12457801 0.60303974 0.005777657 4153931
0.12613469 0.60350347 0.005630374 4351811
0.11191605 0.59966981 0.0050411224 7174750
0.11472173 0.59904158 0.0053211451 5335363
0.10832503 0.5989486 0.0044334531 7963239
0.10304143 0.59787261 0.0020534992 8751206
0.095261797 0.59604371 -0.00026780367 9669978
0.098954082 0.59903997 0.00086778402 9275996
0.10016087 0.59884965 0.0012771487 9341280
0.09203063 0.59611917 -0.00084489584 8945231
0.094872296 0.59678364 -0.000900805 9735526
0.096417308 0.60004711 -0.0003220439 9407075
0.090485111 0.59824657 -0.0026045442 9339477
0.38298163 0.68259728 0.0090793371 6268001
0.3859615 0.68358082 0.0085689425 6399584
0.39593804 0.68988121 0.0060029626 6593106
0.39876699 0.68954182 0.0062506795 6527050
0.40039253 0.69050086 0.0054711103 6657082
0.42280638 0.70305419 0.0010759234 9599310
0.36329919 0.67577177 0.012715161 5544283
0.36583406 0.67714643 0.011584997 5741656
0.36949641 0.67848647 0.010107934 5676889
0.37642947 0.68301153 0.0088247657 5873244
0.37921789 0.68271863 0.0089938045 6005343
0.38187903 0.68438721 0.0063208938 5675355
0.39245921 0.69010687 0.0058959723 6856276
0.40485653 0.69370687 0.0025225282 10790496
0.41719154 0.70050073 -0.00058609247 11046971
0.41899469 0.70228481 -0.00058966875 11046965
0.42055699 0.704108 -0.00057303905 11178297
0.42292473 0.70449734 -0.00080108643 11244086
0.36674798 0.67897725 0.010034919 6004832
0.36992222 0.68062556 0.0070858598 5740122
0.37355974 0.68204641 0.0076380372 6003289
0.3778834 0.6851148 0.0057600737 5674582
0.38124716 0.68491715 0.0051807761 5609806
0.38469192 0.68659055 0.0059176087 4951901
0.3856231 0.6887002 0.0048618913 5871961
0.38870451 0.68932247 0.0044459701 6594907
0.39165235 0.69024587 0.0039168 4690278
0.39412701 0.69098669 0.00292027 5281892
0.39626768 0.69269419 0.0012688041 5806429
0.39903021 0.69431055 -8.9943409e-05 7709778
0.40937123 0.70007408 1.5079975e-05 10718769
0.41190314 0.70113653 -0.0010434985 10849848
0.41528344 0.70146108 -0.0011960864 10059842
0.41817787 0.70283628 -0.0017489195 9796177
0.42026901 0.70454019 -0.0043612123 10848556
0.42271829 0.70459235 -0.0044491291 10914087
0.35625368 0.67488509 0.0085813403 4424044
0.35819376 0.67582107 0.0081341863 4555630
0.36115456 0.67738056 0.0071479082 5213279
0.3640762 0.6794492 0.0061963201 5279840
0.3663936 0.67995888 0.0060016513 5279841
0.36884224 0.68084615 0.0054860711 4360556
0.37140399 0.68356127 0.005556047 4622437
0.37387395 0.68483627 0.0052476525 5214819
0.37623852 0.68669075 0.0050387979 4164206
0.37933022 0.68774104 0.004743278 4821864
0.38186026 0.68912816 0.0041099191 4821868
0.38442719 0.69013572 0.0038264394 5216103
0.38727039 0.69190347 0.0026425719 4099440
0.38921034 0.6928395 0.0021952987 3836268
0.39520699 0.69573271 0.00081306696 3899994
0.398359 0.69568801 -0.00048756599 5739102
0.40034938 0.69780105 -0.0010815859 8032098
0.40307361 0.69863153 -0.0020373464 9802603
0.4049685 0.69966602 -0.0027205944 7958341
0.40860331 0.70079231 -0.0037806034 8415517
0.41130352 0.70262051 -0.0044742227 9797164
0.41355747 0.7022652 -0.0047864318 10651438
0.41643286 0.70573068 -0.0049008727 10716708
0.33889133 0.66969949 0.0084966421 5016142
0.34119502 0.66996849 0.0082307458 5016145
0.34229773 0.67301619 0.0085712075 5278804
0.34603721 0.67380846 0.0080860257 5015387
0.34923148 0.67447853 0.0077674985 4949857
0.35164309 0.67560208 0.0068067908 4557408
0.35400903 0.67749941 0.0062838197 4688736
0.35709023 0.67767239 0.0062382817 5148768
0.36025029 0.67852283 0.0054932237 5083234
0.36221579 0.67930293 0.0053218603 5542489
0.36820507 0.68402493 0.0052759051 5673810
0.40080887 0.69910735 -0.0027493834 9676671
0.40241647 0.70076811 -0.0036138892 10263923
0.40563643 0.70121932 -0.0046889186 8287274
0.40721196 0.70190167 -0.0050343871 9206299
0.32994083 0.66703117 0.0083578825 4884049
0.33258358 0.66695523 0.0083490014 4950098
0.33346945 0.66996419 0.0086513162 5015894
0.3364315 0.67024028 0.0083045363 5016145
0.34498167 0.67435801 0.00531286 5016400
0.34878781 0.67462194 0.0051593184 5147728
0.34981242 0.67629647 0.0052381158 4492127
0.3540687 0.67948747 0.0048008561 5476433
0.35673514 0.67957813 0.004750967 5542228
0.32068944 0.66490114 0.007548511 4752718
0.32312232 0.664922 0.0073236823 4884046
0.32413703 0.66792685 0.0076844096 4884052
0.32694957 0.66755629 0.0077952743 4949587
0.33118409 0.66966158 0.0062206984 4554841
0.33354187 0.67041898 0.0053257346 4555605
0.33506006 0.67297709 0.0054599643 4556119
0.33860898 0.67376018 0.0051946044 4359260
0.34123385 0.67484498 0.0048318505 4425309
0.34463072 0.67602873 0.0048280954 4426082
0.34687632 0.67680174 0.0043811798 4491872
0.31142443 0.66225588 0.0070772171 4883279
0.31557864 0.66550219 0.007296741 4226639
0.31795681 0.66621685 0.0068107247 4292689
0.32424173 0.66970932 0.0044903159 4884041
0.3267312 0.66995931 0.0044984221 4424024
0.32889506 0.6702733 0.0044583082 4161637
0.33145088 0.67046213 0.0038881898 4359518
0.33724913 0.67507243 0.0042558312 4360033
0.30180955 0.65895629 0.0071625113 4816973
0.30418149 0.66192901 0.007440269 4817487
0.30754441 0.66213864 0.0068898797 4686160
0.30966035 0.66250336 0.0058458447 4685898
0.31335208 0.66341102 0.005559206 4883273
0.31734496 0.66819084 0.004353106 4490065
0.31960028 0.66873747 0.0042122006 4424528
0.32240799 0.6695416 0.0037270784 4293461
0.29268625 0.65627074 0.0069755912 4751440
0.2951498 0.65935373 0.0071439147 4816979
0.29757512 0.65948343 0.0071142316 4816977
0.30025375 0.66075838 0.0056609511 4095059
0.30305004 0.66176653 0.0054714084 4291924
0.30652976 0.66184723 0.004912138 3765349
0.31077904 0.66673911 0.0035764575 4096343
0.3140887 0.66785085 0.0032892823 3965016
0.27540308 0.6510514 0.0076556802 4684877
0.27833125 0.6526137 0.0076404214 4619600
0.28054667 0.6528402 0.0073948503 4685391
0.28386503 0.65427417 0.0070818067 4685388
0.28602171 0.65635121 0.006518662 4619850
0.28850281 0.65658557 0.0064584613 4685643
0.29170796 0.65805042 0.0052269101 4487759
0.29341877 0.66051799 0.0045310855 3570253
0.29649848 0.66166633 0.0032408237 3767124
0.2990315 0.66121924 0.0023074746 4161363
0.30173698 0.66199648 0.0023884177 4161361
0.26190874 0.64551347 0.0086094737 4750413
0.2642124 0.64578253 0.0083435178 4816205
0.26718175 0.64975011 0.0078840852 4553548
0.26994383 0.64977443 0.0076188445 4685133
0.27214706 0.65058911 0.0065833926 4553290
0.27400425 0.65204614 0.0068669915 4553292
0.27592674 0.65300679 0.0049194694 4488009
0.27966744 0.65474343 0.0053505301 4553797
0.2828691 0.65657341 0.0056062937 4619589
0.28696343 0.6588403 0.0020400882 4095573
0.28900811 0.65985018 0.0017095208 4030038
0.2926091 0.66065001 0.0017870069 3964503
0.2448453 0.63978517 0.0086855292 4421192
0.24904928 0.64251208 0.0090175271 4553287
0.25230861 0.64260942 0.008602798 4487240
0.25493479 0.64440238 0.0084980726 4421703
0.25694484 0.64577782 0.0087819695 4421961
0.25983948 0.6465981 0.0068222284 4553032
0.26492536 0.64997518 0.0067657232 4224846
0.26768169 0.65104878 0.0055559278 4093517
0.27113342 0.65169168 0.0057237744 3240539
0.27417576 0.65315956 0.0050224662 2912604
0.27567297 0.65479636 0.0036289096 3634525
0.27903718 0.65579545 0.0033425689 3634783
0.2822116 0.65699017 0.0028885007 3766370
0.28446525 0.65790105 0.0025188327 3897690
0.286257 0.65898854 0.0022374392 3765601
0.23393725 0.63663828 0.0088917613 4486728
0.23773058 0.63969886 0.0091242194 4421192
0.23971261 0.63985538 0.008703649 4421190
0.24239592 0.63973308 0.0087734461 4421192
0.24569023 0.64308476 0.0089265108 4421445
0.25332859 0.64604455 0.0052134395 3436380
0.25590742 0.64713538 0.0049095154 3830352
0.25816625 0.64774966 0.0046797991 3830863
0.26113665 0.65165567 0.0033580661 3765845
0.26349691 0.65215385 0.0033252835 3765844
0.26600283 0.652435 0.0034703612 3831636
0.26957738 0.65355211 0.0031135678 3831891
0.27274117 0.65500283 0.0026571155 3831897
0.22035451 0.63258898 0.0096260309 4486723
0.22393203 0.63273108 0.0094547868 4618311
0.22486553 0.63582897 0.0096580982 4224067
0.22826134 0.63618243 0.0093874335 4289862
0.2312375 0.63672936 0.0086850524 4486984
0.23525752 0.63948017 0.0092529655 4486986
0.24449727 0.64310765 0.0045374632 4354885
0.24777502 0.6460011 0.0053811669 4421187
0.24983941 0.64679933 0.0037090778 4027208
0.25247464 0.64683217 0.0038952827 3896135
0.25450233 0.64897335 0.0029069781 3568205
0.25744233 0.65110981 0.0031608939 3765586
0.20514728 0.62610996 0.010526001 4617548
0.21130921 0.62907135 0.010495782 4420677
0.21301682 0.62944877 0.0098388791 4354629
0.21702041 0.63216829 0.010269701 4617540
0.2344583 0.64220083 0.0043471456 4223296
