# .PCD v0.7 - Point Cloud Data file format
VERSION 0.7
FIELDS x y z rgba
SIZE 4 4 4 4
TYPE F F F U
COUNT 1 1 1 1
WIDTH 1177
HEIGHT 1
VIEWPOINT 0 0 0 1 0 0 0
POINTS 1177
DATA ascii
1.3153378 0.40424833 0.088266462 4541294
1.3177581 0.4063248 0.08802247 3160408
1.3191036 0.40920416 0.087871268 3027786
1.3211056 0.41107532 0.088147581 2303548
1.3232059 0.41355589 0.088546515 1053743
1.3242177 0.41506815 0.088866279 1976392
1.2955477 0.38307986 0.087037608 1382951
1.2965983 0.38535452 0.087557688 987423
1.2985559 0.38726076 0.088029623 526621
1.3007333 0.3893961 0.088390902 1251381
1.3019973 0.3916333 0.087730005 1910080
1.3040063 0.39428985 0.087391973 2305086
1.3062234 0.39652154 0.087666065 724511
1.3080165 0.39854845 0.0873577 328974
1.3095223 0.4012509 0.087529868 1842727
1.31157 0.40337929 0.087676212 4672351
1.3134004 0.40554041 0.087451309 4409954
1.3155344 0.40798029 0.08770977 3159118
1.3165535 0.40923208 0.087409869 3224903
1.3334614 0.43070468 0.081765503 3362418
1.2803119 0.36789557 0.086931318 526096
1.2810651 0.3692064 0.087397575 592408
1.2832816 0.37118471 0.08704409 2303800
1.2857163 0.37469909 0.086433783 3685976
1.2873416 0.37686461 0.08639656 4343394
1.2890992 0.37895143 0.086487204 3159383
1.2911687 0.38139188 0.086474925 2173254
1.2928872 0.3836948 0.087040544 1382192
1.2949886 0.38580436 0.087325811 986911
1.296454 0.38863128 0.085543007 592662
1.2985636 0.39073679 0.086050257 1185837
1.3006805 0.3926844 0.08661069 2503753
1.3269707 0.4263927 0.080510184 5202058
1.3282819 0.42797774 0.081363633 5465232
1.3303456 0.43053553 0.08142902 4414590
1.3330477 0.43205965 0.081691414 4414591
1.2719994 0.36208984 0.08630982 1777718
1.2742881 0.3643344 0.086709008 2830667
1.2764177 0.36659387 0.086647347 2171964
1.2779832 0.36876157 0.086296722 1250600
1.2797843 0.3711364 0.085860848 592413
1.2818084 0.37316552 0.085964292 1250598
1.283612 0.37576124 0.085691258 2632765
1.2856215 0.37805301 0.085770026 4211807
1.2873993 0.38021702 0.085660413 4080225
1.2893153 0.38266933 0.085454434 2764880
1.2911628 0.3852832 0.084803805 2436679
1.293138 0.38709962 0.084802464 1316914
1.2946546 0.3893626 0.085208118 329239
1.2965426 0.39100713 0.085547894 1515312
1.3178241 0.41857302 0.079463691 1777979
1.3191063 0.42012942 0.079580531 1186359
1.3211302 0.42249554 0.079601094 727612
1.322818 0.4248783 0.080064207 3360362
1.3247569 0.42689669 0.080371782 4412797
1.326565 0.42884389 0.080773279 5466000
1.3285525 0.43060553 0.080934912 4808835
1.2666895 0.3588891 0.084941402 789535
1.2686374 0.36058986 0.085640654 987169
1.2702488 0.36276257 0.086052597 2435646
1.2721345 0.36551294 0.085525438 3620439
1.274648 0.36793238 0.085734546 4013916
1.2761964 0.37014961 0.085313112 2763847
1.2780273 0.37224156 0.084875897 1316396
1.2797503 0.37451825 0.084732607 460826
1.2816184 0.37705457 0.084576041 855323
1.2833558 0.37939057 0.084432706 2172214
1.2852192 0.38209864 0.084436476 3028301
1.2872891 0.38414088 0.084787726 2765135
1.2887547 0.38601327 0.084214807 2699594
1.2907404 0.38808516 0.084409505 1318199
1.3087738 0.41059154 0.0788351 1517889
1.3101467 0.41266415 0.078436852 3295078
1.3121505 0.41402122 0.079112247 4280172
1.3141987 0.41702178 0.079229489 2240334
1.3155478 0.4187904 0.079424977 1317943
1.3172685 0.42091575 0.079857498 726580
1.3193029 0.42345417 0.079180792 1385791
1.3210906 0.42569309 0.079248309 3425896
1.3229557 0.42757738 0.079440504 4478587
1.2612913 0.35611194 0.08288537 1974579
1.2631214 0.35753095 0.083841428 921640
1.2646356 0.35965165 0.084259689 724005
1.266489 0.36171132 0.083636373 855077
1.268435 0.36451 0.083910301 2106672
1.2705799 0.36486709 0.084117979 2173244
1.277755 0.37665153 0.083308145 1250604
1.2801369 0.379013 0.083571717 262930
1.2820183 0.38061491 0.083807707 1645351
1.298144 0.40109167 0.078017175 2834012
1.3000096 0.4038727 0.078443155 3294057
1.3020282 0.40634698 0.078107074 2965863
1.3039541 0.4086569 0.078068659 1188421
1.3060896 0.41074207 0.078107908 594733
1.307824 0.41336671 0.077763095 1781064
1.3101315 0.4152098 0.078260332 3293787
1.3119426 0.41790006 0.078288168 2305609
1.313494 0.42021298 0.078212082 1516094
1.31525 0.42271462 0.077331781 726317
1.3173277 0.42481932 0.078132376 1123390
1.2578298 0.35511649 0.081237227 3159106
1.2593181 0.35658869 0.081924126 2435146
1.2610431 0.35863283 0.082647949 1974849
1.2630262 0.36048755 0.082176119 1514805
1.2645582 0.36325347 0.082723036 1315889
1.2929976 0.39881507 0.076806471 528422
1.2946968 0.40118811 0.077671826 2570322
1.2968839 0.4029161 0.077767774 3359844
1.2982632 0.40530264 0.077776551 3294571
1.3007432 0.40748432 0.077397853 3097195
1.3024706 0.40974081 0.077339709 2570593
1.3040525 0.41209048 0.076887146 990785
1.3059372 0.41487834 0.076747477 1715273
1.3080701 0.41720641 0.077179566 2964054
1.310402 0.41917473 0.077406034 2436424
1.3123319 0.42199573 0.077361166 593711
1.2539856 0.35278279 0.08107318 4604995
1.2556616 0.35502222 0.08105588 4276805
1.2574159 0.35733363 0.081196636 3816777
1.2590381 0.36022583 0.080751851 3093836
1.2610821 0.3618643 0.081300676 1910079
1.2832325 0.39009672 0.07554616 2965337
1.2850829 0.39257059 0.075265363 3227747
1.2868567 0.39468688 0.075282514 2833502
1.2890358 0.39731756 0.076186165 1187911
1.2910836 0.39936194 0.076145947 396070
1.292853 0.40178406 0.076100767 1582393
1.2947872 0.40400022 0.076537073 3162462
1.2971426 0.40676615 0.077178746 3229551
1.2984232 0.40880811 0.077005252 3229038
1.300171 0.41089684 0.076562971 2966124
1.3021696 0.41293195 0.076305583 2636901
1.3034506 0.41485247 0.076204658 1584208
1.2734787 0.37897724 0.07642445 3951217
1.2750615 0.38154465 0.07620956 3228008
1.2766572 0.38536564 0.074554741 728641
1.2783574 0.38725433 0.074903488 68391
1.2803518 0.38938698 0.07517226 1386303
1.2813965 0.39150786 0.075228482 2833494
1.2834646 0.39393616 0.075260952 2899038
1.285282 0.39660719 0.074768201 2833761
1.2872405 0.39870387 0.074351937 2241628
1.2890584 0.40088013 0.074641764 528952
1.2906805 0.40277132 0.075489148 1185843
1.2682889 0.37891647 0.072902933 3951467
1.270244 0.38155779 0.073177591 5068927
1.2722198 0.38324434 0.073508278 4082036
1.2741723 0.38559893 0.073689297 3227241
1.2763308 0.38813162 0.073670894 1056323
1.2781904 0.39064109 0.07400097 1253173
1.2797892 0.39300206 0.073174238 1911882
1.281653 0.39518693 0.072699502 2833245
1.2833641 0.39730689 0.072884157 2898784
1.2852986 0.39967182 0.073431402 2767969
1.2868593 0.40077576 0.073823437 2373213
1.2650996 0.37791121 0.072018012 2173243
1.2667106 0.38031143 0.072650716 3425375
1.2683976 0.38240781 0.072786525 4280177
1.2699671 0.38454056 0.07309711 3820145
1.2717404 0.38721597 0.072189376 4477047
1.2740483 0.38942784 0.071936503 4213622
1.2763751 0.39206374 0.072427616 1385286
1.27781 0.39395154 0.072374403 2240846
1.2801038 0.39656597 0.072740227 3030622
1.2820269 0.39902204 0.072842762 2899037
1.2615693 0.37693682 0.070348024 1647941
1.2628034 0.37911811 0.071200028 791085
1.2642094 0.38121414 0.071822897 1712689
1.266247 0.38380507 0.070479438 2634572
1.2686809 0.38609484 0.070163369 3360614
1.2708255 0.38866001 0.070481971 4807296
1.2573924 0.3769145 0.068505213 1979490
1.2592835 0.37806186 0.069251612 2044502
1.2604105 0.38021982 0.069902718 2174029
1.2625762 0.38294232 0.068434075 1580601
1.2647433 0.38479778 0.068977788 1514291
1.265998 0.38802516 0.069363207 2174019
1.2685102 0.38999119 0.069722921 4085097
1.2538482 0.3751438 0.066690549 7633806
1.2556369 0.37718028 0.067408159 5529723
1.2568572 0.37933677 0.068300337 2833252
1.2581747 0.38103506 0.068366036 1978462
1.2611006 0.38422263 0.067034513 3029847
1.2625819 0.38631743 0.068429977 1580605
1.2534636 0.37827343 0.066638455 8028305
1.2556432 0.38086605 0.064558342 7567750
1.2577872 0.38286942 0.064986855 4344930
1.2587589 0.38559225 0.065630808 3359328
1.2544106 0.38263795 0.064634621 8949402
1.2556574 0.38452646 0.064882219 7172993
1.2461441 0.38379157 0.056498945 7368050
1.2476121 0.38606659 0.056300834 7368051
1.2497959 0.38811293 0.056543782 7433842
1.2513462 0.39057282 0.056844071 7565684
1.2532204 0.39265433 0.056992263 7763067
1.2547326 0.39537305 0.056605965 7894913
1.2461753 0.38720652 0.055665419 8157564
1.2477772 0.38988444 0.055911034 8223358
1.2498313 0.39206249 0.056007385 8289150
1.2513672 0.39390504 0.055889428 8486530
1.2536753 0.39679953 0.055965513 8618631
1.254897 0.3981213 0.056448102 8487049
1.2458448 0.39124677 0.054501548 9144459
1.2479403 0.39374861 0.054725826 9012358
1.2499914 0.3955152 0.054156825 9079437
1.3373245 0.42030454 0.094391957 2633556
1.3327488 0.41820508 0.093314096 4409451
1.3343741 0.41996536 0.094011337 2500945
1.3367541 0.42341888 0.092713848 1971517
1.3271782 0.41534376 0.092379197 5592445
1.3292646 0.41740587 0.092862338 4737912
1.3312492 0.41891244 0.093160927 3817319
1.3324965 0.42125124 0.091279164 3292512
1.3348331 0.42315426 0.091674432 2567506
1.3370613 0.42448533 0.091740042 3292503
1.3220876 0.41209117 0.09078753 724520
1.3233129 0.41366109 0.091409206 2831185
1.3251072 0.41552332 0.091414943 5001076
1.3268505 0.41849884 0.090733543 5725563
1.3292202 0.42027646 0.091337547 4476017
1.3315699 0.42223716 0.091221884 2503250
1.3041292 0.39387822 0.090038061 790054
1.3058331 0.39561257 0.0901746 328464
1.3085833 0.3981227 0.090179756 2368822
1.3106692 0.4004772 0.090157583 5461875
1.3126425 0.40383461 0.089425191 3686241
1.3148861 0.40553704 0.089712471 2764629
1.3158715 0.40777639 0.089767009 2566472
1.3179028 0.41054288 0.089891493 1381684
1.3199606 0.41238341 0.089546755 1382456
1.3216439 0.41541499 0.08907643 3291218
1.3238459 0.4172973 0.09007068 4936303
1.3247792 0.4187164 0.09110792 4673888
1.2957165 0.38674608 0.08889778 593194
1.2971823 0.38860938 0.089416668 2371146
1.2988842 0.39083892 0.089864194 3160406
1.3011255 0.39318004 0.089543179 2831182
1.3027029 0.39543968 0.08962515 1645881
1.3046948 0.39740413 0.089628428 723751
1.3065311 0.39981166 0.088513568 526364
1.3081515 0.4018096 0.088781461 1645874
1.3100678 0.40472397 0.088398904 2896967
1.3122852 0.40710431 0.088266164 2896203
1.3139429 0.40945837 0.088325009 2237243
1.3161402 0.41163567 0.088324368 1382707
1.3180628 0.4141342 0.08871232 1777721
1.3200238 0.41527423 0.088749468 2962251
1.2920778 0.38593286 0.087624207 394526
1.2936922 0.38779455 0.088773638 1580077
1.2957536 0.3894611 0.088977665 2501698
1.297019 0.39213562 0.088398173 3620441
1.2990452 0.39410287 0.088316292 3358296
1.3008953 0.3966639 0.088129625 3160406
1.3029231 0.3990193 0.088078648 2107203
1.304904 0.40142167 0.087708324 1119276
1.3067029 0.40379953 0.087507501 1449009
1.3083154 0.40611246 0.087427348 2765634
1.3100966 0.40838012 0.087473363 2764350
1.3125749 0.41068441 0.087929755 1185069
1.272617 0.36517724 0.087934285 4540513
1.2743359 0.36739868 0.087920979 3750744
1.2844211 0.3803404 0.08609283 2435659
1.2865589 0.38215014 0.086284548 2435661
1.2880877 0.38389513 0.086983383 1448255
1.2896116 0.38623086 0.08751446 724015
1.2916461 0.38824877 0.087454632 987174
1.2934948 0.3911469 0.086458251 2237752
1.2954319 0.39316803 0.087032363 3818325
1.2975197 0.39549676 0.087541297 3686743
1.2992681 0.39811397 0.087638676 3752537
1.301446 0.40038124 0.087286398 3292502
1.3020246 0.40210316 0.087269992 3160148
1.3239155 0.4279159 0.081419572 3756150
1.3251163 0.43024278 0.080896109 3362417
1.3271515 0.43157795 0.08160378 5861520
1.2674639 0.36211455 0.086750001 2831424
1.2692823 0.36444086 0.087063268 4409696
1.2704816 0.36669111 0.08755821 4606566
1.2728205 0.36890242 0.08696118 3882848
1.2746201 0.37103713 0.086334735 2895443
1.2765231 0.37330538 0.085959151 921132
1.2785362 0.37595081 0.085669309 460318
1.280425 0.37822545 0.085623726 1250608
1.2822707 0.38055205 0.085864976 2435395
1.2839437 0.38294846 0.085581779 2633290
1.2859037 0.38522598 0.085682094 2567499
1.2880172 0.38759872 0.085125312 2304584
1.2893573 0.38990679 0.08514826 1449016
1.291167 0.39227358 0.085556984 1381936
1.3160321 0.42262208 0.079768911 1255754
1.3181217 0.42525327 0.080604643 2440023
1.3199346 0.42736629 0.080559298 4084338
1.3219353 0.42944965 0.080687568 3888762
1.3242103 0.43079031 0.080805928 4283778
1.2633406 0.36096171 0.085711926 1381932
1.2651932 0.36341047 0.086117849 2172218
1.2670951 0.36555541 0.086389244 3489100
1.2690849 0.3678745 0.085356459 4344668
1.2708558 0.36996761 0.085743308 4015968
1.2727759 0.37267691 0.085783601 3619934
1.2748299 0.37498644 0.085277066 3027020
1.2769387 0.37724119 0.085010663 1053228
1.2785566 0.37963799 0.084464356 1053738
1.2803552 0.38209254 0.084259793 2106939
1.2822275 0.38462341 0.084203511 2831178
1.2836037 0.3871201 0.084116489 2896459
1.2858642 0.38854387 0.08429122 2831181
1.2866662 0.39059931 0.084501103 2897228
1.308544 0.41729993 0.079033554 1910333
1.3101939 0.41946802 0.079206944 859192
1.3119243 0.42175278 0.07979168 1584727
1.3141234 0.42435774 0.079594806 3557228
1.3158377 0.42602542 0.079491198 2570846
1.3176423 0.42841572 0.079560876 2901603
1.3204684 0.42969301 0.079310372 4019065
1.2598244 0.36041486 0.084003985 1908283
1.2615165 0.36230707 0.084211305 1514035
1.2634193 0.36467129 0.084337592 1184300
1.2652452 0.36688888 0.084172875 1711151
1.2672865 0.36940423 0.084925443 2962494
1.2690439 0.37175912 0.085250303 3555929
1.271057 0.37446359 0.084734187 5792628
1.2723157 0.3763124 0.083479837 5199205
1.2744592 0.37871733 0.083254516 3225677
1.2768813 0.3808417 0.083582237 1975352
1.2780452 0.38297853 0.083853692 2765377
1.2802557 0.38530973 0.083746016 2831432
1.2955332 0.40466616 0.078566134 3491684
1.2974018 0.4066847 0.078786895 3557999
1.2989202 0.40906897 0.078624383 3162728
1.3010681 0.41142535 0.078338683 3228515
1.3028277 0.41386169 0.077926561 2767449
1.3050144 0.41595513 0.078500837 2306377
1.3066356 0.41804549 0.078439564 1581887
1.3083525 0.42064685 0.078309163 727868
1.3099763 0.42300668 0.077731878 728646
1.3121351 0.42501745 0.078518927 3426416
1.25616 0.35899925 0.081814736 3816775
1.2576462 0.36124101 0.082353622 2633033
1.2595801 0.36369124 0.082224861 1910087
1.2613691 0.36579713 0.082522079 1844030
1.2899612 0.40104231 0.076803684 857395
1.2919443 0.40348417 0.077433348 2832979
1.2933326 0.4057543 0.078054562 3491172
1.29536 0.40791997 0.078032494 4411763
1.2972487 0.41033462 0.077635288 3688303
1.2989945 0.41260993 0.077321559 3294056
1.3008974 0.41485995 0.077286556 3096413
1.3026168 0.41702905 0.076877147 2832468
1.3046788 0.41931534 0.077128112 1647165
1.3065383 0.42132786 0.077512801 529456
1.2541937 0.35781008 0.081489101 4605767
1.2543275 0.36033747 0.081444129 4802890
1.2558888 0.36237487 0.081359953 4342859
1.2572899 0.36449295 0.081049323 4146255
1.2590414 0.36617908 0.08182174 1975874
1.2808373 0.39395341 0.07553257 2899291
1.2838218 0.39721906 0.07553713 2833501
1.2860987 0.40032592 0.075555146 2636640
1.2881196 0.40263215 0.076003984 924740
1.2893717 0.40439928 0.076513425 857652
1.2914824 0.40679947 0.076573297 2504015
1.2932454 0.40909806 0.076895759 4411767
1.2950451 0.41176334 0.076820478 4543611
1.297737 0.41498169 0.076586887 3162467
1.2990198 0.41629544 0.076848835 3161690
1.2791408 0.39393413 0.075232819 3030619
1.2814419 0.3961232 0.075484157 2965083
1.2826637 0.39864609 0.075656131 2964830
1.2841085 0.40092355 0.07479617 2767968
1.2858475 0.40352815 0.074887261 2373212
1.2878389 0.40551576 0.075362653 660798
1.2894518 0.40817654 0.075855121 924208
1.2687168 0.38532269 0.073419556 4281205
1.2705274 0.38838893 0.072958559 5134206
1.2728542 0.3909961 0.072691724 4146792
1.2743709 0.39319849 0.072785497 2831439
1.2764431 0.39576229 0.072608307 2568524
1.2784328 0.39741868 0.072658896 2767191
1.2801901 0.4003526 0.073131293 2833502
1.2824321 0.40256551 0.073715463 2833504
1.283771 0.40445974 0.074213296 2833506
1.2638328 0.38317525 0.072221592 1515828
1.2652929 0.38508075 0.072790533 2965338
1.2674086 0.38728476 0.072766617 4609396
1.2688835 0.39027095 0.072773114 4278631
1.2706616 0.39213231 0.072846115 2830413
1.2725173 0.39409062 0.072908923 1448496
1.2746862 0.39670098 0.072992742 461339
1.2767177 0.39892977 0.072990388 1317933
1.2604849 0.38223141 0.070769578 1516357
1.2614748 0.38422212 0.070942238 594222
1.2630455 0.38632062 0.071864426 1253168
1.2656422 0.38931543 0.070742652 2766678
1.267069 0.3909114 0.070201337 3490911
1.2689489 0.39170268 0.069758654 5202552
1.2565701 0.38102958 0.06909965 2637157
1.2579734 0.38300905 0.069403052 2044504
1.2591845 0.38553974 0.070091352 2174798
1.2617041 0.38785467 0.067767292 2240074
1.2638488 0.38938802 0.068502471 1251896
1.2649857 0.39197591 0.068581611 1844797
1.2527373 0.3800267 0.06760174 8028562
1.2539965 0.38193062 0.068080738 6713478
1.2554317 0.38427591 0.0684091 3688041
1.2577192 0.38683546 0.067390978 2504795
1.2599034 0.38881904 0.066839531 3227742
1.2611047 0.39152545 0.067272767 2700370
1.2631584 0.39240304 0.067651331 1449535
1.2508599 0.38242587 0.067283422 8685198
1.252158 0.38314471 0.067514792 8423060
1.2541822 0.38577726 0.064880118 8883866
1.2558689 0.38817367 0.065277949 5857910
1.2573066 0.39018616 0.065983668 3687780
1.2590138 0.3922821 0.066642508 3294306
1.2540381 0.38893563 0.065341055 9344158
1.2550386 0.39083531 0.065344408 6581365
1.2451636 0.38897163 0.05662486 8025981
1.247076 0.39164445 0.056263402 8223616
1.2486097 0.39376166 0.056593433 8223617
1.2503719 0.39563388 0.056955427 8289667
1.2518699 0.39798236 0.05691956 8552583
1.2536868 0.40027523 0.056956396 8553098
1.2443774 0.39214149 0.05615592 8552581
1.2465804 0.39442042 0.056285292 8683909
1.2483126 0.39707032 0.055728316 9144972
1.2492014 0.39911094 0.056092024 9078923
1.2521108 0.40176895 0.055948645 9078668
1.25407 0.4038952 0.056050807 8816270
1.2448114 0.39575452 0.054522797 9341579
1.2463768 0.39849368 0.054219067 9408910
1.2482853 0.40084937 0.053630233 9540753
1.2498089 0.40284616 0.05390349 9473937
1.2447047 0.39967847 0.053315118 9343885
1.3266348 0.41708744 0.093472734 6513804
1.3274676 0.41823471 0.094216421 2960994
1.3297514 0.41973397 0.094715044 1645129
1.3223189 0.4158352 0.092639446 4805229
1.3238652 0.41738626 0.093671247 3751261
1.3164358 0.41248024 0.091052741 2171468
1.3182636 0.41427436 0.091886103 4343398
1.3205297 0.41596645 0.092206463 4541544
1.3217901 0.41869855 0.090817034 3949921
1.3242533 0.42026797 0.091308102 2240073
1.3001176 0.39532742 0.090277016 3094618
1.3017416 0.39734659 0.090063691 2567249
1.310825 0.40877038 0.090007797 1447984
1.3126553 0.41094074 0.090480462 1711675
1.3142295 0.41237661 0.090338975 2041158
1.3163571 0.41572657 0.089644983 3225425
1.3182782 0.41744596 0.09053041 3028046
1.3201401 0.41933876 0.090931505 3028819
1.2945153 0.39086252 0.090070486 3291218
1.2959006 0.39346719 0.090080008 3488604
1.2976222 0.39560434 0.089948729 3423325
1.2993221 0.39772817 0.089577019 3292253
1.3012627 0.40063322 0.089145839 2501962
1.3029915 0.40269771 0.088983282 1975105
1.3049859 0.40529367 0.088619083 2435906
1.3073553 0.40774706 0.089164406 1842995
1.3088267 0.41000295 0.088898286 1251372
1.3106987 0.41178781 0.088744864 1383739
1.3127856 0.41416046 0.089257181 3818852
1.314548 0.41601285 0.08970198 4739181
1.2892234 0.38821185 0.088074192 1249836
1.2902789 0.39017874 0.088853449 1843250
1.2921891 0.39248866 0.08925043 3290952
1.2940478 0.3949725 0.088590905 4540772
1.295853 0.3972021 0.088597044 4606568
1.2978163 0.3993724 0.08829236 4014946
1.2994449 0.40170714 0.088035882 3160150
1.3015487 0.40394732 0.087955207 2830926
1.3032715 0.40626296 0.087653413 3027785
1.3051803 0.40832579 0.087662697 2171957
1.3072186 0.4105399 0.088036016 791079
1.2829025 0.38449532 0.086436018 2764367
1.2847803 0.38659549 0.086604983 2172741
1.2864919 0.38891038 0.087602496 1382456
1.2881871 0.39144686 0.087580472 1052976
1.2899599 0.39387119 0.087139308 921638
1.2918206 0.39552447 0.087655097 3093568
1.293435 0.39835519 0.087289885 4606560
1.2955421 0.40106818 0.087145373 4409445
1.2975664 0.40286136 0.087320015 3159898
1.2994344 0.40519774 0.087394819 3094099
1.3157216 0.42569524 0.08252266 3297141
1.2638959 0.36563483 0.08681342 1711671
1.2657975 0.36705118 0.087184787 2765896
1.267933 0.36896351 0.087504014 3818332
1.2695838 0.37109438 0.087128967 4146787
1.2713336 0.37379953 0.086240292 4869487
1.2734309 0.37620276 0.085955188 3618902
1.2748315 0.3787697 0.086177006 2369862
1.2769473 0.38108432 0.086072624 2435905
1.2788972 0.38347721 0.086054161 2633288
1.2808231 0.38556424 0.08631745 2698828
1.2830127 0.38784531 0.086320236 2633293
1.2845722 0.39016312 0.085558012 2830669
1.2865759 0.39287496 0.085731283 2567750
1.2879934 0.3950758 0.086091682 1383217
1.2899613 0.39739645 0.086576238 526876
1.2915843 0.39841804 0.086255863 2304310
1.3128065 0.42578807 0.081277236 3822202
1.3171548 0.42917976 0.080914453 4217469
1.2602445 0.36334911 0.085522816 1382446
1.2622222 0.36598203 0.086024374 1316651
1.2636478 0.36853734 0.086452886 1711666
1.2657543 0.37098202 0.085758016 2831427
1.2675951 0.3732453 0.085755795 4213852
1.2694402 0.37548861 0.085521787 4805224
1.2714601 0.37742361 0.085756347 3225168
1.2731626 0.38018608 0.085090891 2566722
1.2749678 0.38239783 0.084689081 2106168
1.2768626 0.38471684 0.084600836 1777462
1.2787222 0.38704073 0.08430019 2172223
1.2806921 0.38918141 0.084213227 2764868
1.282552 0.39153019 0.084798753 2896710
1.2840627 0.39333534 0.085094407 2831180
1.285799 0.39525497 0.085402951 2831686
1.3050902 0.42021528 0.079724237 861000
1.3067803 0.42231807 0.079829693 3887224
1.3090482 0.42420372 0.080029801 4545155
1.310707 0.42623183 0.080168203 4348035
1.3143758 0.42864898 0.079109788 3427957
1.2570648 0.363796 0.083219752 2106955
1.25858 0.36509809 0.084268197 1974850
1.2601537 0.36732355 0.084971264 1514550
1.2619673 0.3694464 0.084138185 1316655
1.2639444 0.37219003 0.084480241 1448232
1.2654325 0.37445366 0.084021866 2173487
1.2676604 0.37661543 0.08485046 3621962
1.2701448 0.37932384 0.083876923 3093832
1.2717142 0.3808443 0.083828837 2501177
1.2732538 0.38315347 0.084376574 790036
1.2754478 0.38542238 0.084164858 329491
1.2770432 0.38814569 0.084302694 526876
1.2936139 0.4092882 0.078452438 4279917
1.2955127 0.41155985 0.078453079 3162466
1.2977123 0.41413996 0.078486308 2701910
1.299583 0.41643995 0.078603923 1647679
1.3014923 0.41873118 0.078809604 991036
1.3030952 0.42053545 0.079058871 1583435
1.3050812 0.42320594 0.078560412 3031912
1.3071916 0.42540675 0.079044461 5400209
1.2545393 0.36423385 0.081787214 5000274
1.2562584 0.36623856 0.082614571 3356493
1.2582082 0.36855167 0.083004206 1975619
1.2599624 0.37140837 0.083077416 1646648
1.2620933 0.37381852 0.082906947 1185572
1.2884203 0.40593785 0.077283278 529712
1.2901478 0.40799946 0.077852309 2044237
1.2918202 0.41035852 0.077800557 3162465
1.2939866 0.41330019 0.077458099 3294053
1.2955366 0.41521445 0.077882946 2701914
1.2977052 0.41749957 0.077629417 1779269
1.2994481 0.41962874 0.077685639 858679
1.3019928 0.42254871 0.0779237 2045530
1.3033427 0.42449391 0.07827726 4215675
1.2528955 0.36504018 0.081842005 5131858
1.254355 0.36763209 0.082139686 5395034
1.2560822 0.37022945 0.081480309 4737883
1.2579353 0.37144646 0.081818953 1581643
1.2840321 0.40304995 0.0762638 2767966
1.2851722 0.40469226 0.076111361 2636386
1.2865231 0.40696454 0.075909182 1451597
1.2881192 0.40928501 0.076199874 1056316
1.290089 0.41170827 0.076109856 2438739
1.2915826 0.41448864 0.076458305 2899551
1.2935879 0.41611001 0.07670334 2965090
1.2956946 0.41884163 0.076852366 1845580
1.2970867 0.42006615 0.077102542 398129
1.280746 0.40439329 0.074117139 2899037
1.282634 0.4062722 0.074586347 2833504
1.2843835 0.40834618 0.074951023 2636382
1.2857703 0.4111515 0.075254664 2307415
1.287969 0.41358498 0.075538769 2767704
1.2892987 0.41473198 0.075797141 2702429
1.2678418 0.39162752 0.072808072 2567490
1.269491 0.39420438 0.073493078 395038
1.2710326 0.39641294 0.073966041 264993
1.2731392 0.39816418 0.074046806 396838
1.2751865 0.40045419 0.073811695 528420
1.2771217 0.40279496 0.073648885 1845570
1.2785203 0.40522093 0.074106812 2701652
1.2805891 0.40712726 0.074625939 2899038
1.2620254 0.38797563 0.071964562 727604
1.2637968 0.39025041 0.072247133 2569292
1.2657158 0.3925409 0.073037386 1316905
1.2678484 0.39438489 0.073665395 198168
1.2580425 0.38702902 0.070814177 2241364
1.2599272 0.38920984 0.071677014 2109004
1.2618847 0.39112198 0.072336197 2041923
1.2634529 0.39243895 0.072671428 1119269
1.2521483 0.38294002 0.068550617 7701145
1.2545096 0.38593525 0.06917423 4215413
1.255769 0.38806766 0.069760561 2044253
1.2572225 0.38993156 0.070367977 2307158
1.2607861 0.39317313 0.067848742 3424096
1.2606462 0.3945733 0.067848921 3819623
1.2514236 0.38504374 0.067709282 8423061
1.2521542 0.38727769 0.068214968 7963027
1.2537407 0.38935113 0.06895934 4806006
1.2574494 0.39227229 0.066220403 3424608
1.2585542 0.39351326 0.066995218 3490914
1.2499229 0.38648888 0.066918805 8882063
1.2499068 0.3884086 0.066684887 8685200
1.2529745 0.39077565 0.064910144 9673384
1.2545238 0.39309227 0.065236047 7239299
1.255654 0.39543191 0.066002339 4213856
1.2518177 0.39282781 0.064559013 10002607
1.2454265 0.39570653 0.057370529 8618632
1.2470142 0.39809585 0.057133287 8552842
1.2492006 0.40043625 0.056931153 8684169
1.2508281 0.40287024 0.056809813 8881547
1.2523028 0.40527201 0.056846812 8947342
1.2529521 0.40860441 0.056767896 9144721
1.2431877 0.39714569 0.056182981 9012874
1.2450024 0.40002221 0.05588685 9012874
1.2469859 0.40200692 0.055820659 9078665
1.248421 0.40419537 0.055739939 9210251
1.2508471 0.40643734 0.056184933 9407633
1.2518144 0.40965521 0.054396927 9539219
1.2429675 0.40084603 0.054272816 9473934
1.2448649 0.40324762 0.05434081 9342604
1.246843 0.40521279 0.053926438 9539983
1.2484096 0.40719751 0.054574594 9736337
1.246092 0.40861246 0.05336982 9803664
1.3168726 0.41693377 0.093264014 2040644
1.3192699 0.41719708 0.093692407 2566480
1.3212519 0.41802105 0.094234169 1447748
1.3113717 0.4130778 0.092077404 4870512
1.3135563 0.41462877 0.092511043 3487584
1.3154832 0.4164505 0.092737943 2039878
1.3166282 0.41928551 0.091319263 1911116
1.3193783 0.42064455 0.091397092 3226717
1.3028543 0.40545678 0.089982048 1382699
1.3073512 0.41113508 0.090942234 3290712
1.3093076 0.41359422 0.090943187 5659772
1.3107917 0.41579297 0.09071359 4608375
1.313386 0.41754285 0.091038465 2700887
1.3150345 0.4192217 0.09117423 1449026
1.2924594 0.39572197 0.090148047 4672099
1.2947369 0.39820397 0.089947686 4869236
1.2962602 0.39917037 0.089971915 3948392
1.2980878 0.40319708 0.088981748 2632779
1.2999842 0.40560421 0.089706987 1710903
1.3021418 0.40774539 0.090010375 1316660
1.3037969 0.40984544 0.089424208 1120052
1.3055758 0.41230705 0.089338303 3620704
1.3077977 0.41403413 0.089767039 6053761
1.3089057 0.41722417 0.090205625 4080744
1.2855932 0.39118457 0.087966159 2435396
1.287096 0.39285594 0.088411704 592174
1.2889621 0.39499924 0.088778794 1250606
1.2906578 0.39777446 0.088801324 2567237
1.2927804 0.39991131 0.088775605 3093073
1.2948197 0.40235728 0.088450164 2698831
1.2963105 0.40436968 0.088296756 2501192
1.2981958 0.40687519 0.087967828 2106946
1.3001534 0.40893111 0.087901741 1448498
1.3020756 0.41130432 0.088519141 2239557
1.276621 0.38454649 0.087241605 1645622
1.279947 0.38794613 0.086848676 2633036
1.2813238 0.38924995 0.087121069 2567500
1.2831542 0.39175466 0.087202832 2435655
1.2850585 0.39406401 0.087548807 1777210
1.2866629 0.39637661 0.087481871 1382448
1.2884306 0.39849651 0.087243393 1579825
1.290624 0.40100276 0.086955354 2370366
1.2927029 0.40311846 0.086974815 3028045
1.2941459 0.40547204 0.086861044 2962512
1.2960374 0.40740162 0.08745344 2502475
1.2978613 0.40962213 0.087741271 790067
1.2667886 0.37499768 0.086544633 3094343
1.2679914 0.37710693 0.086415023 2698559
1.2696444 0.37928373 0.086694852 1776429
1.2717919 0.38171226 0.086906746 789538
1.2736356 0.38393092 0.086854413 658980
1.2753098 0.38625547 0.086778328 1185324
1.2775888 0.38821751 0.086587533 2172476
1.2793275 0.39089352 0.086482435 2764614
1.2810163 0.39339694 0.086139455 2830664
1.2832997 0.39534426 0.086176947 2830923
1.2848048 0.3978633 0.086067662 3028044
1.2871473 0.40029258 0.086266786 2435648
1.2887923 0.40242803 0.086500466 2765124
1.290776 0.40440565 0.086399734 2896967
1.3063724 0.42420697 0.080951959 5400202
1.307874 0.4262425 0.081179902 5467790
1.3096943 0.42780262 0.081162468 5073045
1.2608979 0.37050876 0.085541531 1119020
1.2626785 0.37337178 0.085691586 1514545
1.2642586 0.37569267 0.085847721 2370364
1.2663554 0.37777364 0.085990801 2369593
1.2683784 0.38041985 0.085508734 1579304
1.2700001 0.38265112 0.085320801 592665
1.2723373 0.3844575 0.085302785 395802
1.2741755 0.38665655 0.08494018 1054243
1.2758784 0.38954422 0.08532165 856094
1.277765 0.39159304 0.08513236 1514028
1.2794607 0.39396131 0.085234076 2830397
1.281489 0.39614588 0.08539857 2962757
1.3000702 0.42072448 0.079842955 3556449
1.3017756 0.42225409 0.080693603 4018036
1.3042754 0.42437896 0.080753878 4545148
1.305733 0.42634293 0.080945089 5335947
1.2547892 0.36836818 0.083575472 2830927
1.2570263 0.36989141 0.084097102 2106692
1.2588785 0.37238729 0.084800735 1777465
1.2604305 0.37456778 0.084597737 1514548
1.2625163 0.37648255 0.084325671 1514797
1.2641293 0.37900499 0.084424242 2304309
1.2660793 0.38118604 0.084526837 1184542
1.2673326 0.38306201 0.085355267 329492
1.2947507 0.41758296 0.078472584 2043989
1.296051 0.41937551 0.079011619 1188418
1.2982876 0.42146021 0.079763234 3623011
1.2999825 0.42374048 0.078928351 4149617
1.3021266 0.42566559 0.079672202 4085114
1.2514992 0.36718252 0.083262205 5921117
1.25337 0.36884853 0.08300814 5197915
1.254862 0.37117288 0.083498865 3487827
1.2569187 0.3732613 0.082723781 2304846
1.2586099 0.37580165 0.082624182 1385024
1.26094 0.37854916 0.083556727 2370625
1.2909988 0.41323742 0.078249857 2768217
1.2920728 0.41601583 0.077380061 2965085
1.2929331 0.41764733 0.07743144 2767967
1.2944543 0.42039323 0.077221647 1780561
1.296178 0.42250156 0.077912956 2176080
1.2974404 0.42379373 0.078513101 4346474
1.2537515 0.37257847 0.082010642 8026749
1.2553463 0.3752732 0.082077593 5528168
1.2568661 0.37724382 0.081829503 1977420
1.2867336 0.41451865 0.075701013 2833756
1.2886555 0.41701451 0.076173499 2833759
1.2904661 0.41910225 0.076321989 2965089
1.2918594 0.4212034 0.076917797 2899550
1.2696705 0.39736632 0.075233281 2109782
1.2716238 0.39987907 0.075189203 3293025
1.2733712 0.40129274 0.074754804 1450565
1.2745261 0.40354359 0.074380025 397099
1.2776047 0.40680423 0.07444489 2701395
1.2795209 0.4090293 0.074746698 2833243
1.2814871 0.41103545 0.075187579 2899041
1.2834179 0.413403 0.075325862 2899040
1.2848232 0.41577283 0.075952724 2899294
1.2872571 0.41834894 0.076207742 2965086
1.2641822 0.39466733 0.074328393 528162
1.266392 0.39623103 0.075176075 1780039
1.2686418 0.39839208 0.075484067 2832988
1.2700886 0.4013148 0.075565815 3425641
1.2723434 0.40275657 0.075095445 2240855
1.2740251 0.40558326 0.074514657 792886
1.2757044 0.40777785 0.074677274 1583168
1.2781196 0.41049692 0.074923262 2833242
1.2599684 0.39122692 0.072452441 3094868
1.260608 0.3933934 0.073206842 658985
1.2623414 0.39434722 0.074043199 264476
1.2557261 0.39028206 0.070823744 1650779
1.2570924 0.39189917 0.071547046 2372951
1.2581584 0.39368683 0.072511137 1516357
1.2519445 0.38916534 0.069250003 7174806
1.2529906 0.39077932 0.069592103 5267583
1.2542747 0.39292482 0.07077314 2636899
1.2501185 0.38963845 0.068052098 8291731
1.2504725 0.39180201 0.068982303 7831957
1.2506844 0.40653878 0.057733521 8881549
1.2452669 0.40341595 0.057015166 8881290
1.2473683 0.4059065 0.057381123 8947084
1.2492818 0.40777925 0.057335034 9144205
1.2511319 0.41019982 0.057401419 9078670
1.2516793 0.41320533 0.05771786 9210257
1.242097 0.40217808 0.056510389 8946824
1.2439326 0.40436748 0.05612278 9143945
1.2452724 0.40688372 0.055550396 9275786
1.2472906 0.4095746 0.055892274 9341579
1.2490723 0.41196665 0.056209818 9407116
1.2507634 0.41400671 0.055893466 9341841
1.2419654 0.4058691 0.054368511 9407884
1.2433711 0.40884778 0.054383054 9473676
1.244759 0.41150403 0.053527862 9540492
1.2466797 0.41294679 0.053772971 9540241
1.311093 0.415014 0.093250409 2829916
1.3127174 0.41691172 0.093109593 1841476
1.3066592 0.41295001 0.092369184 6974349
1.3076966 0.41444853 0.092918679 3422574
1.3104398 0.41647178 0.092936218 1580104
1.2988 0.40778011 0.090856686 2766166
1.3003323 0.40923634 0.091930255 4278116
1.302799 0.41131273 0.091883674 5593205
1.304494 0.41367093 0.091648951 5396599
1.3058788 0.41548145 0.090888485 4871271
1.3078525 0.4172354 0.090827242 2701656
1.2951035 0.40623984 0.089170992 1645371
1.2968731 0.4081367 0.090182826 2238018
1.2988493 0.41064775 0.090141267 3817050
1.3006008 0.41300228 0.090129763 4738669
1.3025182 0.4147605 0.090474278 3490138
1.2840691 0.39602098 0.088622481 2633033
1.2856724 0.39772379 0.088913575 1974336
1.2877567 0.40000853 0.088625476 2501443
1.2893447 0.40242052 0.088500753 2633033
1.2913935 0.40469521 0.088640422 2633038
1.2930404 0.40695408 0.088814214 2106439
1.2948724 0.40927356 0.088229522 2040899
1.2967919 0.41158253 0.088230103 2566215
1.2988436 0.4134804 0.088471621 4804192
1.2718453 0.38490519 0.087796137 1711672
1.2745845 0.38817477 0.087188676 1185578
1.2760999 0.3901009 0.087095857 1712175
1.2774194 0.39185396 0.086921185 2633280
1.2796984 0.39461792 0.087468058 2764620
1.2817125 0.39667341 0.088071898 2764367
1.2838736 0.39904594 0.08763133 2830156
1.2857291 0.40126136 0.08794038 2764362
1.2872614 0.40355709 0.087259784 2830412
1.2891338 0.40597233 0.087202698 2961997
1.2909672 0.40807933 0.087382063 3028301
1.2928073 0.41015017 0.087657183 3094092
1.2948275 0.41291168 0.08765465 2369856
1.2637761 0.37781075 0.08657974 2040368
1.2647691 0.37992829 0.087368608 789532
1.2669142 0.38175958 0.088014781 1448239
1.2689837 0.38395324 0.087591469 2041409
1.2706653 0.38619339 0.087484285 2766157
1.2723258 0.38858756 0.087270275 2568006
1.2742064 0.39107376 0.086670846 1185582
1.2762158 0.39324746 0.086605325 1580335
1.2777961 0.39562228 0.086251989 2435902
1.2801315 0.39761007 0.086078316 2962248
1.2813345 0.40034419 0.086174965 3028045
1.2833912 0.40248498 0.086295202 3027790
1.2854093 0.40492916 0.086452022 3027791
1.2870542 0.40706462 0.086685821 2962510
1.257982 0.37431833 0.085589334 2632767
1.2594762 0.37640417 0.086169556 2303548
1.2611523 0.37817425 0.0865556 1513775
1.2631018 0.38060614 0.086780533 921117
1.2647493 0.38328373 0.085739076 1053728
1.2669153 0.38483423 0.086766809 2502468
1.2730501 0.39232475 0.086145401 2830664
1.2741427 0.39469671 0.085835844 987950
1.2760247 0.39674759 0.085651234 1251369
1.2781765 0.39918837 0.085727215 2896708
1.2982353 0.42252305 0.081069157 3559280
1.2989782 0.42492086 0.080574706 4349566
1.3006401 0.42608437 0.080675334 5466771
1.2506889 0.36857265 0.084764808 6447977
1.2516701 0.37087056 0.084125027 5526628
1.2536979 0.37278712 0.084186003 3487828
1.2554967 0.37476298 0.084650382 2106955
1.2572788 0.37721634 0.084813356 2041415
1.2594092 0.3797639 0.084011689 2107460
1.2613162 0.38208705 0.084318981 1118767
1.2622743 0.38371632 0.084729165 789545
1.294991 0.4246133 0.078897014 2441058
1.297013 0.4255389 0.079183713 3692151
1.2504261 0.37170321 0.084972933 6842739
1.2524798 0.37369055 0.083463609 6842228
1.2537737 0.37596345 0.083408669 5198178
1.2550018 0.37834546 0.082533315 4146781
1.2569262 0.38085887 0.082784146 1385284
1.2588396 0.38252467 0.083258063 1779260
1.2893853 0.42100403 0.076711237 2965087
1.2913116 0.42328894 0.077859521 2506077
1.2933081 0.42380965 0.078284517 1323348
1.2528825 0.37841249 0.082471907 8158851
1.2546337 0.38003722 0.081322625 5133915
1.2555606 0.38256052 0.081588387 2174535
1.2798625 0.41275403 0.075429007 2899038
1.2816559 0.41537195 0.076078817 2899039
1.2832658 0.41751054 0.076714888 2899037
1.2853884 0.41952637 0.076578841 2964829
1.287518 0.42158535 0.076934814 2964832
1.2891443 0.42354742 0.077315152 2767965
1.2647104 0.39777321 0.076259717 3227489
1.2666641 0.39939246 0.07639806 3228264
1.2679455 0.40169817 0.076286733 3492209
1.2702491 0.40499291 0.07534422 3360108
1.2720543 0.40711755 0.075375468 2241369
1.2742623 0.40949273 0.075054005 1912654
1.2757967 0.4112353 0.075196087 2767449
1.2778037 0.41402823 0.075227901 2833245
1.2794513 0.41598824 0.075852647 2767709
1.2615108 0.39652807 0.075170383 2174274
1.262985 0.39866441 0.076231822 3359327
1.2649425 0.40117219 0.076478094 4149367
1.2674838 0.40396494 0.075946644 4083322
1.2687016 0.40611142 0.075672597 3688300
1.2699288 0.40783376 0.07572262 3425129
1.2724848 0.41032448 0.0754897 2635869
1.2747405 0.4131459 0.07548973 2767708
1.2764587 0.41509944 0.075372905 2767710
1.2576902 0.39563799 0.0732968 1516871
1.259056 0.39730766 0.07455346 1187127
1.2541389 0.39442298 0.071488395 2111072
1.2549902 0.39666477 0.072615921 1979482
1.2504712 0.39335835 0.0698082 7306388
1.2511015 0.39582774 0.070781901 6319754
1.2483788 0.39518353 0.06920594 7897748
1.2485527 0.39648643 0.069455281 8029588
1.2496805 0.41174144 0.057897523 8947083
1.2504971 0.41435838 0.058412507 9210256
1.2425635 0.40565762 0.057447881 8947081
1.2443793 0.40901592 0.056947395 8947082
1.2463386 0.41038114 0.057360902 8947082
1.247787 0.41305754 0.057765737 8947339
1.2498984 0.41525096 0.057427928 9275790
1.2506353 0.41867173 0.057634383 9407890
1.2422701 0.40965796 0.056412473 9012615
1.2444334 0.41185337 0.055844143 9144200
1.2459422 0.41455188 0.055531561 9275785
1.2469887 0.41680947 0.055391341 9209992
1.248928 0.41895142 0.05581364 9538700
1.2400929 0.41085929 0.054195151 9539212
1.2422671 0.41310403 0.054576978 9342089
1.2436197 0.41583955 0.054607719 9408395
1.2467169 0.41822359 0.055250093 9605005
1.2404442 0.41487619 0.053815663 9408653
1.298759 0.41042185 0.093002364 3422299
1.3009945 0.41273415 0.092702195 3422556
1.3039554 0.41457257 0.093236297 1515094
1.295995 0.41006377 0.091728032 4080479
1.2969413 0.41156939 0.092026949 3882591
1.2988236 0.41336027 0.091750443 3751265
1.2998968 0.41564587 0.090779617 1715536
1.2917031 0.40879497 0.090108916 2040641
1.2935534 0.41036212 0.090791926 2237509
1.295289 0.41285127 0.090537429 2237761
1.297446 0.41508698 0.089684531 2371398
1.2821155 0.40049508 0.088674605 2830160
1.2841381 0.40267357 0.088615656 2698574
1.2858964 0.40537649 0.088966519 2698830
1.287843 0.4074991 0.089141399 2764367
1.2898005 0.40961397 0.089675784 2698570
1.2917689 0.41202149 0.088792369 2962252
1.2932266 0.41423288 0.089027479 1713471
1.2956464 0.41572145 0.088997737 1318968
1.2637911 0.38151512 0.088849053 2699585
1.2650071 0.38347635 0.089367568 3094353
1.2670913 0.38518164 0.089361846 3291992
1.2691288 0.38777494 0.088591024 3161176
1.2706469 0.39011148 0.088036329 2963027
1.2730196 0.39288583 0.08756642 791604
1.2745751 0.39478943 0.087931991 1712438
1.2767277 0.39697492 0.087990493 2698824
1.2783098 0.39938802 0.088445067 2764366
1.2802875 0.40166381 0.08866331 2698574
1.2821689 0.40406105 0.088217735 2830158
1.2839686 0.40647495 0.087940902 2961742
1.2861731 0.40855956 0.087966114 3093581
1.2883592 0.41060868 0.088115394 3159629
1.2902622 0.41350183 0.088549852 2305354
1.259794 0.38007966 0.087793663 1052461
1.2613803 0.38195458 0.088738367 2238005
1.2636844 0.38448003 0.088675931 3225930
1.2653797 0.38673466 0.08808656 3686745
1.2672838 0.38898167 0.088170826 4081512
1.2690914 0.3914935 0.087852255 3752290
1.270927 0.39349142 0.087194681 2963024
1.2730224 0.39586517 0.087451562 2172739
1.2745079 0.39846787 0.086526737 2304322
1.2764863 0.40076479 0.086521432 2896200
1.278751 0.40275219 0.086375788 2961995
1.2804333 0.40564549 0.086715057 3027532
1.2814976 0.40708449 0.087228894 3028041
1.2549317 0.37711686 0.08580704 2172743
1.2560329 0.37901822 0.086593613 1909053
1.2575634 0.38090676 0.08717297 1579319
1.2593405 0.38345525 0.086534932 1447476
1.2615893 0.38580486 0.086539194 2500663
1.2631807 0.38817745 0.087134555 3752010
1.2649411 0.39057207 0.087043256 6251391
1.2673374 0.39285585 0.086683095 6120072
1.2687347 0.39514333 0.086368546 3489126
1.2709923 0.39721704 0.085910261 2830926
1.2724884 0.39954636 0.086032584 2764874
1.2744663 0.40170562 0.085776269 2830918
1.2762355 0.40394866 0.086350128 3027787
1.2777488 0.40552109 0.085941315 3027787
1.2494633 0.37276396 0.085856497 8026498
1.2502567 0.37541327 0.08548376 6382192
1.2522082 0.37771237 0.085225567 4277601
1.2539315 0.37998891 0.085471511 2041678
1.2561535 0.38252828 0.084903717 1516104
1.2576678 0.38473126 0.084513828 1647421
1.2591742 0.38627535 0.084741876 1448237
1.2527055 0.38105285 0.08344458 6579828
1.2539538 0.38380891 0.082898185 4081239
1.2556816 0.38554382 0.083528548 1122111
1.2843446 0.42170757 0.07729283 2834012
1.2865412 0.4234482 0.077988684 2440798
1.2888417 0.42456704 0.078264281 2179425
1.252041 0.38562045 0.082130969 8817291
1.2535298 0.38644034 0.082944065 4871009
1.278414 0.41817418 0.07670334 2833502
1.2802721 0.41980389 0.077022374 2833500
1.2819946 0.42201683 0.077362448 2702938
1.2614419 0.40009642 0.076211825 3227734
1.2631252 0.4029071 0.076219693 5069439
1.2654479 0.40447697 0.076262027 5003392
1.2674609 0.40735167 0.075732142 3622250
1.2694241 0.410045 0.075542495 2964578
1.2707472 0.41194534 0.075775117 2833246
1.2728336 0.41441324 0.075648382 2767452
1.2748766 0.41660666 0.075765967 2833245
1.2763832 0.41866285 0.076593474 2899294
1.2578837 0.39878544 0.074495569 1121851
1.2594509 0.4013924 0.075513691 1648956
1.2613153 0.40419886 0.075989306 4016750
1.2635971 0.40671104 0.075598329 4147568
1.2647579 0.40871963 0.075415552 2964574
1.2667741 0.41107541 0.075441882 2701405
1.2690891 0.41335288 0.075863764 2767453
1.2709333 0.41509753 0.075948194 2898780
1.2726995 0.41760215 0.07592614 2899037
1.2541314 0.39837521 0.072518557 1848411
1.2558695 0.40036783 0.073652044 1912144
1.2573042 0.40279919 0.074680641 1188415
1.2510473 0.39750674 0.071287543 6254476
1.2523322 0.39942941 0.071844786 2966635
1.2537726 0.4018943 0.072929189 1978968
1.2491529 0.39825332 0.070432544 7898264
1.2500021 0.40052879 0.071214706 6714511
1.2512556 0.40241259 0.071776018 3820916
1.2477578 0.40046373 0.069359899 8226710
1.2476689 0.40138322 0.070071667 8160921
1.2480128 0.4161886 0.05804114 9144717
1.2403824 0.4110736 0.05696404 8881287
1.2430608 0.41359919 0.057179123 8881542
1.2453669 0.41560477 0.057663277 9078666
1.2468817 0.41829929 0.057626963 9210508
1.2485384 0.42034644 0.057276532 9407632
1.2408212 0.41472784 0.055891454 9143944
1.2425957 0.41716772 0.055929631 9275271
1.2446661 0.41934559 0.05582796 9407113
1.2389871 0.41618398 0.054896608 9407113
1.2407323 0.41796026 0.054728851 9538954
1.2424269 0.42020783 0.054290906 9605517
1.2918556 0.41175729 0.091480702 1316663
1.2866166 0.40974158 0.09040828 2698318
1.2884365 0.41081616 0.090667069 2501196
1.2901015 0.41236433 0.090575382 2172232
1.2914093 0.41436976 0.089651585 1777476
1.276983 0.40104482 0.088930577 2895697
1.278939 0.40392366 0.089327008 2698831
1.280661 0.4058246 0.089857057 2764366
1.2826511 0.40778071 0.089800283 2764365
1.2844353 0.40963197 0.089566335 2830157
1.2864468 0.41250128 0.089185864 2304331
1.2888571 0.41373649 0.088604748 2107980
1.2608086 0.38382167 0.089598536 2765116
1.2627025 0.3853274 0.089829326 3818071
1.2639413 0.38815087 0.089015722 5988736
1.2660971 0.3905659 0.088474467 5791107
1.2676352 0.39265147 0.088234797 4014700
1.2698662 0.39549541 0.088261157 2829907
1.2713652 0.39775422 0.088387221 2698575
1.2733027 0.39973748 0.088635892 2764364
1.2754077 0.40214446 0.088931322 2830158
1.2773196 0.4043968 0.089092717 2895951
1.2787849 0.40704116 0.08841005 3027534
1.2811139 0.40888083 0.088513181 3093582
1.2829276 0.4114053 0.089040726 2371145
1.2550539 0.38094985 0.087670729 2369600
1.2569479 0.38251731 0.088285416 1119275
1.2586294 0.38448206 0.088777795 1580082
1.2601682 0.38694257 0.088437051 2698810
1.2618854 0.38911933 0.087813154 4343386
1.2639855 0.39164996 0.087620616 5725053
1.2658275 0.39391506 0.08774434 4212072
1.2674755 0.39647606 0.087872997 2698320
1.2697126 0.3984468 0.087755546 2830159
1.271077 0.40102458 0.086956993 2961996
1.2731535 0.4033221 0.086815923 3027787
1.2750756 0.40559331 0.087143153 3028042
1.27695 0.40711018 0.087179214 3093579
1.2532983 0.38147107 0.086552933 1910091
1.2544649 0.38380054 0.086861163 1909572
1.2564377 0.38581711 0.087340534 1514036
1.2583106 0.38843611 0.086484507 1250602
1.2600108 0.39056665 0.086908191 2172213
1.2616686 0.393154 0.08656776 3948624
1.2636313 0.39560321 0.086301699 3817305
1.2659345 0.3975063 0.086045846 2568014
1.2678144 0.40010095 0.085762784 2830921
1.2697248 0.40230748 0.086151958 2831177
1.248781 0.3776024 0.086236283 8158342
1.2494128 0.38069627 0.085390851 6777206
1.2509292 0.38241887 0.085478246 4474719
1.2524655 0.38507149 0.08534494 3225428
1.2546055 0.38731337 0.084904432 1647430
1.2561094 0.38944119 0.085126087 1581628
1.2584696 0.39218041 0.085906923 987938
1.2650002 0.40003416 0.085645214 2830922
1.2478399 0.38197941 0.085156575 8947856
1.2502888 0.38418102 0.084417388 7960968
1.2509744 0.38677192 0.083488435 8553606
1.252718 0.38858148 0.083970293 4739421
1.2542986 0.39094144 0.084475145 1780040
1.2783968 0.42062786 0.077858791 2636634
1.2812893 0.42437339 0.078046605 4283516
1.273501 0.4191606 0.076668665 2899040
1.2748671 0.42031524 0.077451542 2505565
1.2772409 0.4209052 0.077777207 2505565
1.2614477 0.40698677 0.075656787 3490408
1.2655959 0.41226131 0.075501978 2701406
1.2674769 0.41461137 0.075806484 2832990
1.2692832 0.41695035 0.076351166 2833501
1.2715998 0.41964924 0.076570138 2636637
1.2576466 0.40467885 0.074846655 1648707
1.2584872 0.40668875 0.075080976 2504018
1.2602137 0.40863833 0.07549721 2898524
1.2620354 0.41103914 0.075220689 2701659
1.263661 0.4137786 0.075376183 2767196
1.2656629 0.41595855 0.075967491 2833247
1.2530488 0.40371042 0.072927654 1782363
1.2545942 0.40583938 0.073908761 2241365
1.2563848 0.40808538 0.074570328 2701401
1.2585194 0.4103404 0.075355381 2832730
1.2493532 0.40252748 0.071380258 7043477
1.2509277 0.40452957 0.072252676 3360880
1.2517287 0.40671629 0.07304728 2177119
1.2476376 0.40394396 0.071220338 7964059
1.2491255 0.40535307 0.071813226 6649747
1.2401667 0.41761208 0.056878 9078665
1.2430091 0.42036358 0.057332307 9275788
1.2395054 0.41997719 0.056100249 9406857
1.2793477 0.40694433 0.090863973 2435145
1.2816845 0.40894541 0.091030121 2304074
1.2834357 0.40988091 0.091277227 2632272
1.273598 0.40375525 0.089829251 2764622
1.2756597 0.40561199 0.090395465 2698573
1.2773246 0.40800095 0.090091676 2764108
1.2796702 0.4099541 0.089661151 2633037
1.2817935 0.41228107 0.089305669 2171977
1.265124 0.39611089 0.088452905 2567499
1.2661334 0.39805442 0.088632703 2698572
1.2679754 0.4001357 0.089077428 2830159
1.2701564 0.4023895 0.089399338 2830159
1.2720277 0.40485021 0.089174375 2961997
1.2738781 0.40728933 0.088901207 3093327
1.2755637 0.40889186 0.089156151 2764878
1.2774538 0.41058353 0.089358419 2304327
1.2547596 0.38722691 0.087561324 1777210
1.2572827 0.38936433 0.08800073 1185328
1.2590193 0.39221492 0.087776482 2172732
1.2608089 0.39433119 0.087859511 2830410
1.2622424 0.39651141 0.08803457 2698572
1.2641784 0.3989642 0.088206902 2895694
1.2663764 0.40145141 0.087595865 2961997
1.2682968 0.40378785 0.087401867 3028044
1.2704887 0.40575916 0.087418541 3028298
1.2718148 0.40795481 0.087871119 3028556
1.2514263 0.38625488 0.086502984 2238545
1.2530729 0.38888597 0.087072 1909577
1.2551812 0.39093223 0.086963549 2040641
1.2570988 0.39313975 0.086886853 2106426
1.2588577 0.39570388 0.08656241 2633279
1.2607113 0.39784619 0.086519495 2896455
1.2628243 0.40021577 0.086294398 2896203
1.2645842 0.40266079 0.086375505 2896457
1.2666365 0.40519685 0.087245181 3093836
1.2481931 0.38510719 0.086004555 7369088
1.2495676 0.38794857 0.085641757 5855853
1.2510397 0.39023489 0.085622296 3488087
1.2530576 0.39231586 0.084988922 2042186
1.2551651 0.39424241 0.085317001 1713475
1.2561778 0.3967486 0.085291564 2239038
1.2587382 0.3987838 0.085858449 2830914
1.2609241 0.40111265 0.085540116 2830921
1.2501082 0.39077422 0.084101066 8421509
1.2515053 0.39364797 0.083951816 5396829
1.2530428 0.39607137 0.084266037 1451327
1.2696762 0.42051414 0.076815709 2374747
1.2716753 0.42192781 0.077586025 2902633
