# .PCD v0.7 - Point Cloud Data file format
VERSION 0.7
FIELDS x y z rgba
SIZE 4 4 4 4
TYPE F F F U
COUNT 1 1 1 1
WIDTH 1178
HEIGHT 1
VIEWPOINT 0 0 0 1 0 0 0
POINTS 1178
DATA ascii
1.3109453 0.27500302 0.022150099 3354940
1.313206 0.27926421 0.021725535 3158844
1.3158548 0.27969718 0.021356702 1710887
1.3175731 0.28320831 0.020276129 331031
1.3190305 0.28412604 0.020677447 770
1.3220468 0.28740615 0.019665182 4209465
1.3241162 0.28902805 0.019907594 4341322
1.3266456 0.29113436 0.018795609 2828337
1.3362546 0.30132335 0.015880108 2766153
1.3400066 0.30495441 0.016315103 2763828
1.3041682 0.27076089 0.022931755 1841189
1.3057883 0.27312821 0.022415817 3486003
1.30776 0.27497834 0.021782875 3618103
1.3100909 0.27524769 0.020694077 4013124
1.3117733 0.27891403 0.020568788 3685196
1.3145491 0.27966386 0.020805538 2895685
1.3159659 0.28293198 0.019836843 1053990
1.3183367 0.28610379 0.018817544 330509
1.3213096 0.28624094 0.018298388 2236705
1.3367803 0.30194426 0.012166798 132110
1.2988982 0.26696426 0.021161914 724760
1.3008962 0.2696715 0.021120131 527128
1.30215 0.27074343 0.020184577 526105
1.3038535 0.27267706 0.021765113 1577249
1.2830353 0.25336087 0.021797597 7103092
1.284861 0.2556814 0.022774935 5329046
1.2872359 0.25756145 0.022399247 3355470
1.2890387 0.25967586 0.021807492 2697024
1.290512 0.2620362 0.020959198 2368047
1.2924728 0.26381958 0.020691693 460563
1.2947693 0.26530683 0.019850194 855579
1.2968481 0.26810861 0.019300222 1776680
1.2991054 0.26984626 0.018898666 1316647
1.3012105 0.27280265 0.017042637 725266
1.3023183 0.2728917 0.017606139 724762
1.2754942 0.24644423 0.022827387 1248012
1.2766888 0.2500717 0.021728516 1908768
1.279682 0.25135505 0.022436559 6053739
1.2808614 0.25426179 0.021366775 6841985
1.2834039 0.255723 0.020836413 7499396
1.285347 0.25764459 0.019920588 6644855
1.287142 0.26024264 0.019006491 3684941
1.2911817 0.26504046 0.017521918 1186092
1.2934732 0.26650721 0.01744163 592665
1.2958997 0.26882702 0.016716778 920876
1.3001027 0.2727133 0.016479135 1844250
1.2640913 0.23814327 0.022422194 2107181
1.2672524 0.24182647 0.021849275 2566975
1.2686572 0.24558789 0.021495998 2962246
1.2714267 0.24640226 0.021277487 2237488
1.2736361 0.24858505 0.020659626 723726
1.2751317 0.25109714 0.020656228 790810
1.2778517 0.25193161 0.019609272 2960935
1.2790024 0.25520188 0.019223988 6050379
1.2840656 0.26013458 0.01860261 6515062
1.2877822 0.26232964 0.016650259 4014160
1.2895118 0.26445055 0.015726149 3027271
1.2595823 0.23774076 0.021154046 1642515
1.2615191 0.23839206 0.020726383 1906718
1.2632234 0.24089497 0.020574152 1842212
1.265132 0.24272436 0.020085871 2500914
1.2675036 0.24524862 0.019226015 2698295
1.2696118 0.24722803 0.01905334 2895160
1.2714657 0.24904907 0.018987834 2172731
1.2741754 0.25135189 0.0182212 461592
1.2759769 0.25504625 0.015920699 1644073
1.2780648 0.25497121 0.016757011 3749676
1.2847137 0.26256919 0.015541136 4541013
1.2517377 0.23128748 0.021018147 1380638
1.2548788 0.23254299 0.0214535 1380375
1.2552081 0.23591727 0.020378411 1314836
1.2583632 0.23737472 0.019510627 1577500
1.259825 0.23932719 0.019279063 1842219
1.2627183 0.2412641 0.018660486 1776425
1.2643666 0.2440275 0.018837154 2435897
1.2672307 0.24444997 0.017506003 2041645
1.267859 0.24757499 0.017497838 2831428
1.2753686 0.25407702 0.014590025 856348
1.2488759 0.22982341 0.02026391 1841195
1.2505665 0.22952598 0.019369483 1972772
1.2537229 0.23586959 0.017607689 1315872
1.2564747 0.2378003 0.01728195 1644062
1.2582104 0.23873729 0.017703712 1315626
1.2465825 0.23088217 0.017550051 2631467
1.2489038 0.23194271 0.015964627 2304063
1.2512476 0.23475438 0.015714526 1974321
1.2535808 0.23610038 0.01582855 1776165
1.2556682 0.23699528 0.015159607 1250067
1.2449859 0.23196876 0.014136732 4804450
1.2471615 0.2327922 0.014130712 2500921
1.2492774 0.23472077 0.014852643 2763840
1.2433407 0.23214942 0.011818826 6121070
1.2456616 0.2327407 0.011685014 3619396
1.2422445 0.23318887 0.0092594624 7566971
1.2443624 0.23417485 0.0098567009 3947320
1.2414279 0.23314023 0.0061849356 8290185
1.2421191 0.23469412 0.006195128 6447724
1.2444949 0.23618037 0.0057927966 4603187
1.2400131 0.23355305 0.0051031113 7171440
1.2418469 0.23571146 0.0039374828 6578009
1.2341878 0.23013788 0.0024126172 9473680
1.2361841 0.23179448 0.0028105378 9078923
1.2379164 0.23483664 0.0018877983 8749958
1.2397424 0.23653293 0.0011087656 7432286
1.2344191 0.23362815 -4.1723251e-05 9406855
1.2365457 0.23451662 0.00049442053 8748669
1.2386631 0.23680782 -0.00073093176 8618636
1.4795289 0.40785009 0.030002058 2699083
1.4762291 0.40572405 0.027978659 3027530
1.4779727 0.40625411 0.028584123 2830658
1.4805032 0.40920526 0.027134299 3226185
1.4823215 0.40997279 0.027660429 3093065
1.4539899 0.38416296 0.031994045 989474
1.4577374 0.38825184 0.030887783 2434096
1.4624298 0.3931855 0.030286014 3618402
1.4695315 0.39985675 0.027663171 2633289
1.4725293 0.40418237 0.026618719 3486795
1.4745619 0.40514845 0.026780188 3355977
1.4763765 0.40783775 0.025224447 4078420
1.4786623 0.40955335 0.02565068 3488087
1.4474337 0.38184124 0.031473935 3421772
1.4511586 0.38305151 0.031692982 2305077
1.4511909 0.38597584 0.030314863 3552320
1.4549096 0.38777155 0.031230152 923182
1.4586668 0.3919062 0.030070901 3156808
1.4598949 0.3932668 0.026797593 2959431
1.465042 0.39741153 0.025003254 6381170
1.4673095 0.39948297 0.025892615 3289946
1.4694414 0.40256101 0.024393499 3553365
1.4706867 0.40359706 0.025503874 3553097
1.4738376 0.40773439 0.025458395 4012365
1.4768186 0.40690726 0.023961782 4407881
1.4767023 0.41016465 0.024783492 3684188
1.442776 0.37921196 0.029994369 1575971
1.4453079 0.37979728 0.029893756 1907233
1.4483931 0.38070029 0.029950023 2500134
1.4497725 0.38449508 0.028013766 4014414
1.4528008 0.38866973 0.026519895 2174295
1.4547286 0.38856953 0.026312768 1451318
1.4566499 0.39208245 0.025648952 1120544
1.460942 0.39760989 0.025560498 3485771
1.4637792 0.39867824 0.023981571 5460591
1.4663992 0.40046102 0.024070561 4209759
1.4679674 0.40276009 0.023431957 4276815
1.4319407 0.36768091 0.029818833 4803679
1.4416881 0.37775648 0.027208269 1118239
1.441807 0.38064802 0.027377307 1642526
1.4452596 0.38200396 0.0255934 593952
1.4474795 0.38323772 0.026881337 2238777
1.4485798 0.38751256 0.025594473 3555132
1.4516566 0.38905007 0.025270343 3949927
1.4536674 0.39156443 0.022858024 4343124
1.455256 0.39178318 0.023054719 1645107
1.4580719 0.39549828 0.022871792 1842465
1.4601018 0.39778405 0.021398902 3356732
1.4621773 0.39933807 0.02256 4868956
1.4649076 0.40273136 0.022460222 5066834
1.429944 0.3677116 0.030047774 3619148
1.4318299 0.37106842 0.028202415 2238000
1.4357913 0.37492126 0.026996613 1644573
1.4381242 0.37740695 0.02587539 1840934
1.4395806 0.37843496 0.025553107 1709850
1.4421606 0.38148671 0.025192261 856111
1.4439132 0.38322556 0.023973763 1250353
1.4467111 0.38569206 0.023546278 1712948
1.4481264 0.38740361 0.02243942 2175538
1.4502537 0.38938773 0.022018671 3751758
1.452009 0.39062196 0.021972954 3687234
1.4549887 0.39345461 0.021219313 2963263
1.4565685 0.395455 0.021283388 660506
1.4577601 0.39829284 0.019994557 396554
1.4608953 0.39827108 0.020170569 3946799
1.4232795 0.36405587 0.026317716 854593
1.4261662 0.36817312 0.026260495 1120281
1.4283495 0.36977708 0.026697099 2961975
1.4299912 0.37250376 0.025709212 2828598
1.4343178 0.37612629 0.024256945 2565441
1.4358845 0.37648612 0.024067938 2103330
1.4379332 0.3797667 0.023465335 1316126
1.4407742 0.38316041 0.022705495 1252124
1.4446263 0.38566715 0.021828234 1712157
1.446007 0.38884294 0.020796716 1649955
1.4486699 0.38934541 0.021152377 3094618
1.4068763 0.3521859 0.029084146 131856
1.4098027 0.35207039 0.028762579 1579296
1.4123223 0.35604608 0.027097404 2829351
1.4148228 0.35769796 0.027003407 6579569
1.4166094 0.36116016 0.026365519 7236461
1.418036 0.36081892 0.025951982 6908028
1.4203 0.36423987 0.026688933 3618651
1.4240577 0.36757159 0.025730968 986390
1.426748 0.37015247 0.023453236 2237227
1.4284592 0.37155026 0.024270654 3091782
1.4313371 0.37413257 0.021823585 4606797
1.43239 0.37604111 0.022152841 4081470
1.4403861 0.38271981 0.020077765 1583639
1.4416784 0.38481772 0.020386457 727073
1.397958 0.34528077 0.029021502 1315860
1.4006898 0.34608936 0.028962493 2105637
1.4044597 0.35016268 0.02726382 2698291
1.4067428 0.35225224 0.02703774 787981
1.410568 0.35416192 0.025897384 1905196
1.4106252 0.355757 0.025874436 790806
1.4124988 0.3581568 0.025535703 2960694
1.4150389 0.35954171 0.025902331 5395026
1.4171996 0.36306822 0.025577664 6447738
1.4181992 0.36383259 0.025195241 6712172
1.4233384 0.36924541 0.021443963 1447999
1.4248934 0.37003803 0.02229017 1185313
1.4289815 0.37473422 0.019638896 2569001
1.391678 0.33830339 0.027865946 5919591
1.3926373 0.33968812 0.029101729 1971244
1.3948693 0.34174669 0.02846086 1905439
1.397052 0.34382766 0.027736127 1182230
1.4008741 0.34601241 0.02631408 1511984
1.4025007 0.34983349 0.02662015 5593201
1.4059665 0.35277307 0.025788367 2827801
1.4077954 0.35503405 0.023831666 1316388
1.4095124 0.35680276 0.024546683 1576738
1.4147533 0.36378109 0.021968305 5723515
1.4172578 0.36607039 0.020396113 6578826
1.4196936 0.36829031 0.018845677 7236719
1.4211662 0.36871982 0.019714594 5462892
1.4264194 0.37474251 0.018587053 1844022
1.3959866 0.34560621 0.023839116 1973011
1.3975322 0.34722465 0.024959683 724513
1.4041678 0.35479832 0.021971524 6908034
1.4058819 0.35387081 0.021668434 1644594
1.4201643 0.36901599 0.018049359 5465218
1.4224892 0.37122399 0.016799033 1978736
1.4238786 0.37401068 0.016967356 658988
1.3696077 0.32144529 0.029708922 1579803
1.371408 0.32231975 0.030135453 2500894
1.37396 0.32492989 0.027669013 3290410
1.3781941 0.32911462 0.027254879 7502977
1.3786645 0.33083802 0.0261904 7699328
1.3806201 0.33176982 0.024993598 5725796
1.3870137 0.34108663 0.023852527 1185564
1.3899517 0.34099424 0.023411214 3685713
1.3916845 0.34509003 0.021943033 3880030
1.3938138 0.34526736 0.022450686 3949617
1.3959546 0.34622473 0.022952378 3095366
1.3991902 0.35209858 0.021553755 3814739
1.4205704 0.37368596 0.015371799 3491975
1.3642043 0.31751323 0.027009189 198659
1.3685009 0.3216058 0.02558136 525825
1.3684883 0.32277679 0.026973724 131589
1.3748696 0.32867384 0.024090528 3752534
1.3786787 0.33214408 0.023734748 6054009
1.3820896 0.33589751 0.022795975 3619939
1.3839867 0.33758712 0.022907794 1713207
1.3863802 0.34036243 0.021582007 791832
1.3885877 0.34284037 0.021314561 1120539
1.3906174 0.34498358 0.020993948 3686212
1.3605993 0.31632686 0.026785493 329991
1.3623976 0.31722426 0.0272789 1283
1.3641074 0.32027382 0.025758207 2107699
1.366405 0.32248449 0.02544111 1317656
1.3684642 0.32394516 0.024801195 461070
1.3759511 0.33420908 0.021247864 5066605
1.3790516 0.33538073 0.022359073 5857671
1.381281 0.33692586 0.020074666 4939375
1.3827953 0.33908969 0.019457102 4214620
1.384562 0.34035403 0.020216167 401713
1.3899169 0.3446306 0.018731892 4278869
1.3912721 0.34601283 0.017611623 5986672
1.3562058 0.31511807 0.02507478 854294
1.3588126 0.31522214 0.024979949 526094
1.3613095 0.31850976 0.024036825 1909552
1.3682667 0.32651114 0.022093117 463652
1.371139 0.32965249 0.020949721 1906991
1.3731356 0.32962173 0.02072084 3091522
1.3737271 0.33302122 0.02009362 4143676
1.3491738 0.30965298 0.023912966 5460827
1.3511375 0.31024182 0.024405181 4542046
1.3536608 0.31349528 0.023437142 2500158
1.3656802 0.32520527 0.020108461 2043453
1.3334258 0.29529077 0.026321471 5394540
1.3345091 0.29768091 0.025868893 5394795
1.3369112 0.29738939 0.02562964 5066859
1.3385842 0.30075163 0.025309443 2700614
1.3403528 0.30310434 0.024067342 397850
1.3434954 0.30464178 0.023109376 2696705
1.3449368 0.30789864 0.022182643 5325397
1.3473222 0.30972588 0.022897482 6708848
1.3507203 0.31288576 0.02071631 4936278
1.3261724 0.29012591 0.025112092 657160
1.3278568 0.29041392 0.024913907 986125
1.3284757 0.29381335 0.023913562 2630437
1.3315111 0.29536921 0.024023116 3619144
1.3333704 0.29740685 0.02381593 5065301
1.3372438 0.30260849 0.021713793 4146529
1.3399634 0.30304605 0.021582425 856375
1.3417945 0.30614215 0.021832228 330768
1.3439174 0.30741912 0.020272374 3026194
1.346289 0.31066 0.019628346 6117476
1.3238804 0.29029053 0.023229182 658460
1.3256214 0.29178351 0.023142099 1184015
1.3280294 0.29396218 0.022826791 1777694
1.3297863 0.29663634 0.022035003 3619383
1.3324594 0.29808587 0.020694256 4607582
1.3353131 0.30246711 0.021143675 5461872
1.3378366 0.30572057 0.020175695 2108239
1.3432757 0.3107388 0.017491579 1186833
1.3096294 0.28054631 0.024169922 4143684
1.312305 0.28094512 0.023776293 2896452
1.31323 0.28229523 0.025022924 2367546
1.3160982 0.28548938 0.022963583 329236
1.31846 0.28702474 0.021908104 198158
1.3203251 0.28866738 0.021311998 1447704
1.3216224 0.28997439 0.022447526 263178
1.323544 0.292615 0.021073699 920328
1.329215 0.2976473 0.019625843 3026227
1.3381287 0.30542195 0.01647222 3683665
1.3386195 0.30937064 0.014980137 3224902
1.3407483 0.30945623 0.015537918 727064
1.3061056 0.27806342 0.022599161 4407116
1.3087621 0.27856523 0.022244334 4013120
1.3126001 0.28344965 0.020742536 4276309
1.3152539 0.28418922 0.021365583 856353
1.3176594 0.28739601 0.020335376 395784
1.3262281 0.29475552 0.017987311 657685
1.326759 0.29799384 0.01711452 1182997
1.3363427 0.3086412 0.013741493 5854834
1.2941964 0.26877302 0.023416519 4211796
1.2969868 0.26913792 0.022589147 3290696
1.29809 0.27183491 0.022211254 1974062
1.3010579 0.27289897 0.02191937 920857
1.3035197 0.27571398 0.021197379 1776162
1.3049558 0.27883315 0.020504951 3685710
1.3077278 0.27865916 0.020198882 4079697
1.3092004 0.28224337 0.019609392 4867417
1.3358946 0.30746651 0.012261868 5460834
1.2812901 0.25646919 0.023893416 7764340
1.2831494 0.25629973 0.023707986 6643616
1.2853875 0.25948215 0.022531629 1510244
1.2871555 0.26339602 0.022660494 657685
1.2884071 0.26442605 0.022082031 591119
1.2911896 0.26615596 0.021327555 2105130
1.2933908 0.26837504 0.020985961 2960956
1.2951927 0.27013224 0.020600498 3816008
1.296967 0.27163064 0.019786954 3620178
1.2998352 0.27447987 0.019192636 1250862
1.274966 0.25095963 0.022680759 792088
1.2776796 0.25496078 0.022396505 3750471
1.2793512 0.25586909 0.023443282 5331045
1.2815275 0.2581901 0.021626055 5262696
1.2832923 0.25971812 0.022069931 1907521
1.2855158 0.26243407 0.021084487 1250081
1.2881105 0.26379776 0.020867944 1315361
1.2900026 0.26666725 0.019096732 2040108
1.2918221 0.26848954 0.019157946 2829629
1.2943711 0.2700634 0.018739462 3421769
1.2949371 0.27196366 0.018003523 4145223
1.2975653 0.27533364 0.01819551 4146003
1.2688847 0.24680656 0.022879124 3553613
1.2691019 0.24826807 0.021635234 3553348
1.271849 0.25082082 0.022141635 1054765
1.2739749 0.2530697 0.021526873 722959
1.2761543 0.25415677 0.02136302 2303273
1.2776103 0.25693578 0.020506263 3222322
1.2798862 0.25908041 0.020156384 3946315
1.282259 0.25984561 0.018872321 6712441
1.283602 0.26334226 0.017710567 4604757
1.2862675 0.26536965 0.017074764 1514794
1.288438 0.26633102 0.017376482 987685
1.2883836 0.2692973 0.016853988 2763832
1.2578357 0.23864627 0.022660613 2367270
1.259428 0.24112833 0.022191703 2565938
1.2624729 0.24206108 0.0215258 2631730
1.26387 0.2452299 0.021236479 3224395
1.2663205 0.2467168 0.02093339 3421767
1.2674303 0.24915731 0.021030307 4013642
1.2702864 0.25135016 0.019801021 3093059
1.2724555 0.25160366 0.019566774 987943
1.2743473 0.25493956 0.018706203 855582
1.2770073 0.25654697 0.017978966 4274748
1.2777448 0.25942069 0.018434525 2959659
1.2809533 0.26290935 0.0180794 3882538
1.2831066 0.2633599 0.015744865 4738392
1.28354 0.26574928 0.015535057 1646660
1.2505606 0.23195982 0.022048473 1183521
1.2520249 0.23612326 0.021708369 1774108
1.2551467 0.23760796 0.021740258 1578015
1.2566032 0.23975146 0.020149469 2105385
1.2584929 0.24104959 0.020537794 2435122
1.2605853 0.24330926 0.020556748 2962751
1.2624145 0.24559653 0.020047188 3093314
1.2647281 0.24799365 0.018943369 3619915
1.2665091 0.24911433 0.019060254 3751496
1.2685617 0.25176746 0.01791048 4014165
1.2719543 0.25536132 0.018010974 1185580
1.2485836 0.23397011 0.020375848 1709094
1.2508748 0.23519629 0.02094543 1510954
1.2533491 0.23836601 0.018912673 1907750
1.2552763 0.24014187 0.018890977 2039846
1.2565405 0.24271715 0.01867944 2436916
1.2462839 0.23242223 0.019367933 2894123
1.2476327 0.23585677 0.016956151 2370364
1.249215 0.23696446 0.016978085 2369335
1.251498 0.23856586 0.016649306 1776173
1.2528763 0.24072641 0.017084897 2104375
1.2440898 0.23363781 0.015705526 5002855
1.2455947 0.23490924 0.015382946 3094084
1.247613 0.23678839 0.015114486 2895684
1.2497956 0.23913002 0.015372276 2039348
1.2432353 0.23317105 0.013820767 6711922
1.2442026 0.23584485 0.012986779 3684145
1.2415354 0.23431438 0.010721445 8091525
1.2426877 0.23774081 0.0096530914 4870993
1.2434158 0.23779207 0.0093579888 4274228
1.24207 0.23663032 0.0086075068 5789005
1.239933 0.23831314 0.0052349567 6644582
1.2404816 0.23946393 0.0045067668 6642764
1.2344034 0.23512578 0.0027492046 9473172
1.23707 0.23596781 0.0030032992 8420478
1.2387488 0.23860526 0.0031043887 7696752
1.240352 0.23877269 0.0018980503 7829367
1.2330573 0.23516428 0.0011498332 9604750
1.2350757 0.23761505 0.00077921152 9077893
1.236279 0.23939908 0.0017604232 8287859
1.2384257 0.24119592 -0.00028902292 8487557
1.2325429 0.23715192 0.00057595968 9605008
1.2350786 0.24023223 -0.0020526052 9276045
1.4751408 0.40666866 0.028930485 2502207
1.4774789 0.40794927 0.03028065 2240589
1.4586694 0.39321494 0.03149122 3092026
1.4711466 0.40636814 0.028577685 2894913
1.4736373 0.40716136 0.028398216 3159376
1.4757946 0.41026229 0.026592791 3028545
1.4774401 0.4113645 0.026337981 3225436
1.4445989 0.38262391 0.033289433 5589895
1.4464741 0.38298202 0.032997966 4339572
1.4521132 0.39089292 0.030971229 2368303
1.4548821 0.39134985 0.030597746 1515818
1.4676359 0.40459698 0.026543498 3552847
1.4693151 0.40567768 0.027421296 3357258
1.4718411 0.40781152 0.026294649 3620170
1.4748899 0.41113746 0.024918556 3880781
1.4437025 0.38121653 0.031951129 3354695
1.4492662 0.38564003 0.030522346 4012871
1.4501325 0.38931692 0.029808044 2831432
1.4530481 0.38976336 0.029405177 1975868
1.4620916 0.40186214 0.024357736 2893638
1.4642 0.40246373 0.024887264 2960966
1.4658513 0.4041242 0.024540484 3684943
1.4398851 0.38162106 0.029005051 2037028
1.4417808 0.38253057 0.029384971 2695735
1.4526374 0.39224708 0.026145577 3157597
1.4546752 0.39650619 0.024780035 2170197
1.4568408 0.39676285 0.023933768 2170417
1.4578215 0.40072757 0.023348391 2173244
1.4598477 0.40105265 0.023197591 2896440
1.4626471 0.40378338 0.022951007 3816518
1.4277689 0.37137687 0.029807508 330779
1.4304047 0.37390918 0.029651761 3486778
1.4347916 0.37623578 0.027936101 1052937
1.4360309 0.37874556 0.027285099 1380914
1.4381187 0.3807922 0.027797222 1973030
1.4405341 0.38218582 0.025501788 856364
1.4423132 0.38640869 0.024814129 1709613
1.44488 0.38661164 0.024372339 2959921
1.4461131 0.38984406 0.023859262 3027509
1.4484091 0.39106601 0.024087548 5132137
1.4507694 0.39338553 0.023342192 4804966
1.4525516 0.39600015 0.021636665 4080725
1.4546869 0.39756334 0.022060871 2962241
1.457425 0.39986289 0.021564245 1909799
1.4595474 0.4018172 0.020781457 3749700
1.4244616 0.36953795 0.02798444 1580585
1.4268491 0.3714028 0.027676642 1382941
1.4290609 0.37330055 0.027034402 2237226
1.4322906 0.37598622 0.026600659 2170920
1.4331219 0.37814248 0.02624768 1777450
1.4349372 0.38050163 0.024529338 1515567
1.436451 0.38194317 0.024403274 2435890
1.4395025 0.38497597 0.024474442 1316397
1.4404771 0.38568217 0.023138881 1053744
1.4423617 0.38708413 0.022526383 1709336
1.4455898 0.39022851 0.021710515 3817552
1.4473174 0.39199656 0.021347702 4739165
1.4485939 0.3942256 0.020837843 5065829
1.4507164 0.39623177 0.020604491 5067872
1.4530072 0.39763761 0.020825624 5001048
1.4546871 0.39996725 0.02022481 2241592
1.4132351 0.36056155 0.027592301 4474941
1.4144132 0.36155772 0.028357387 5526865
1.4164324 0.36441702 0.027222931 4014943
1.4215211 0.36812639 0.026536524 2369334
1.4255598 0.37206417 0.025179267 2697017
1.4298036 0.37844265 0.023363173 1120801
1.433881 0.38056928 0.023402393 1646107
1.436998 0.38235146 0.02268362 1515559
1.438181 0.38430965 0.021322787 727574
1.44293 0.39056337 0.021160483 2042150
1.4447651 0.3923437 0.020678341 4541263
1.3970422 0.34630734 0.030548751 3618615
1.4027243 0.35109812 0.028137088 6316176
1.4045444 0.35437733 0.027787447 3354687
1.4068599 0.35539722 0.028466046 724997
1.4097881 0.35855263 0.027222276 1381663
1.411723 0.35986698 0.026925564 2894391
1.4136736 0.36261737 0.026337802 5527908
1.4159584 0.36386168 0.025567174 6777475
1.4181521 0.36787117 0.026423812 2501439
1.4217958 0.37171686 0.02352798 3092555
1.4239545 0.37133223 0.024061382 2500921
1.4256158 0.37564754 0.022193909 2238000
1.4281634 0.37689203 0.021977067 1450792
1.4307659 0.38005424 0.02096796 264966
1.4315156 0.38111621 0.02212137 726800
1.3933539 0.34451187 0.029615581 1776163
1.3960829 0.34492254 0.029312968 1184274
1.4000328 0.35113424 0.027109087 6514546
1.4019415 0.35301834 0.026730537 7103098
1.4034531 0.35463631 0.027466297 5987465
1.4080892 0.35937262 0.024107039 1802
1.4088156 0.36038864 0.02549994 988475
1.4141895 0.36474061 0.022556603 5725276
1.4159448 0.36781645 0.02181375 6579077
1.418206 0.36882001 0.02134949 4541800
1.4194565 0.37078363 0.021597028 4080220
1.4222906 0.37396628 0.0198524 3092815
1.4238312 0.37518227 0.019630075 2566719
1.3898625 0.34558439 0.026954651 2964050
1.3942499 0.34758949 0.024676323 660265
1.3954911 0.34948856 0.025606513 1908283
1.3990623 0.35214609 0.024974465 6974854
1.400249 0.3537029 0.023801625 6380919
1.4024174 0.35336429 0.024282157 7236229
1.404866 0.35806108 0.021245062 7040650
1.4064777 0.35871679 0.022676051 1253714
1.4108906 0.36485291 0.022381961 1449995
1.4137609 0.36801732 0.021305442 6383208
1.4163284 0.37051427 0.020823121 5267838
1.4205952 0.37484688 0.018227398 3817044
1.4220673 0.37599361 0.018026888 3159618
1.3862827 0.34244716 0.02542001 1248278
1.3881911 0.34376895 0.024742305 1121584
1.3903675 0.34577411 0.02373302 989995
1.3921496 0.34749478 0.023718536 1381939
1.3941159 0.35023731 0.023500323 789779
1.3977449 0.35379392 0.022698164 5789520
1.4031522 0.35898876 0.021548092 7829137
1.4169629 0.3721326 0.015348971 6515329
1.4190853 0.37447762 0.015504062 4869971
1.3684909 0.32408559 0.028393984 527884
1.3768516 0.33377844 0.026733756 6581868
1.3786646 0.33680189 0.024514556 6253403
1.3832204 0.34042287 0.023780286 1318190
1.3850278 0.34268272 0.02324456 791318
1.3858769 0.34395671 0.023206115 528400
1.3892807 0.3463738 0.022121787 790565
1.3913757 0.34878153 0.022160947 8229
1.3614635 0.32038242 0.026352346 4212565
1.363019 0.32193249 0.027698755 4277068
1.3648257 0.3222214 0.027429104 1450003
1.3664372 0.32586932 0.026447892 135946
1.3790919 0.3390553 0.021633387 6119811
1.3808939 0.3401674 0.022975683 2765905
1.3869528 0.34594738 0.020310044 988194
1.3541026 0.31670886 0.026260495 854801
1.3566782 0.31890565 0.025613546 2039595
1.3590477 0.32021832 0.025862813 3553094
1.3621354 0.32387424 0.025583744 5395562
1.3648369 0.32719672 0.02310127 3026771
1.3678503 0.32772505 0.023496091 263965
1.3687974 0.33107507 0.022111177 527377
1.3712659 0.33364505 0.020516217 2498839
1.3751829 0.33725393 0.020253062 6449003
1.3387232 0.30268133 0.027530074 2173246
1.3474712 0.31099468 0.025570154 4407112
1.3497841 0.31321496 0.025699079 2039583
1.3520098 0.31479162 0.025111437 788250
1.3618879 0.32612848 0.020500481 5066858
1.3636405 0.32906753 0.021150887 5001582
1.3655183 0.32859993 0.020993769 3292763
1.3723907 0.33652091 0.019673645 4080674
1.3342276 0.29982382 0.02583456 5262183
1.3341656 0.3010174 0.027142942 5393763
1.336787 0.30299884 0.027026474 4080979
1.3392539 0.30591953 0.026657283 465177
1.3407686 0.30726027 0.024222314 856576
1.343698 0.30972207 0.024311423 3025217
1.3458201 0.31314862 0.023546219 1051411
1.3476286 0.31341457 0.023209691 3750977
1.3268259 0.29660112 0.025748551 2766139
1.3300411 0.29831547 0.025429845 4868170
1.3319352 0.2994082 0.025086105 5658218
1.3355633 0.30369747 0.022635698 4739699
1.3401216 0.30781603 0.022459745 659225
1.3422983 0.30873841 0.021815121 988160
1.3441782 0.3117426 0.021237671 4537396
1.3466301 0.31583619 0.019505084 3617862
1.3202124 0.29106641 0.024461031 1514789
1.3216162 0.29182702 0.025189042 987947
1.3248353 0.29480237 0.023539603 658457
1.3268988 0.29636389 0.02461046 2960165
1.3294522 0.29826015 0.023816884 5065816
1.3330021 0.30371201 0.02218014 5591920
1.3339294 0.30452251 0.022864223 5461613
1.3370981 0.30701232 0.021729231 3356494
1.3414471 0.31118369 0.017732739 134146
1.3428439 0.31217051 0.019080937 2697513
1.3451896 0.31496376 0.018153548 5395303
1.3078141 0.28138244 0.025698245 4670792
1.3102214 0.28223467 0.025901258 2302000
1.3119202 0.2854048 0.024363697 459284
1.3142316 0.28648943 0.024546206 460559
1.3164134 0.28917831 0.023687363 2104101
1.3182416 0.29044265 0.023606598 2565934
1.321135 0.29324394 0.022518396 1380887
1.3235327 0.29444045 0.023176253 525574
1.3259048 0.29819727 0.021955848 1775639
1.3264475 0.29832608 0.019945621 1316134
1.3286468 0.30074596 0.019778073 5131582
1.3373077 0.31105965 0.016679227 3425385
1.3393527 0.31113291 0.017163992 594994
1.3052007 0.27979022 0.024783552 4208452
1.3078762 0.28018892 0.024389982 5591130
1.3105347 0.28437155 0.021984577 4473413
1.3136027 0.28548551 0.023039877 726072
1.3274167 0.29894054 0.018529117 2630443
1.3368595 0.30988497 0.015199482 5461864
1.297271 0.27276576 0.023632169 2698283
1.2989335 0.27635676 0.022784173 658450
1.3016598 0.27738744 0.023184657 987667
1.3037224 0.27837718 0.021821618 2762551
1.3055387 0.28335762 0.021136463 4342104
1.3075804 0.28386694 0.02162087 4737111
1.3119248 0.28767371 0.021040797 659746
1.3323717 0.30887026 0.013120115 5330277
1.2858323 0.26490116 0.024197996 1908002
1.2883794 0.26565421 0.023379564 2828849
1.2897108 0.26912796 0.022337496 3354426
1.2917936 0.26996231 0.022686601 3815496
1.2939808 0.27204382 0.022435427 4277075
1.2957418 0.27376974 0.021545827 4013900
1.2969873 0.27588272 0.022253156 3881802
1.3000717 0.27872694 0.020488858 724009
1.3044252 0.28210932 0.019849241 3553360
1.2750785 0.25627673 0.024197698 923421
1.2776754 0.25717658 0.025075674 2241078
1.2800617 0.26037478 0.022963047 395056
1.2821445 0.26288307 0.022213101 328984
1.2842982 0.26364541 0.022401989 460561
1.2852726 0.26662672 0.021269262 1250327
1.2881566 0.26906925 0.021151781 3158070
1.2904396 0.27095002 0.020106137 4145478
1.2920554 0.27212691 0.020454288 4146004
1.2953005 0.27517778 0.016984522 4081747
1.2984589 0.27804792 0.01863575 2040373
1.2722728 0.25472456 0.022652626 1053483
1.2741101 0.2565549 0.021539807 658189
1.2760668 0.25892806 0.021216512 1382169
1.2781296 0.26061809 0.020552695 1383200
1.2808895 0.26424885 0.020459473 1118759
1.2848744 0.26773429 0.018258691 396553
1.2869337 0.26929539 0.01885581 2171682
1.2881515 0.27097136 0.018391013 3289903
1.289458 0.27338952 0.017200053 4146003
1.2936934 0.27596855 0.017188191 3950161
1.295734 0.27756697 0.016774714 4343886
1.2552428 0.23945355 0.024400055 2368038
1.2589277 0.24256688 0.023664594 2828853
1.2601678 0.24595958 0.022535503 4342099
1.2622706 0.24646926 0.022984326 4080213
1.2649518 0.24916697 0.022488773 4146010
1.2669609 0.25106269 0.021268904 3882061
1.2688811 0.25349474 0.021135867 3224389
1.2708602 0.25604647 0.020186245 1710878
1.2727551 0.25660783 0.02037406 723471
1.2747586 0.25951391 0.020332754 1512977
1.2767992 0.26111227 0.019919217 922391
1.27915 0.26325178 0.018992364 1580056
1.2842662 0.26676506 0.016927958 198411
1.2851692 0.27087897 0.017261446 1315088
1.2508568 0.23812366 0.024239779 1906985
1.2526004 0.23843521 0.024072587 2301991
1.2555403 0.24170244 0.022090077 2632496
1.2569302 0.24343836 0.021928906 3423049
1.2587681 0.24538457 0.021537304 3882831
1.2609 0.24808836 0.020509303 4408664
1.2631085 0.24935889 0.020305097 4079440
1.2659162 0.25244731 0.018158734 4343381
1.2668989 0.25337356 0.019615054 4013904
1.2692723 0.25602919 0.018337011 2830399
1.2803942 0.26740003 0.015920699 793379
1.2819674 0.26928067 0.014012337 399389
1.2476116 0.23719031 0.021134853 2104358
1.2493776 0.23803002 0.021572232 1510690
1.2532084 0.24207318 0.020047784 2435120
1.2558069 0.2435956 0.019851565 2436413
1.260047 0.24937499 0.019712389 5133152
1.2641563 0.25296158 0.018378139 4145752
1.2476736 0.2359969 0.019826472 2367782
1.247241 0.23889863 0.018516958 2697524
1.2500352 0.24093872 0.018136203 2171183
1.2513819 0.24237865 0.017631769 1645865
1.2439476 0.23493391 0.017088294 4014929
1.2447635 0.23727196 0.016084731 3092543
1.2462156 0.23900431 0.016766906 2829885
1.2483183 0.24196434 0.016523063 2369334
1.2430809 0.23869985 0.015094817 3550525
1.2446185 0.23981458 0.014263988 3028286
1.2470546 0.24121833 0.0133757 3224649
1.2420049 0.23897588 0.011545718 4736316
1.2430536 0.23955762 0.011769772 4409406
1.2401197 0.24017549 0.0090759397 5985867
1.2409902 0.2403537 0.0082554221 5462107
1.2399731 0.24104369 0.0054072142 7038046
1.2380409 0.24072915 0.0033631325 7235690
1.2389005 0.24311268 0.0036990643 6973291
1.2332581 0.23927647 0.0016373396 9143942
1.236448 0.24180496 0.001075685 8552584
1.2368798 0.24305898 0.0014554262 8354427
1.2315594 0.23965132 -1.3411045e-05 9406855
1.2337807 0.24200588 -0.0006364584 9342093
1.2353033 0.2444216 -0.0010921359 8552067
1.2312679 0.24055135 -0.0016528964 9603979
1.4670544 0.40589595 0.029664814 1845828
1.4693362 0.40728992 0.029590487 1712949
1.4520473 0.39213246 0.032413244 2826544
1.4645505 0.40449846 0.027190328 2764619
1.4663188 0.40640306 0.027994871 2961734
1.4694207 0.40861911 0.026742518 2702143
1.4702424 0.40956557 0.025918186 3553854
1.4730046 0.41208678 0.025209069 2893886
1.4417505 0.38445908 0.031526268 4406078
1.4436064 0.38472563 0.031340599 6248282
1.4464014 0.38869226 0.03028512 5064054
1.4476304 0.38978052 0.0310449 3747154
1.4510877 0.39361447 0.029743314 2893107
1.4603338 0.4032954 0.026131332 2567743
1.4627135 0.40449494 0.025977254 3224647
1.4638147 0.40639049 0.025957108 3751237
1.4683611 0.41046894 0.026075125 3290682
1.4715314 0.41608864 0.022742331 1647918
1.441714 0.38731414 0.030169845 4077889
1.4445453 0.38842577 0.030470788 5458766
1.4540837 0.40001214 0.025352538 3356226
1.4566731 0.40130091 0.024612963 2501183
1.4586726 0.40316099 0.02448225 3290687
1.4611319 0.40535086 0.02371341 3816002
1.4323666 0.37913144 0.028588772 2897213
1.4348929 0.38035953 0.029139817 2961737
1.4370241 0.38462728 0.028634191 528423
1.439852 0.38510758 0.028292 2039092
1.44907 0.39578241 0.024387419 4473700
1.4528861 0.39962572 0.023214817 3290190
1.4555138 0.40180147 0.022611082 3094077
1.4573971 0.40341419 0.023216367 3487554
1.4592181 0.40541792 0.022713006 3227199
1.422592 0.37033874 0.028999627 2041645
1.4271634 0.37544388 0.028753042 1842217
1.429518 0.37801236 0.02779609 1777198
1.4308499 0.37886703 0.02812928 3421762
1.4331193 0.38195336 0.026998043 4014677
1.434788 0.38453972 0.026353359 5000797
1.4364982 0.38597924 0.025401115 3291462
1.4392542 0.38840348 0.023812532 1249320
1.4414692 0.38958651 0.023621798 1382697
1.4437542 0.39352983 0.022185147 5592662
1.4452071 0.39457804 0.023139954 5591893
1.4471539 0.39605558 0.020745575 7696778
1.4500911 0.39864242 0.021543086 4934501
1.451452 0.39971471 0.022533655 2959469
1.4537268 0.4019109 0.021547675 2833729
1.4113131 0.36153454 0.029219985 3880783
1.4126122 0.3646996 0.030078411 3354427
1.4154078 0.36512226 0.029680192 3814716
1.4193738 0.3691203 0.02782619 2699067
1.4212854 0.37326336 0.026384532 2041138
1.4242051 0.37404811 0.027069807 1512490
1.4276526 0.37812072 0.026207089 1908267
1.4310367 0.3812986 0.025784433 2701891
1.4313757 0.38258427 0.023370385 4148551
1.434638 0.38410115 0.024300575 3884110
1.4363859 0.38569742 0.024058521 3224657
1.4376099 0.38865155 0.02263093 2237752
1.439576 0.39179891 0.020485938 856601
1.4426701 0.3926667 0.021757543 3618373
1.4447778 0.39437443 0.021214902 4999755
1.4460969 0.39743531 0.020426631 6972006
1.4480393 0.39808089 0.020113289 6644098
1.4013084 0.35519516 0.029828131 4275825
1.4037445 0.35597098 0.03003329 1184806
1.4057726 0.35931206 0.028546572 658947
1.4076147 0.36029005 0.028976142 1512978
1.4094378 0.36117625 0.029511511 1906993
1.4129745 0.36686808 0.026875496 3357260
1.4161553 0.3679018 0.026652753 3816783
1.4171335 0.37217563 0.025437415 2764868
1.4194783 0.37335145 0.024523675 3420490
1.4211349 0.37415689 0.025998116 3092020
1.4239736 0.37740439 0.024168909 1248573
1.4258349 0.37965077 0.02280426 1121035
1.4283215 0.38098907 0.022892416 2042929
1.429859 0.38192952 0.022241175 662303
1.4367719 0.38739526 0.020120442 1780011
1.387687 0.3428877 0.032628655 7108488
1.3892269 0.34450454 0.031383514 7700353
1.3903649 0.34586704 0.031734645 5463164
1.3931909 0.34852552 0.029596329 2038812
1.3976378 0.35272259 0.028286815 6711652
1.400435 0.35425293 0.028779447 6118254
1.4013076 0.35530716 0.026049554 7039621
1.4052746 0.35867655 0.027478516 1383234
1.4081147 0.36382508 0.02611804 857136
1.4095783 0.36376649 0.024885416 1250113
1.4125607 0.36681622 0.022879064 3948597
1.4144762 0.36904442 0.022469759 6908011
1.4169543 0.37179339 0.022047877 4080730
1.4183023 0.37266487 0.023334444 3552839
1.4220617 0.37611133 0.022287309 3419731
1.4224792 0.37822372 0.020227313 3226443
1.4239371 0.37885517 0.021325469 1778978
1.3891211 0.34392864 0.029446423 7240339
1.3904748 0.34650767 0.028151691 4279377
1.3917396 0.34893698 0.027017891 1251887
1.3958299 0.35177928 0.027846277 6512469
1.3988304 0.35547066 0.024572849 7367804
1.400064 0.35692644 0.025904655 4474231
1.4026649 0.36029631 0.026469767 3948644
1.4067123 0.36303192 0.02292031 1515573
1.4089441 0.36525118 0.022560954 200986
1.4107878 0.36814827 0.022293508 2107697
1.4125783 0.37010795 0.021935284 3618877
1.4147947 0.37236726 0.021655083 4344147
1.4202807 0.37796515 0.019128382 2963036
1.3843037 0.34378326 0.027257919 5001314
1.3870033 0.34575689 0.026061833 4015212
1.3892301 0.34826249 0.025067806 461355
1.3907815 0.34970266 0.025286138 395536
1.3925931 0.35166061 0.024835646 1580330
1.3946064 0.35457718 0.023482025 2500144
1.3964827 0.35559028 0.024436593 5460295
1.3996384 0.35850477 0.024077713 6579291
1.4030278 0.36274987 0.020962298 4607077
1.4046414 0.36338276 0.02232635 2831677
1.4160147 0.37523609 0.018106222 5001041
1.418357 0.37656093 0.017085075 4146003
1.3700669 0.33334333 0.028400719 1250828
1.373868 0.33410573 0.027205169 2765616
1.3757296 0.33636832 0.027193844 2239039
1.3767182 0.33846211 0.025269508 3161095
1.3792825 0.3413952 0.02478683 2435641
1.3813773 0.34213185 0.025015295 1844765
1.3829002 0.34325886 0.02560097 1315359
1.3858765 0.34589618 0.024559021 1975100
1.387507 0.34839147 0.023525774 2830151
1.3919444 0.35323668 0.022067904 660782
1.3926253 0.35422909 0.023243189 661284
1.3590735 0.32183367 0.028026164 4477028
1.3637027 0.3254472 0.026810348 3026500
1.3661928 0.32925087 0.02565223 199951
1.368022 0.33371592 0.025892794 198912
1.3750811 0.34032995 0.02375567 2105421
1.3777865 0.34096998 0.023766279 1909820
1.3796563 0.34159231 0.023608387 1451557
1.3859651 0.34789115 0.022005975 1455191
1.3549747 0.3206774 0.027029335 4013121
1.3565056 0.32403809 0.02625668 4344676
1.3594425 0.3244279 0.02665931 5328990
1.3616736 0.32721978 0.024906218 5525353
1.3636863 0.32842827 0.024999857 3816019
1.3657149 0.33183849 0.02388835 1251388
1.3677986 0.33245134 0.024375916 132104
1.370193 0.33521354 0.022201538 1777184
1.3721579 0.33716333 0.022363067 5131352
1.374907 0.33904284 0.022322953 7960703
1.3473263 0.31566298 0.026429772 1121587
1.3503618 0.31661934 0.026727796 394277
1.3526108 0.31893033 0.026025712 1709864
1.353727 0.32140082 0.025397003 2236444
1.356437 0.32183427 0.024992466 3092271
1.3580241 0.32525223 0.023547232 4473681
1.3603591 0.32856244 0.023657382 5065568
1.3624581 0.33027548 0.022645175 5395304
1.3647931 0.33181494 0.022360384 3094616
1.366977 0.33510393 0.021045983 265001
1.3688549 0.33463633 0.020888805 265258
1.3707054 0.33797741 0.021291792 2435874
1.3734289 0.3419891 0.019695163 5986913
1.3324277 0.30079776 0.027390897 5460056
1.3345364 0.30278695 0.027518213 4802655
1.3347871 0.30572557 0.027562857 3815742
1.3373175 0.30735844 0.027426362 924445
1.3403602 0.30998874 0.02626425 592915
1.342428 0.31158686 0.025477588 1514264
1.3441344 0.31395459 0.024315953 988447
1.3457744 0.31584126 0.025087774 2699842
1.3480433 0.3194291 0.023922443 2567758
1.3492272 0.31946152 0.024545133 328716
1.3598806 0.33004856 0.021598935 5526132
1.3218986 0.29479879 0.028576791 395040
1.3252432 0.29796666 0.02740109 3421275
1.3275955 0.30124176 0.026420474 6974082
1.3302805 0.30252343 0.02542448 5591653
1.3320899 0.30412132 0.026575029 5328472
1.3341274 0.3064757 0.025116026 3488327
1.3363596 0.30830401 0.023282826 2765140
1.3394599 0.30947554 0.024394095 264452
1.3412992 0.31049836 0.023349524 1381888
1.3422344 0.31408381 0.022332191 1645088
1.345147 0.31754673 0.021191657 301
1.3466219 0.31845361 0.022532165 2635329
1.3186845 0.29301775 0.026774049 4672614
1.3216045 0.29348773 0.027148604 856614
1.3250159 0.29674798 0.026017904 2171185
1.3268626 0.30060625 0.02465713 4210762
1.3294563 0.30158651 0.023515165 5526630
1.3311003 0.30497122 0.022831082 5987187
1.3334053 0.30779934 0.022919178 4212319
1.340086 0.31289518 0.019347787 459818
1.3405341 0.31406969 0.020827532 133126
1.3433304 0.31627733 0.019379377 790553
1.347157 0.31912035 0.018766046 2238983
1.3069403 0.28251243 0.027228534 657430
1.3109894 0.28648865 0.025796056 393737
1.3148472 0.2910887 0.025059581 4145220
1.3168519 0.29256707 0.025527775 4475473
1.3199235 0.29381657 0.023581982 3683386
1.3213923 0.29742897 0.022496402 1841449
1.3234546 0.29860753 0.023187637 197129
1.3278167 0.30280113 0.022899151 5920357
1.3299549 0.30524856 0.021822691 7300748
1.3349636 0.31292415 0.01843667 4014444
1.3380067 0.31278723 0.01887387 2368835
1.3042698 0.28087395 0.026215851 2762536
1.3054214 0.28271753 0.025616586 2631209
1.3081787 0.28589272 0.024906933 789022
1.3114166 0.28964883 0.023812473 2106154
1.3143036 0.29005694 0.023733675 3552841
1.3342912 0.31116229 0.016217053 5330285
1.293196 0.27213866 0.02454859 4473673
1.2972364 0.27742338 0.024423838 1645348
1.2989845 0.27883679 0.025561094 657160
1.302129 0.28201413 0.023553312 723990
1.3038349 0.2840451 0.022083461 2173227
1.3059635 0.28519791 0.023284316 2171446
1.3092208 0.28839958 0.022169054 396053
1.3310509 0.31067771 0.015015066 5659497
1.2840724 0.26541543 0.024417341 657935
1.2879109 0.27010173 0.023893833 3749687
1.2906145 0.27112055 0.024185479 4077643
1.2928746 0.27273202 0.023587048 4409181
1.2949204 0.2763899 0.023662508 3882831
1.2992907 0.28028178 0.021483243 460320
1.3004107 0.28275996 0.020814478 395554
1.3018541 0.2835362 0.021563292 133381
1.2760078 0.25787562 0.025944889 1846581
1.2802866 0.26575339 0.024113178 4343144
1.2820808 0.26527363 0.023882926 1447996
1.2850064 0.26848835 0.023064911 1315603
1.2863754 0.27106333 0.021422982 2434084
1.2880816 0.27256393 0.021556616 3882301
1.2901757 0.2744844 0.022031307 4736089
1.2934153 0.27801055 0.02051723 4672353
1.2974563 0.2820785 0.019352138 2435133
1.2974225 0.28278959 0.019443333 2236987
1.2720271 0.25676626 0.025010347 790049
1.2723866 0.26002616 0.02412498 3422542
1.2743635 0.2609641 0.023244619 3092798
1.2775328 0.26139551 0.023135006 2237225
1.2785413 0.26492149 0.021654129 4275535
1.2816746 0.26615196 0.021381021 1447456
1.2830074 0.26980913 0.020238578 855575
1.2855257 0.27200764 0.019913614 1973787
1.2866795 0.27329379 0.019917488 3026222
1.2887919 0.27456278 0.018222928 4343107
1.2912824 0.27715468 0.017493904 4344410
1.2936181 0.27915651 0.016539097 4409171
1.2955227 0.28122878 0.017205238 4276308
1.252532 0.24021399 0.026077271 3157802
1.2623632 0.25042725 0.022561669 4539220
1.2658503 0.25343567 0.021557033 3357004
1.2695109 0.25800055 0.021462679 987431
1.2711743 0.25905168 0.021790683 1118492
1.2728238 0.26131183 0.020689189 1711129
1.2755442 0.26356137 0.020161867 2369327
1.2774038 0.26485646 0.019971848 3158845
1.2793442 0.26805925 0.018380523 3814987
1.2810025 0.26836926 0.017251372 1650738
1.2828529 0.27166402 0.017046928 792361
1.2850845 0.2749275 0.017026782 1646371
1.2902775 0.27961111 0.014338076 4932947
1.2924461 0.28233415 0.013317406 5197409
1.2508475 0.23992592 0.026275396 3354165
1.2531514 0.24496591 0.023415267 4473685
1.2560887 0.24532038 0.022558451 4341842
1.2572465 0.24828804 0.021423459 5723244
1.2594085 0.24988806 0.022144318 4933977
1.2609497 0.25112695 0.021555781 4539222
1.2635303 0.25373548 0.020589828 3553355
1.2659007 0.25592059 0.020367801 2763321
1.2677662 0.25788981 0.019346118 2172205
1.2697189 0.26051861 0.019574881 1117453
1.277408 0.26749337 0.017818928 3618124
1.2812972 0.27151388 0.016254246 2173492
1.247599 0.23836124 0.022527218 1643807
1.2492721 0.24229658 0.021598697 1710625
1.2516754 0.24435675 0.0214113 3356219
1.2537508 0.24599737 0.02085954 4408663
1.2558393 0.24810171 0.020697415 5197667
1.2579819 0.250736 0.019980669 5987447
1.2603798 0.2506395 0.019736528 4671085
1.2626269 0.25418925 0.01906985 4145740
1.2648839 0.25714302 0.018832684 1514293
1.2462077 0.24097359 0.020211399 2633537
1.2477958 0.24246716 0.019345284 2565941
1.2508907 0.24406648 0.019542694 2566452
1.2535768 0.2458142 0.018274307 3290428
1.2445712 0.24100739 0.017575264 2829887
1.2458162 0.24342531 0.016955912 2895685
1.2477369 0.24487436 0.017525077 2499633
1.2507946 0.24687082 0.017453969 2500656
1.2431803 0.24251145 0.015283763 3420992
1.2454567 0.24244612 0.015000284 3355976
1.2413259 0.24282581 0.012707889 3881270
1.2431306 0.24341303 0.012578726 2962495
1.2401402 0.2409572 0.010939837 4144166
1.2405214 0.2431159 0.0099848509 5066576
1.239246 0.24403709 0.0072114468 5394507
1.2390391 0.24608541 0.0077230334 4866610
1.2379472 0.24499619 0.0040254593 7104885
1.2383308 0.24605542 0.0053932667 6381934
1.2402644 0.24926966 0.004047215 5527907
1.2345434 0.24301821 0.001686275 9079179
1.2374464 0.24748462 0.0013813972 7170670
1.2395351 0.2488845 0.0025869012 6449270
1.2321169 0.24374825 0.00049012899 9210249
1.234513 0.24604863 0.00015223026 8617860
1.2356868 0.2482062 -4.7683716e-05 7367537
1.2312876 0.24488968 -0.0014199018 9406598
1.2329125 0.24689913 -0.0013868809 9011585
1.447305 0.39269418 0.034397125 2826544
1.4519964 0.39637631 0.032449007 2631475
1.4627926 0.40593177 0.028964102 2565716
1.4438562 0.39041835 0.032956839 3418681
1.4473023 0.39138526 0.032976925 3221046
1.4510574 0.39554286 0.031884611 2499889
1.4538524 0.39950955 0.030829191 2894391
1.4605725 0.4046979 0.027676105 3025727
1.4611306 0.40793598 0.02643019 3028537
1.4614 0.40819103 0.02717346 1845827
1.4647124 0.41236848 0.026584625 3029025
1.4665978 0.41141903 0.026294112 2568475
1.4379232 0.38734347 0.031392813 1973790
1.4406936 0.38845468 0.031729579 3289399
1.4426727 0.38937628 0.032182574 3418681
1.4495789 0.39763868 0.02700597 3553605
1.4539243 0.40154928 0.026988626 3487812
1.4548111 0.40319639 0.026879191 2963266
1.4566182 0.40491807 0.025088549 3357761
1.45976 0.40692282 0.02507937 3356736
1.4640436 0.41123819 0.02500838 2370602
1.4344558 0.38509804 0.029991329 2895417
1.4379549 0.3860693 0.029961646 1315865
1.4460918 0.39797831 0.025812507 3553344
1.4496942 0.40114784 0.024307311 2894397
1.4516802 0.40178978 0.025268018 3291453
1.4547197 0.40355682 0.024103343 3093826
1.4575671 0.4080326 0.023073971 3619651
1.4248174 0.37695199 0.029523432 2630964
1.4271665 0.37959695 0.029649496 3419962
1.4294093 0.38271034 0.028130352 5855592
1.4316771 0.383313 0.028477252 3683910
1.4340992 0.38592714 0.027526498 4210525
1.4422343 0.39503366 0.0240165 2764085
1.4442656 0.3962118 0.024071217 3882566
1.4453554 0.39994383 0.023319721 2959933
1.4484706 0.4003306 0.02274394 3355982
1.4500606 0.40301949 0.022926927 3356992
1.4526321 0.40374404 0.022324681 3225922
1.4130423 0.36775488 0.031060755 2565430
1.4166501 0.37059122 0.028510749 2564924
1.416584 0.37183058 0.029952824 2105129
1.4193943 0.37522358 0.028496683 1579811
1.4219527 0.37615776 0.028519273 1710368
1.4238521 0.37761229 0.027509749 1118751
1.4252399 0.38044047 0.026579201 2367799
1.4276569 0.38196129 0.026072741 3487297
1.4300871 0.38567263 0.02477622 4014662
1.432086 0.38639987 0.025820255 4869218
1.4343927 0.38961697 0.024166465 4145497
1.4363334 0.39090979 0.024509311 3028290
1.4393795 0.39345109 0.022829354 1383199
1.4409986 0.39494973 0.022422552 2829621
1.442245 0.39722002 0.022592068 3421757
1.4449148 0.39944994 0.021581292 5197378
1.44684 0.39991957 0.021726847 4935498
1.4480348 0.40328884 0.02038008 3487811
1.400339 0.35628998 0.031404972 3355194
1.4029474 0.36014062 0.030309141 1643820
1.4057753 0.36062092 0.029966891 1971994
1.4081267 0.36437112 0.03034395 2235181
1.4173568 0.37344027 0.026954234 2764612
1.4187231 0.37466276 0.026736975 2566465
1.4210228 0.37904239 0.025587201 2039113
1.4237463 0.38186121 0.024325788 2039863
1.4268353 0.38358134 0.022555411 3223857
1.4285295 0.38491076 0.024019122 4934999
1.4328849 0.38877827 0.022595704 3885138
1.4382536 0.39298248 0.021460772 660250
1.4395255 0.3953315 0.020093024 1314604
1.3852746 0.34389639 0.033512533 6581616
1.3879145 0.34582663 0.033520281 5199723
1.3938954 0.35392326 0.030866444 4606513
1.396673 0.35443741 0.03047353 4737602
1.4002373 0.35970706 0.030713677 3025201
1.4043701 0.3635906 0.027183712 1646375
1.4065406 0.36484689 0.028387666 2368299
1.4100065 0.36684465 0.025934577 1975595
1.4102452 0.36824721 0.027479291 2107189
1.4140851 0.37229025 0.025830448 2764864
1.4148076 0.37398636 0.023866594 3487306
1.4168708 0.3748576 0.02488178 3290689
1.4215989 0.38006479 0.021475554 2634826
1.4226146 0.38098735 0.022871912 1843261
1.4250116 0.38385385 0.022033155 2171676
1.4307013 0.38978803 0.019764662 4738640
1.3895596 0.34970295 0.030616522 4872042
1.3939079 0.35275227 0.02947402 2698271
1.396086 0.35712576 0.026390314 4277859
1.4000473 0.36184704 0.025447071 3620189
1.4048231 0.36538744 0.024690926 2238013
1.4103951 0.37010229 0.021460474 3158094
1.4107651 0.37207538 0.022862852 2304318
1.4129729 0.37328315 0.022613525 3290692
1.4161303 0.37758064 0.022951305 3553608
1.4171107 0.37827384 0.019525826 3356495
1.4193985 0.37982917 0.020443559 3095126
1.3690878 0.33294863 0.03232199 1513239
1.3813934 0.34409869 0.029032171 5656933
1.3828375 0.34543234 0.028342664 7500929
1.3906872 0.35148728 0.027456224 792115
1.3910302 0.35438019 0.026958406 7212
1.3932846 0.35626233 0.025443852 1317411
1.3941166 0.35883045 0.02514708 2306068
1.3975713 0.35981202 0.024015427 5461083
1.4019811 0.36467022 0.022627115 3949134
1.405825 0.36960924 0.022465706 2043194
1.4083173 0.37024707 0.021797359 2303796
1.4094658 0.37228632 0.021579623 2631468
1.4146813 0.37820977 0.019924104 3160127
1.4168919 0.37913203 0.018812954 3422288
1.3675944 0.3323397 0.030953228 856850
1.3713158 0.33768952 0.029188275 857630
1.375914 0.34024656 0.026576936 1319216
1.3772919 0.34268963 0.027374268 1908776
1.3798211 0.34384191 0.026744545 2959660
1.3825822 0.34506971 0.02668947 6841218
1.3840818 0.34795982 0.025927901 6446739
1.3865589 0.3504101 0.025010228 5593217
1.388556 0.35231769 0.024526477 2370118
1.3903335 0.35469413 0.024267733 200233
1.3918211 0.35601354 0.024550676 593933
1.3942208 0.35907578 0.022354305 3880757
1.3995373 0.3644672 0.021389663 4411475
1.3707116 0.33667445 0.027723908 1052688
1.3733764 0.34169465 0.025479734 526094
1.3757488 0.34240079 0.025108457 987917
1.3783801 0.34625095 0.023165703 924949
1.3790116 0.34726602 0.024256945 3553826
1.3832729 0.35241312 0.021942079 7632239
1.3861046 0.35316181 0.022542357 6711659
1.3568017 0.32532614 0.027617991 5592925
1.363874 0.33258218 0.024811983 4408151
1.3660939 0.33381593 0.026099861 199473
1.3682052 0.33721513 0.024639428 724496
1.3705907 0.33866668 0.0240435 2370087
1.3736523 0.34325367 0.021212041 855354
1.3769565 0.34565407 0.02205658 398605
1.3411152 0.31118917 0.02864188 4408145
1.3458897 0.31675369 0.027208686 2565680
1.3479555 0.31972843 0.026435018 725298
1.3505567 0.32049972 0.026303828 1117978
