# .PCD v0.7 - Point Cloud Data file format
VERSION 0.7
FIELDS x y z rgba
SIZE 4 4 4 4
TYPE F F F U
COUNT 1 1 1 1
WIDTH 1182
HEIGHT 1
VIEWPOINT 0 0 0 1 0 0 0
POINTS 1182
DATA ascii
1.5598711 0.38056231 0.080337465 1185317
1.5624272 0.38326132 0.079856277 1447971
1.5643905 0.38533586 0.079712093 1447456
1.5666456 0.3878265 0.08040601 461076
1.5320971 0.35312438 0.08265388 1052454
1.5340043 0.35569102 0.082695305 987435
1.5363297 0.35686219 0.083213508 1316655
1.5377438 0.35940564 0.083331287 1646389
1.5400119 0.36235589 0.082928836 1053739
1.5422705 0.36470979 0.082763493 723758
1.5443234 0.36686379 0.080817997 658204
1.5461459 0.36854285 0.080861866 1053217
1.5482846 0.37101173 0.080837548 2238773
1.5500169 0.3732574 0.080570519 4013637
1.5523729 0.37532353 0.08039844 5395040
1.554132 0.37814927 0.079659283 4539470
1.5560197 0.3799935 0.079339325 4343114
1.5579172 0.38258445 0.078812003 2040108
1.5600839 0.3842696 0.078763425 1580595
1.5616598 0.38597649 0.079472482 987164
1.5301638 0.35478413 0.082232654 987423
1.5325166 0.35720754 0.082398474 1447723
1.5342593 0.35954428 0.080812514 1384232
1.5360121 0.36187285 0.080830157 1386817
1.5379897 0.36364692 0.080378354 2109769
1.5402441 0.36557269 0.080154955 2767186
1.5425024 0.36808223 0.080197513 1647429
1.544438 0.37051636 0.079728127 396071
1.5464334 0.37207502 0.079279542 461080
1.5479635 0.37439531 0.078327835 1118239
1.5500762 0.37677908 0.078850627 4275783
1.550961 0.37926865 0.078573525 4932939
1.5239563 0.35189295 0.080308616 922663
1.5267755 0.3539629 0.081121862 593440
1.5284905 0.35622483 0.080909491 790816
1.5302372 0.35864884 0.079803884 330003
1.5320964 0.36059445 0.080244541 1054751
1.5342875 0.36273813 0.079630733 2238511
1.5362103 0.36514032 0.079315484 2567996
1.5382419 0.36669207 0.079751194 3292243
1.5402038 0.36907673 0.079045594 3883870
1.5427397 0.37206095 0.078703701 2764365
1.5448804 0.37421 0.078208268 592932
1.5457486 0.3759684 0.07851088 461595
1.547631 0.377922 0.078390896 1446941
1.5120661 0.34156024 0.080645263 2237767
1.513744 0.3440302 0.080887854 2040133
1.5160214 0.34640849 0.080937505 1776959
1.5182369 0.34896225 0.080205917 1185581
1.520443 0.35071367 0.079806268 988207
1.5220904 0.35336721 0.079693139 725028
1.5244147 0.35475791 0.08018297 856611
1.5260985 0.35792202 0.078318536 923684
1.5274503 0.35999691 0.079105258 528674
1.5303655 0.36155087 0.078412831 855321
1.531854 0.36394662 0.078277647 1907744
1.5338373 0.36666775 0.078524113 2500649
1.5373286 0.37019539 0.078559816 3947602
1.5401065 0.37299007 0.077802598 6117741
1.5426991 0.37522924 0.077511251 4472666
1.5057352 0.33726436 0.080431521 1973312
1.5067229 0.33986032 0.080270708 2105673
1.5082549 0.3413617 0.080394745 4210788
1.5103552 0.34343266 0.080308497 4737646
1.5126792 0.34557617 0.080148101 4080474
1.5146418 0.34830165 0.079380929 1515566
1.5166239 0.35009319 0.079520702 1317160
1.5186943 0.35241914 0.079094589 1251626
1.5200703 0.35436481 0.07861346 922406
1.5220373 0.35677612 0.07805723 725027
1.5239525 0.35901845 0.077805638 725279
1.5263581 0.36136222 0.077472806 1645604
1.5287166 0.36348385 0.077091157 1250337
1.5301824 0.36616641 0.077395439 1249561
1.4983737 0.3340838 0.079206049 856348
1.5009845 0.33514303 0.080219448 1777194
1.5028663 0.33857399 0.079881489 1974837
1.5044031 0.34062147 0.07969743 2238781
1.5066385 0.34217787 0.079229891 4606808
1.5084537 0.34450048 0.079305589 5263201
1.5102963 0.34712845 0.078445494 4672090
1.5121143 0.34952438 0.078336775 3487046
1.5141829 0.35156858 0.077590883 2764614
1.5160832 0.3540318 0.07764858 1119270
1.5178487 0.35586685 0.077627361 1185321
1.5202621 0.35786027 0.077336729 1119784
1.5222313 0.36075962 0.076723993 1381667
1.5245554 0.36302346 0.076312304 1447970
1.526504 0.36463577 0.077112734 1844011
1.4942071 0.33247083 0.078351438 2503243
1.4963062 0.33480716 0.078773797 724262
1.4987683 0.33760184 0.079575956 1250598
1.5007672 0.33940881 0.077735543 197909
1.5025493 0.34183472 0.078057826 1514274
1.5047278 0.34422612 0.077946246 3488066
1.5067784 0.34670782 0.077403367 5132390
1.5085663 0.34851056 0.07702291 5196899
1.5104129 0.35088468 0.076710284 5526106
1.5118421 0.35300595 0.076559901 3224114
1.5140181 0.35565645 0.075920939 1512488
1.516698 0.357759 0.076259673 1578530
1.5190077 0.36011112 0.076677501 2236979
1.4876322 0.32814062 0.078600585 723740
1.4884251 0.33056706 0.078653872 1909567
1.4906867 0.33189768 0.078484714 3029334
1.4925324 0.33441168 0.078604221 3619935
1.4950688 0.33678281 0.077589512 4147829
1.4965482 0.33871979 0.076789498 2634081
1.4987335 0.3409887 0.077166677 329762
1.5004106 0.34321415 0.076968729 658969
1.5026209 0.34558684 0.076618552 1974311
1.5048163 0.34802985 0.076274693 4341837
1.5060432 0.35028172 0.076113582 4999255
1.5081711 0.35257548 0.076088965 4472128
1.4827054 0.32787222 0.077902377 723743
1.4851595 0.32894945 0.078165293 1119015
1.4871771 0.33210981 0.076763272 2042164
1.4887092 0.33358532 0.077342808 3160393
1.4910855 0.33617687 0.076374114 4081246
1.4924632 0.33798015 0.076478302 4673389
1.4943595 0.34055704 0.076230705 4017010
1.4966534 0.34254789 0.075953901 2831452
1.4983519 0.34498399 0.075374782 1185589
1.5007451 0.34728068 0.075815618 986910
1.5023134 0.34920949 0.075884521 1841700
1.4747018 0.32240582 0.076407373 1777713
1.4769382 0.32423788 0.07708931 792360
1.4790878 0.32652318 0.076843798 396576
1.4805322 0.3286165 0.076179445 527386
1.4829924 0.33060169 0.075939596 329231
1.4847445 0.33287489 0.075878084 592657
1.4868493 0.33499146 0.075682819 2630694
1.4892631 0.33708668 0.075578153 3554120
1.4899018 0.339261 0.074883044 4999500
1.4922142 0.34181112 0.075355828 4803675
1.4944708 0.34419572 0.074571252 4935276
1.4652084 0.31467193 0.076381445 4147816
1.4664936 0.31691575 0.076448619 6844295
1.4681239 0.31847155 0.075539351 2436430
1.4706728 0.32142115 0.076142192 527136
1.4727976 0.32332218 0.076383591 527902
1.4749163 0.32599628 0.076004386 1119270
1.4771154 0.32771975 0.075888336 1186096
1.4785647 0.33013535 0.075486004 1251636
1.4809054 0.33213073 0.07513541 461853
1.4831512 0.33482277 0.074848056 460817
1.4846096 0.33654034 0.074556887 1183506
1.4870855 0.3387323 0.074184239 3092008
1.459374 0.31151175 0.076306164 3159876
1.4613209 0.31340325 0.076206625 4279916
1.4633491 0.31596482 0.07593137 5199474
1.4651003 0.31837422 0.075468421 5330808
1.4671731 0.32084101 0.075689733 1382966
1.4690681 0.32258999 0.075771868 461600
1.4710046 0.32441163 0.074694455 461080
1.4724646 0.32732886 0.07466948 789272
1.4747478 0.32917553 0.07394439 1381145
1.4765117 0.33114171 0.074171603 1710120
1.4790947 0.33346099 0.074615777 2829377
1.4813085 0.33644432 0.074374497 723726
1.4523327 0.3075633 0.074989974 526875
1.4553393 0.30952293 0.075495899 2169381
1.4566863 0.31275487 0.075156093 2239285
1.4587883 0.31511092 0.075286329 3490125
1.4612436 0.31729668 0.075364172 4739688
1.4633172 0.31970268 0.075395703 4343900
1.4649775 0.32151818 0.074223161 5461097
1.4668019 0.32391477 0.073926747 3553362
1.4689252 0.32626992 0.073345602 1316138
1.4708153 0.32807982 0.07294482 854546
1.4473548 0.30594283 0.074598014 2369599
1.4492015 0.30733341 0.074887216 1513783
1.4513183 0.31035239 0.074383438 1579833
1.4529123 0.31238377 0.073982775 462121
1.4549439 0.31459171 0.07440263 658711
1.4570634 0.31611151 0.073936641 2171682
1.4583037 0.31876582 0.073658526 3949125
1.4606484 0.32099283 0.072803378 5461850
1.4627147 0.323183 0.073070705 5657685
1.4647958 0.32521117 0.072427988 5656669
1.4666872 0.32741636 0.072497189 3091522
1.438976 0.30029094 0.074056447 854565
1.4410766 0.30259329 0.074153841 1580600
1.4431205 0.30470365 0.074698865 2238787
1.4450352 0.30720127 0.073727906 3752804
1.4471564 0.30922896 0.073391497 4476527
1.4489784 0.31122804 0.073553979 4410226
1.4507976 0.31339222 0.073661506 2633815
1.4524615 0.31564832 0.073168039 724772
1.4549432 0.31798202 0.071866572 657939
1.4567554 0.31975275 0.071636438 1710105
1.4591856 0.32260162 0.072637379 4014145
1.4349823 0.29925346 0.073141456 723488
1.4371152 0.30183965 0.073503077 526364
1.4390883 0.3044557 0.073042572 1382425
1.4414685 0.306337 0.072769761 2501429
1.442965 0.30855286 0.07330662 3883601
1.4452908 0.31077462 0.073299468 4802646
1.4470751 0.3132835 0.072700799 5131870
1.4488537 0.31604064 0.071966231 5263723
1.45103 0.31761903 0.071222484 3159641
1.4530976 0.31901479 0.071376443 198424
1.4545283 0.32141781 0.071777165 395018
1.4274691 0.29539078 0.072222769 264991
1.4289982 0.29684919 0.07281822 1055544
1.431175 0.29893595 0.07257545 989229
1.4329619 0.30126041 0.072233737 922661
1.4353304 0.3032757 0.072165251 395545
1.437021 0.3054328 0.071940124 460816
1.4390979 0.30763501 0.07185334 987412
1.4407749 0.30916893 0.072522223 3223852
1.4219885 0.29210287 0.072046459 2371158
1.4233279 0.29361826 0.071885526 1975355
1.4250143 0.29572713 0.072172046 791083
1.42716 0.29822844 0.071812928 790308
1.4293802 0.29990208 0.071820498 789012
1.4313946 0.3017906 0.071226358 658200
1.4333785 0.30466735 0.071536481 1975615
1.4351317 0.30690032 0.071298778 659241
1.4368172 0.30767715 0.071143925 263434
1.4108903 0.28367305 0.071554065 462384
1.4132235 0.28606606 0.071407497 527122
1.4153847 0.28818244 0.07184273 3488843
1.4172351 0.29017848 0.071531594 5000813
1.4195416 0.29289317 0.071433604 4342882
1.4211305 0.29504627 0.071357429 2566214
1.4229977 0.2972042 0.070535958 3092295
1.425297 0.29925901 0.071102858 1118235
1.4041877 0.27981144 0.071560204 2765897
1.4054925 0.28166831 0.071803451 2896711
1.407567 0.28313279 0.07112062 3161704
1.4090433 0.28543836 0.071262896 1713233
1.4111843 0.28758758 0.071008265 264227
1.4134713 0.29001391 0.071096182 658965
1.4151897 0.2920838 0.069620132 3157808
1.4170706 0.29423088 0.070091546 5986409
1.419436 0.29636204 0.069645941 6118255
1.4209449 0.29829735 0.069658935 3815247
1.4230053 0.29992348 0.070528686 657428
1.3999529 0.27802223 0.070592701 2699331
1.4016333 0.28022683 0.070996344 3555163
1.4035342 0.28209323 0.07048744 4148073
1.4056554 0.28458834 0.070185125 4476782
1.4073311 0.28720427 0.069743693 3884389
1.4095213 0.28933311 0.069284379 1712967
1.4116186 0.29154956 0.069168746 329752
1.4130888 0.2933495 0.069227755 592397
1.4144659 0.29539084 0.069240034 1972506
1.4171464 0.29664439 0.069353998 5523797
1.3918328 0.27357572 0.069384873 460316
1.3936419 0.27528906 0.06978637 657440
1.3956335 0.27721941 0.07040447 986910
1.3976176 0.27938282 0.069478273 1184793
1.3992628 0.28143698 0.06973058 3093300
1.4011544 0.28375274 0.070173562 4014414
1.4036291 0.28592134 0.069672585 4541282
1.4054112 0.28833437 0.069313347 4935526
1.4072998 0.29070538 0.068707883 4738411
1.4092371 0.29177928 0.068756759 2501188
1.3864224 0.26991045 0.068958342 1644086
1.3876152 0.27181834 0.069093227 1252406
1.3895075 0.27417892 0.068898141 791850
1.3915261 0.27631813 0.068969548 1251887
1.3933923 0.27854329 0.068504274 725286
1.3954308 0.28095454 0.0685969 460815
1.3967153 0.28270549 0.068915665 1316374
1.3770703 0.26395214 0.068855345 2831180
1.3793627 0.26693606 0.068685234 2830146
1.3816056 0.26911569 0.068514407 1843246
1.3837622 0.27096349 0.068766713 1054246
1.3854647 0.27335924 0.068863451 1580597
1.3874779 0.27582675 0.068610251 2239043
1.389715 0.27758551 0.068697989 3359329
1.3917034 0.28000057 0.068311632 2369856
1.3931034 0.28237206 0.068165302 265007
1.3660014 0.25554436 0.069506347 2500676
1.3680773 0.2568379 0.069277227 2566467
1.3699317 0.25924003 0.068809927 3290700
1.3722355 0.26161838 0.068406641 3291475
1.3740047 0.26363671 0.068426669 2963021
1.3757825 0.26581264 0.068327427 2830665
1.3773928 0.26818079 0.06824404 2303801
1.3795497 0.27047294 0.06813091 1184542
1.3818749 0.2729125 0.067874312 1315611
1.3838462 0.27503306 0.068482459 1449005
1.3604006 0.2526871 0.068207562 2697273
1.3616858 0.25400549 0.068351746 2565947
1.3637741 0.25614637 0.068329394 2961991
1.3658175 0.25853169 0.068490207 3422541
1.3678305 0.2608369 0.068209291 3488596
1.3697252 0.26311266 0.067945421 3226453
1.3717029 0.26531237 0.068190575 3027785
1.3737814 0.26761556 0.068038106 2895420
1.3754661 0.26907545 0.067382634 3683900
1.3774703 0.27178311 0.067338526 1381404
1.3559636 0.25196868 0.067636192 2173507
1.3580264 0.25316066 0.067847788 2436419
1.3598753 0.25554693 0.068068326 2896713
1.3618596 0.25751066 0.068339527 3291727
1.3638017 0.26048201 0.068136752 3424090
1.3656094 0.26234341 0.067655325 3687514
1.36724 0.26426548 0.067562044 3358037
1.3692021 0.26590145 0.067374051 4144971
1.3712716 0.26770878 0.067347229 3881283
1.3503101 0.24865162 0.066714406 1712439
1.3521676 0.25051272 0.06704706 2172472
1.3539824 0.25234205 0.067530572 2370111
1.3562207 0.25484544 0.067744792 3027778
1.3581753 0.25694418 0.067976654 3358287
1.3461564 0.24765223 0.06587559 1580065
1.3478894 0.24952465 0.066488802 2171695
1.3498793 0.25124353 0.066937625 2434615
1.3378706 0.24274522 0.064849734 527378
1.3400602 0.24441659 0.064422309 198416
1.342046 0.24668616 0.064462423 723983
1.3438163 0.24853158 0.065478146 1250070
1.3456278 0.25064683 0.066359639 2697254
1.3318173 0.23964769 0.06507802 527381
1.3342941 0.24115241 0.065577447 724247
1.3361292 0.24346036 0.064735591 1118743
1.338437 0.24591827 0.06465137 658964
1.3402896 0.24788678 0.0646016 395022
1.3420448 0.24962401 0.064938605 1315088
1.3258405 0.23716414 0.063856006 461585
1.3280982 0.23861861 0.064127088 592659
1.3301098 0.24061775 0.063633502 986899
1.3320954 0.2424562 0.064014614 1315350
1.3343019 0.24504101 0.064235747 1118746
1.3198844 0.23332369 0.062102139 1186853
1.3224595 0.23612666 0.062583625 922394
1.324077 0.23785472 0.062937677 724245
1.3259059 0.23999512 0.06288743 920852
1.328001 0.24141264 0.063112974 1052181
1.3148248 0.23079365 0.061966717 857374
1.3162204 0.2328825 0.062167108 1119773
1.3179555 0.23483312 0.062044322 1316384
1.3201892 0.23679829 0.062095881 1250331
1.3220844 0.2390219 0.062008619 1249559
1.3240771 0.2395438 0.061870933 1249815
1.3102059 0.2303583 0.061220467 659998
1.3121465 0.2321353 0.061200202 1250333
1.3141789 0.23401743 0.061304033 1644576
1.3161265 0.23584217 0.061358392 1841952
1.3185663 0.23827016 0.061079562 1907483
1.3198285 0.24028122 0.061704338 1315090
1.3064775 0.22979343 0.059414566 1446679
1.3083198 0.2312572 0.060337365 1447197
1.3102694 0.23289537 0.060318172 1709852
1.3122193 0.23453104 0.060656011 2235935
1.3019731 0.2285192 0.059294641 1381141
1.3042614 0.2301116 0.059490383 1644058
1.3062501 0.23202628 0.059673071 1841179
1.3080449 0.2340163 0.059893191 1645347
1.2961996 0.22634381 0.058165133 1117969
1.2984076 0.22731417 0.058502376 1446419
1.3002663 0.22896236 0.058474541 1775380
1.3025134 0.23106813 0.058670938 2235418
1.2920938 0.22580326 0.057106435 986639
1.2941513 0.22628981 0.057355165 1380881
1.2958016 0.22820711 0.057412326 2038292
1.2879406 0.22478086 0.056360483 1117709
1.2902312 0.22556329 0.056124866 1511953
1.2838814 0.22412181 0.055366099 1380110
1.2862054 0.22489065 0.055135906 1774608
1.2887993 0.22484142 0.054262996 1906456
1.2797377 0.22347885 0.053827822 2036752
1.2824088 0.22407514 0.053870678 2037007
1.2843194 0.2246049 0.052843153 2234130
1.2780408 0.22347337 0.052559674 2760463
1.2799282 0.22456223 0.05167526 3154706
1.2740524 0.22330356 0.051720083 3352852
1.2761092 0.22405595 0.050945342 3352080
1.6269476 0.41652668 0.090524673 3945781
1.624073 0.41667503 0.088635385 4340540
1.6229098 0.41796917 0.087955773 4208952
1.6139861 0.41069263 0.088372469 2700615
1.6164968 0.41398895 0.088321865 4077882
1.6188844 0.41526085 0.088216782 2895929
1.610815 0.41065747 0.087691605 5661035
1.612286 0.41335654 0.08700192 4932167
1.6146147 0.41400653 0.087500989 2895927
1.6157634 0.41670299 0.085063159 4012094
1.6184347 0.41856056 0.085249484 3881026
1.6061739 0.40946466 0.085614741 5462907
1.6080198 0.41178769 0.086596787 7040125
1.6106496 0.41394192 0.085965455 5725047
1.6005366 0.40829432 0.085078478 3946296
1.6023581 0.40872145 0.084652483 4344159
1.604208 0.41129994 0.08532089 6974083
1.6065056 0.4138214 0.085052371 7105149
1.6089113 0.41514587 0.08412987 8550027
1.5923973 0.40212107 0.084311306 8158812
1.5952557 0.40457392 0.084251702 4671026
1.5963013 0.40662867 0.083983958 2040623
1.5986564 0.40813071 0.084335983 2369333
1.600951 0.41069555 0.084071338 5460069
1.6025081 0.41273052 0.083672285 6579072
1.6046014 0.41355383 0.083908975 7303046
1.5844834 0.39641452 0.083503067 3221801
1.5869098 0.3987754 0.083441019 4013890
1.5887587 0.4010905 0.083835304 4870216
1.5903335 0.4030115 0.084139645 4147009
1.5924771 0.40511441 0.084055603 2567977
1.594219 0.40753698 0.08398807 1778481
1.5964768 0.40981168 0.083162725 1975611
1.5986561 0.41166502 0.082740366 2829892
1.6004636 0.41359323 0.083640754 5657704
1.5663266 0.37973136 0.086202562 657185
1.5684111 0.38225454 0.086598694 1249836
1.5706396 0.38422728 0.086646616 1776169
1.5732815 0.38629764 0.08604461 1710901
1.5744615 0.3881135 0.085016072 1778747
1.5761933 0.39125383 0.085621536 2499648
1.5785173 0.39302176 0.083008945 2105902
1.580147 0.39531296 0.083147943 2435119
1.5826037 0.3977406 0.083122313 2238518
1.5847777 0.40008855 0.083106935 2304312
1.5864131 0.40181065 0.083519638 2369847
1.5887649 0.40452951 0.083169818 1647157
1.5906332 0.40692759 0.082192898 3159357
1.5923386 0.40902948 0.081909478 3356730
1.594815 0.41070312 0.081768811 2107959
1.5613732 0.37732875 0.085338533 1184541
1.562906 0.37931496 0.08578366 723736
1.5644495 0.38131344 0.086226523 592161
1.5666755 0.38399106 0.085131586 922915
1.5688012 0.38567358 0.083990633 597040
1.5705488 0.38790476 0.083647132 1978440
1.5725956 0.39037859 0.083844364 3424090
1.5750254 0.39279437 0.083225191 1910587
1.5766702 0.39488792 0.083150089 1646644
1.5785186 0.3972066 0.082772672 1975606
1.5806935 0.39932209 0.08293575 2435639
1.5827338 0.40111554 0.081580579 2764092
1.5848581 0.40375024 0.081237674 2960707
1.5865517 0.40576309 0.08172667 2632258
1.5883932 0.40750688 0.081799626 2171960
1.5896941 0.41010749 0.081339836 1515321
1.5579727 0.37652963 0.084170878 1314610
1.5588672 0.37859648 0.085280955 724517
1.5625017 0.38267428 0.082609713 329745
1.5649534 0.38504916 0.083332777 527635
1.5667655 0.38739669 0.083058655 1515308
1.5688293 0.38939691 0.082739294 2501953
1.5705513 0.39214081 0.082621276 4737638
1.5722508 0.39317012 0.082624972 4080217
1.5741408 0.39611334 0.081270993 4868457
1.5764911 0.39844745 0.080928087 2173513
1.5789796 0.40035242 0.080943704 2172476
1.5807478 0.40281546 0.08121413 2829631
1.5831101 0.40493804 0.081014097 3551803
1.5510677 0.37312865 0.08318609 4474722
1.5524662 0.37565774 0.083867252 2105637
1.5545756 0.37751544 0.08375901 920348
1.5566856 0.37970287 0.082731128 264214
1.5592111 0.38159931 0.081915319 855582
1.5607028 0.38418287 0.082072675 592401
1.5628474 0.38643116 0.082092822 657938
1.5645242 0.38931215 0.081476629 1316123
1.56705 0.39132237 0.081594288 2566965
1.5693105 0.39412022 0.081772625 5460850
1.5715969 0.39622372 0.081713021 7368075
1.5736986 0.39796644 0.08149308 5791120
1.544858 0.36914992 0.082368493 1186094
1.5468584 0.37242317 0.082849085 3093324
1.5490119 0.37449676 0.082311094 2632241
1.5509288 0.37673616 0.081729949 1711904
1.5529461 0.37928057 0.082282007 658712
1.5548387 0.38155162 0.081399858 527123
1.5570866 0.38343358 0.081339836 461849
1.5588968 0.38604534 0.081081331 527390
1.560858 0.38805574 0.080480754 723482
1.5623175 0.39035273 0.080809534 197652
1.5639243 0.39207083 0.081007302 790299
1.5304959 0.35763073 0.083440721 1907504
1.5330702 0.36004734 0.083768904 2171453
1.5349903 0.36297035 0.083503127 2305873
1.5376353 0.36454874 0.082444847 3095137
1.5392309 0.36672199 0.082332909 2764885
1.5413003 0.36977476 0.082393765 1975355
1.5429475 0.37173665 0.081687987 1251633
1.5453854 0.3740319 0.081063926 922140
1.5471184 0.37608486 0.081131697 922392
1.54882 0.3782537 0.081684351 1185050
1.5511429 0.38083309 0.080060899 1579803
1.5522574 0.38203305 0.079909742 1316630
1.5549228 0.38468224 0.079656065 592918
1.5560322 0.38710135 0.080292463 1710627
1.5273998 0.35776013 0.082556725 1250082
1.529158 0.35976577 0.083322108 1776173
1.5312333 0.36329871 0.083451986 4146020
1.5327804 0.36350322 0.081993043 2174017
1.5349684 0.36615545 0.0819332 5002349
1.537413 0.36877662 0.080922365 5199219
1.5391598 0.37042201 0.080721498 5001578
1.5411477 0.37325513 0.080627501 3028045
1.5427959 0.37529904 0.080263913 1580598
1.5447809 0.37729228 0.080240846 1185313
1.5471981 0.37982219 0.07890439 1448225
1.5490079 0.38135624 0.079498947 1513241
1.5519702 0.3842625 0.079477489 658194
1.5231904 0.35697043 0.081121325 987691
1.524994 0.35880738 0.082200348 856095
1.5279746 0.36136979 0.081344187 592929
1.5295334 0.36336499 0.080651164 330010
1.5313005 0.36558276 0.080615222 2173493
1.533083 0.36767834 0.079665184 3619657
1.5350397 0.36991942 0.079901516 5132129
1.5369906 0.37226599 0.079777896 5527146
1.5390835 0.37454939 0.07941705 5789543
1.5409198 0.37725699 0.078285515 4671332
1.5434297 0.37895179 0.078711808 2434877
1.5452347 0.38182712 0.078702509 2038567
1.5104563 0.34643859 0.081228256 2630987
1.513541 0.34855443 0.081500649 921378
1.5153563 0.35181344 0.080939949 857903
1.5174747 0.35430092 0.080759108 1252660
1.5195917 0.35556608 0.081163466 987942
1.5214307 0.35900342 0.079926372 988976
1.5237406 0.36103994 0.078909039 593962
1.5250089 0.36290032 0.079356492 1186598
1.5274422 0.36458904 0.079719365 462367
1.5293719 0.36724526 0.078537524 1052952
1.5310373 0.36968756 0.07867521 2631212
1.5332222 0.37207156 0.078920245 6051687
1.5351176 0.37337643 0.079455614 6053491
1.5375938 0.37612617 0.078481853 6314851
1.5043468 0.34252959 0.080533564 5988982
1.5057695 0.34445369 0.080968201 6842740
1.5081098 0.34630871 0.081384957 2828860
1.5093889 0.34855902 0.080816209 658969
1.511272 0.35094154 0.080917776 858157
1.5132486 0.35309327 0.07994622 1384507
1.5153894 0.3553921 0.079803646 1846088
1.517329 0.35760921 0.079368293 2437194
1.5193192 0.35986364 0.078770816 2437196
1.5211987 0.36205894 0.078742325 1120821
1.5229868 0.36398906 0.078344464 1250853
1.5251083 0.36612606 0.077905118 1514280
1.5270135 0.36864293 0.07769984 1316644
1.5288041 0.37128323 0.078183293 658206
1.5000737 0.34136069 0.079758346 1711407
1.5012535 0.34372348 0.080606341 2829890
1.5038255 0.34557039 0.080277264 1909554
1.5056429 0.34759951 0.079765618 1975090
1.507412 0.35016376 0.079428017 1843764
1.5096905 0.35214901 0.07936132 1317420
1.5112522 0.35505438 0.078626573 1581109
1.5134408 0.35645157 0.079114735 2305093
1.514529 0.35874933 0.078552604 2765907
1.5167706 0.36071301 0.078018725 3029076
1.5191307 0.36349702 0.077872932 3291735
1.5211618 0.36585301 0.077254474 2501192
1.5227301 0.36710346 0.077287376 1053745
1.5252964 0.37008476 0.077248037 1842473
1.4935343 0.3379572 0.078680098 3091810
1.4954317 0.3401314 0.079440415 855868
1.4973752 0.34287012 0.079566121 724779
1.4995947 0.34484953 0.079118192 461592
1.5016584 0.34710675 0.078661382 1119010
1.5035694 0.3492468 0.078622937 1776683
1.5054801 0.35130382 0.078101635 1316906
1.5079809 0.35318863 0.077388346 1383458
1.5091546 0.35521919 0.077586055 923433
1.5108144 0.35840064 0.077067196 2368568
1.5135069 0.36056346 0.077368438 3618891
1.5163898 0.36362934 0.077470243 4276568
1.4835594 0.33094263 0.079398811 2171192
1.4857888 0.33228463 0.079546034 3355976
1.487793 0.3350929 0.078825176 3225922
1.4892161 0.33797288 0.078633606 3357779
1.4918849 0.33968848 0.078413904 2897752
1.4932969 0.34221125 0.077819586 2569557
1.4954982 0.34428978 0.077589095 2239567
1.4974378 0.34618169 0.077652454 921900
1.4990789 0.34842569 0.077583849 789529
1.5014746 0.35057092 0.076712668 1184025
1.503117 0.35331398 0.077406049 1249820
1.5058081 0.35429418 0.077069521 1052703
1.4756967 0.32599872 0.078360975 1519690
1.4769015 0.32696235 0.078744352 2308950
1.479793 0.32982641 0.077814519 526624
1.4812021 0.3320775 0.079030812 1052960
1.484167 0.33507729 0.077916622 1053469
1.4857304 0.33677846 0.078049719 1975332
1.4874508 0.33858585 0.077508748 3882307
1.4896342 0.34108245 0.077171326 4278370
1.4918101 0.3435877 0.076665699 3554901
1.4936345 0.34553784 0.076936603 3290955
1.4954674 0.34775281 0.076223791 3684694
1.4973388 0.35025549 0.07682699 1248302
1.4995503 0.35171568 0.077043772 1052180
1.4720812 0.3254084 0.077657223 923180
1.4733489 0.32667249 0.07814467 1583171
1.4753695 0.3291384 0.077743709 2306897
1.4778512 0.33143169 0.077539504 2107471
1.4798518 0.33358926 0.076142967 1582418
1.4817858 0.33591747 0.076704562 66843
1.4836566 0.33787721 0.077038109 789779
1.4854435 0.34058726 0.075855672 2499363
1.4876649 0.34258145 0.075924337 4406330
1.4896772 0.34558958 0.075589299 5263719
1.4918556 0.34737325 0.075588644 4408153
1.4655336 0.32192326 0.076699913 790041
1.4675941 0.32423377 0.077248514 526872
1.4697566 0.32624078 0.077424943 1318447
1.472152 0.32835132 0.077211738 2043462
1.4742172 0.33102745 0.076342046 2635603
1.4761939 0.33302116 0.076209486 3162203
1.4778118 0.33473957 0.076003611 3292765
1.4794377 0.33703709 0.075800657 1844296
1.4814377 0.33967704 0.074430943 789276
1.4829893 0.34175086 0.074716151 657682
1.4869792 0.34649235 0.074959397 5130054
1.4564488 0.315328 0.076183736 1449516
1.4577872 0.31631672 0.076606929 1778749
1.4598697 0.3189705 0.076358259 2107703
1.4621425 0.3210997 0.076173961 1843504
1.4640714 0.32313037 0.076720357 395290
1.4660454 0.32562953 0.076417387 592408
1.4673078 0.32792246 0.075927317 1249819
1.4698553 0.32966036 0.075171709 1579559
1.4719486 0.33224958 0.075167596 2829368
1.473702 0.33442467 0.075315356 3881544
1.4761505 0.33660698 0.075478673 4407373
1.4767368 0.33909243 0.074053407 4671837
1.4795978 0.34086543 0.074200451 2566478
1.4532695 0.31575304 0.075769484 987692
1.4556301 0.31785321 0.076035559 1646383
1.4578886 0.31999516 0.076075256 1581106
1.460005 0.32256794 0.07537514 1975086
1.4612327 0.32492495 0.075062454 987679
1.4638174 0.3266893 0.074612439 986904
1.4660208 0.32913727 0.074047625 460561
1.4674076 0.33113807 0.07445246 986903
1.4694676 0.33287096 0.074461877 2762799
1.4434993 0.30782044 0.07553941 2895434
1.4457202 0.31104171 0.074811816 4345726
1.4481863 0.31293595 0.074595392 3555698
1.4495403 0.31496531 0.07501477 2239574
1.4519831 0.31723469 0.074689746 658980
1.4539728 0.3191548 0.074760318 724250
1.4558067 0.32190555 0.074251831 1250331
1.4575961 0.32373589 0.074112952 1644830
1.4595184 0.32613993 0.07395488 1315867
1.4617985 0.32832819 0.07348603 790043
1.4641397 0.32991749 0.073564708 328977
1.4380579 0.30507338 0.075207949 1841963
1.4401519 0.30755186 0.075411499 3028041
1.4422193 0.31014287 0.07490164 5331586
1.4437251 0.31206632 0.07446301 4475497
1.4458263 0.3142941 0.074318707 4278631
1.4481559 0.31672043 0.074428797 3620185
1.4499524 0.31859487 0.073854387 2763848
1.4517567 0.32094473 0.073622286 1316133
1.4538765 0.32285047 0.072310567 657677
1.4555352 0.32424873 0.073664367 985614
1.4293802 0.29980016 0.073861539 3755383
1.4318315 0.30259037 0.073698759 2370893
1.4341555 0.30461061 0.074381173 723742
1.4359852 0.30698216 0.074155509 855576
1.438271 0.30874622 0.073420763 1843234
1.4403048 0.31100857 0.073357642 3158578
1.4419216 0.31357324 0.073531926 5197147
1.4431965 0.31559098 0.073200881 5985385
1.4457245 0.31832039 0.072266638 5263206
1.4476612 0.31962335 0.072129369 5066084
1.4496109 0.32222086 0.072126925 3092036
1.4520924 0.32413226 0.07271415 1051165
1.4247997 0.2977829 0.073390543 1714244
1.4263492 0.29971921 0.073589742 1910856
1.4281867 0.30185062 0.073846161 2700367
1.4301434 0.30367357 0.07346034 3424349
1.4319878 0.30586034 0.072963536 3423834
1.4337748 0.30829138 0.072512209 1581125
1.4361565 0.31046849 0.072386861 263955
1.4377429 0.31239426 0.072481871 1052690
1.4397571 0.31548649 0.072566628 4209208
1.4434277 0.31913453 0.071465433 6708606
1.416674 0.2932325 0.072567523 396318
1.4184809 0.29470217 0.072376907 131858
1.4202564 0.29663461 0.072502553 395032
1.4224296 0.29863352 0.073295653 1515054
1.4241486 0.30075157 0.072976887 1777453
1.4263601 0.30251181 0.072781265 2699587
1.4273727 0.30528975 0.072632611 4079953
1.4299366 0.30748934 0.072712302 4475749
1.4321554 0.3090955 0.072311699 4279407
1.4340719 0.31228113 0.07164222 1186362
1.4121454 0.29156572 0.072771132 463141
1.4145344 0.29379523 0.072301447 1187114
1.4166431 0.29587144 0.071816385 1119271
1.4178828 0.29809791 0.071772993 790043
1.4202368 0.30009854 0.071456254 460816
1.4221407 0.30225587 0.071756661 1512473
1.4246182 0.30436766 0.072390914 3553344
1.3999641 0.28163171 0.072265089 2500672
1.4030759 0.28404146 0.071968853 4015470
1.4046655 0.28686881 0.071321666 3488104
1.406708 0.28857487 0.071699798 2699866
1.4087656 0.29071361 0.072308362 331048
1.4102942 0.29292864 0.071075678 395556
1.4121615 0.29505521 0.070518315 395029
1.4141858 0.29727161 0.070858419 724249
1.416364 0.29940546 0.070624769 987417
1.4180034 0.30159283 0.070733368 394765
1.4190874 0.30335176 0.071212113 394763
1.3968707 0.28052777 0.07126385 2040105
1.398216 0.28332525 0.071578503 3291206
1.4006338 0.28481036 0.07104665 5133684
1.4024518 0.28727823 0.071038485 5462136
1.4042045 0.28973669 0.070737123 4080998
1.406126 0.29205585 0.07029146 3357016
1.4083625 0.29418546 0.069997132 2040124
1.4100008 0.29643834 0.070660889 592407
1.4127537 0.29837251 0.070683062 921108
1.4150503 0.301126 0.070558488 1382697
1.3898127 0.27743202 0.070474863 1645364
1.3923866 0.27909595 0.070606232 263956
1.3945336 0.28222334 0.070581794 724510
1.3963741 0.28433961 0.070025742 1316376
1.3985871 0.28656936 0.070210516 3751492
1.4003072 0.28861123 0.070064604 5855597
1.4023147 0.29140079 0.069473803 6249838
1.4043646 0.29364437 0.069634259 4407888
1.4067419 0.2950967 0.069766581 2894143
1.3823919 0.27310544 0.069662273 2107453
1.3846818 0.27511638 0.069673955 2501446
1.3863213 0.2773127 0.069639266 3489886
1.388391 0.2790491 0.069647968 3884641
1.3902602 0.28144544 0.069479644 3226973
1.3923564 0.28369313 0.069457233 922929
1.3942287 0.28580928 0.069641888 329492
1.3963643 0.28788841 0.069486082 1776150
1.3989313 0.29118693 0.068995297 6445149
1.4002327 0.29214042 0.069061518 7169137
1.3752484 0.26849651 0.069353044 132883
1.3788806 0.27204508 0.068611085 460820
1.3805161 0.27424932 0.069112957 1777446
1.3823614 0.27623814 0.06939584 2896195
1.38431 0.27846527 0.069389224 4082021
1.3863475 0.28049505 0.069642365 4214384
1.3884566 0.28280783 0.068893015 4149105
1.3903273 0.28509575 0.068944275 3226204
1.3914514 0.28756517 0.068441629 2107206
1.371269 0.26674384 0.068628252 1974836
1.372793 0.26871467 0.068814456 988453
1.3747404 0.27114236 0.068531215 790302
1.3764143 0.27356064 0.068197668 329494
1.3785539 0.27558714 0.068427444 657937
1.3804483 0.2779569 0.068693936 2501675
1.3828318 0.28044349 0.068956494 4609395
1.3605224 0.25887966 0.068613708 3291992
1.3625531 0.26108801 0.068455756 3685460
1.3651417 0.26356912 0.068183124 3750994
1.3668144 0.26590902 0.067970991 3027011
1.3687491 0.26807976 0.068131149 1645353
1.3705001 0.27012736 0.068278551 921630
1.3727374 0.2723937 0.068379223 1119781
1.3750343 0.27495414 0.068112195 658715
1.3763421 0.2774772 0.067506015 66586
1.377185 0.27896249 0.067620575 524
1.3507812 0.25170523 0.06814748 2045010
1.3528287 0.25406885 0.068474472 2962507
1.3548055 0.25605917 0.068576038 3160144
1.3570325 0.2583853 0.068349779 3423831
1.3589971 0.26061893 0.068232119 3620436
1.360692 0.26286685 0.067995131 3751506
1.3626182 0.26512831 0.067762911 3224648
1.3645896 0.26731169 0.067400396 2368817
1.3663772 0.26924706 0.067712784 1119001
1.3686939 0.27040279 0.067516387 1578779
1.3474991 0.25182235 0.067617118 2633019
1.3490385 0.25328976 0.068043411 2765384
1.3509873 0.25534034 0.068084955 3225163
1.3526525 0.25774974 0.068444669 3620438
1.3547118 0.25980365 0.06819135 3555157
1.3567933 0.26231235 0.067825139 3751251
1.358695 0.2651599 0.067311764 3223876
1.3610804 0.26712382 0.067447126 1908773
1.3623511 0.26844054 0.066803753 1447965
1.364128 0.26984429 0.06683749 1973534
1.3430057 0.25065315 0.066433251 1316119
1.3448105 0.25232846 0.067204535 2435633
1.34654 0.2543546 0.067827165 3290686
1.3485136 0.25683081 0.067933619 3423569
1.350527 0.25866544 0.067909896 3950427
1.3311353 0.24193901 0.067491233 1121073
1.3331528 0.24313676 0.067266285 1121330
1.3350885 0.24473387 0.066815138 1515053
1.336693 0.24724835 0.066459358 1712943
1.338774 0.24944431 0.065621674 658457
1.3407109 0.25187969 0.065892756 658193
1.342115 0.25390512 0.066599786 1250580
1.3441396 0.25530452 0.067049921 2964286
1.3270897 0.24045724 0.066233039 791070
1.3293109 0.24182612 0.066390455 1053474
1.3310072 0.24424624 0.065911949 1841698
1.3327624 0.24645227 0.065830886 1973800
1.3352098 0.24853438 0.065852046 1974312
1.3375802 0.25108296 0.065546215 921889
1.3385028 0.25330657 0.065334141 330532
1.3215008 0.23784763 0.064404428 396045
1.3230237 0.23965603 0.065046728 526862
1.3248734 0.24151742 0.064958215 1117973
1.327137 0.24334228 0.065324605 1643805
1.3288541 0.24515015 0.065905094 1973285
1.3167703 0.23634708 0.063661397 461069
1.3191843 0.23857677 0.063756168 526351
1.3213227 0.24061203 0.06421417 723471
1.3229177 0.242401 0.06451124 1446680
1.3117554 0.23371977 0.063219011 593682
1.3131044 0.235668 0.063320339 723985
1.3151978 0.23748869 0.063239038 723731
1.3171564 0.2396819 0.063311279 657935
1.3192294 0.24151778 0.063339412 789776
1.3074672 0.23306459 0.06141901 1512734
1.3088803 0.23475605 0.062320054 1052952
1.3108199 0.2363466 0.062394381 1184278
1.3130691 0.23836243 0.062946141 1118232
1.3008587 0.22953212 0.060402572 1184276
1.3029816 0.2320751 0.060964048 1512733
1.3054681 0.23362166 0.061527014 1381405
1.3069581 0.23518127 0.061493874 1578778
1.297158 0.22887248 0.060458839 1381143
1.2993307 0.23067015 0.060759962 1578526
1.3011619 0.23297441 0.060785413 1710108
1.3031591 0.23451853 0.060501754 2170142
1.2907946 0.22615087 0.059440434 920845
1.2930474 0.22781646 0.059575498 1446678
1.2949531 0.22971356 0.05979377 1841436
1.2970687 0.23187429 0.059956253 2038814
1.2988529 0.23368013 0.060257792 2301984
1.2869706 0.2254529 0.058548868 1249041
1.2892164 0.22688812 0.05881983 1643799
1.2916689 0.22862953 0.058665454 2104086
1.2807282 0.2234515 0.057809234 789256
1.2831476 0.22452974 0.0577299 1314833
1.2852859 0.22583687 0.057812154 1512467
1.2873032 0.22750974 0.058609426 2038293
1.2765701 0.2227596 0.057605684 1446162
1.2791224 0.22354984 0.056566179 1380368
1.2810371 0.22459757 0.056207955 1709332
1.2756066 0.22293007 0.055528283 1708816
1.2770975 0.22393197 0.055306911 1840143
1.2711949 0.22298849 0.054374158 2695706
1.2731084 0.22324032 0.054039121 2432275
1.2693882 0.22378802 0.052393258 3682081
1.2706808 0.22398746 0.051704884 4405019
1.2669197 0.2246148 0.051154196 4537392
1.6062497 0.41223586 0.089088619 336174
1.6074945 0.41134787 0.088739336 1847610
1.6093746 0.41490877 0.087873399 6642521
1.6059248 0.41360021 0.086980283 5396576
1.5976379 0.41073543 0.085977852 5786445
1.5997046 0.4118368 0.086109459 3554381
1.6020967 0.41310942 0.085817039 7499388
1.6036458 0.41578346 0.085296512 6053969
1.5897844 0.40518743 0.084867656 4670007
1.5912542 0.40742046 0.085495889 1647929
1.5934634 0.40877271 0.085368633 2632500
1.5953212 0.41112578 0.085113943 2698296
1.5973127 0.41307396 0.084901989 2501174
1.5991914 0.41497564 0.084525526 4341321
1.5777333 0.39499438 0.085907519 2631237
1.5804846 0.3977896 0.085741341 2630734
1.5814769 0.40030128 0.085868418 2893392
1.5853105 0.40332162 0.08444792 2369846
1.5870864 0.40574789 0.084658623 2238776
1.5890697 0.40779692 0.085127532 2829365
1.5917549 0.41030473 0.084483802 2501431
1.593194 0.41220611 0.084375441 2764089
1.5952054 0.41423285 0.083485126 2239301
1.5645938 0.38378292 0.086459219 1777203
1.5658948 0.38528806 0.087311804 2832709
1.5680399 0.38655192 0.087246478 4409432
1.5701759 0.3896172 0.086900115 3883099
1.573019 0.39206457 0.086205304 2499909
1.5745707 0.39383185 0.086053729 2368594
1.5758262 0.3957873 0.085521996 2763069
1.5771976 0.39808112 0.085897624 2434895
1.5793799 0.40091354 0.084151447 2172990
1.5816169 0.40289849 0.084089458 2238780
1.5838399 0.40482831 0.084036767 2173244
1.5852091 0.40749502 0.083532631 3026494
1.5879009 0.40948194 0.083218157 2698557
1.5897328 0.41194534 0.083074272 2567234
1.5912776 0.41245741 0.08335489 2304837
1.5926323 0.41517282 0.083396614 1648696
1.5582116 0.38007194 0.085549057 724257
1.5606415 0.38198429 0.086091042 723491
1.5621779 0.38481283 0.086625874 2501431
1.563571 0.38562936 0.087223768 3358277
1.5658824 0.38807094 0.085988998 5199722
1.5679421 0.39087313 0.08447665 6054520
1.5703273 0.3935886 0.084390759 6777471
1.572178 0.39541507 0.084113777 5593197
1.5738051 0.39797866 0.083921731 2305355
1.5759528 0.39992166 0.083642364 2304064
1.5776501 0.40207273 0.083768368 2369853
1.5795889 0.40418816 0.082179248 3026493
1.5816904 0.40674901 0.082000375 2960959
1.5833845 0.40817386 0.082591474 3158079
1.5858082 0.41042256 0.083110392 2961218
1.5530235 0.37884831 0.08485961 788777
1.5560771 0.38139778 0.085508168 724001
1.557344 0.38239473 0.085998595 985629
1.5592158 0.38504827 0.085979044 1513251
1.5625219 0.38825142 0.083908498 329752
1.5641861 0.38991868 0.083629072 2369836
1.5655369 0.39237469 0.083702266 5329754
1.5676421 0.39460158 0.083335459 7170425
1.5697806 0.39687341 0.083246529 5921907
1.5717593 0.39912933 0.08274138 5460843
1.5733659 0.40089983 0.081827462 5000038
1.575405 0.40367103 0.081751049 2764103
1.5778458 0.4054119 0.082028568 2698566
1.5472798 0.3760463 0.08425647 1249823
1.5497346 0.37786931 0.085037172 591644
1.5526168 0.38061011 0.084952533 1317434
1.5539067 0.38226634 0.08453536 2568014
1.5554657 0.38457638 0.083141387 2240854
1.5572405 0.38744706 0.082683265 1383730
1.5598623 0.38920277 0.082528114 592673
1.561915 0.39122802 0.082866132 921380
1.5635023 0.39387244 0.082190454 2368300
1.5663173 0.39618826 0.082092822 5460568
1.5676579 0.39883614 0.081533253 6972787
1.5698216 0.40058368 0.081626356 5987446
1.5716139 0.4028638 0.081394851 3226972
1.5422993 0.37335849 0.083535433 1118506
1.544404 0.37566453 0.08441776 921378
1.5459186 0.37698907 0.084710419 460306
1.547708 0.37989938 0.082822382 330774
1.5498376 0.3816278 0.083109319 1516332
1.5519822 0.38408762 0.082775176 4080728
1.554054 0.38604909 0.082356751 3159368
1.5562192 0.38846767 0.082352102 2174281
1.5575273 0.39071083 0.081187844 2172481
1.5601218 0.39243031 0.081382811 855075
1.5612248 0.39548922 0.081068814 526884
1.5641302 0.39712989 0.081254601 2368299
1.5324384 0.36656922 0.082894266 6513792
1.5343308 0.36872858 0.082486928 4608347
1.5358065 0.37080306 0.082825601 3159365
1.5381138 0.37190503 0.08272779 2764084
1.5397259 0.37480575 0.082812548 986925
1.5421368 0.37699658 0.081704199 987680
1.5439167 0.37904507 0.081801236 789778
1.5453792 0.38076448 0.082498372 658706
1.5482812 0.38299668 0.080974042 526611
1.5497248 0.38552004 0.080813468 1579039
1.5523496 0.38737696 0.080841243 4341585
1.5537356 0.39048636 0.080803573 6907007
1.5549262 0.39191806 0.081109822 6120328
1.5573373 0.39331371 0.081200182 2110810
1.5260382 0.36267066 0.083040893 1316650
1.5285692 0.36485398 0.083116353 3488084
1.5301909 0.3670609 0.082414687 4343644
1.532148 0.3695569 0.082343459 3160391
1.5339243 0.37172437 0.082477212 2040609
1.5359552 0.37402141 0.081922531 1644832
1.5380721 0.37616462 0.081501067 856605
1.5402632 0.37817723 0.081314802 724251
1.5415288 0.3802489 0.080601275 1118748
1.5443493 0.38258678 0.079685688 1052697
1.5459373 0.38480502 0.080429137 855322
1.5199728 0.35968423 0.081746757 1185323
1.5229192 0.36189115 0.082215846 856353
1.524217 0.36467975 0.082737148 921889
1.5258582 0.36659712 0.081125796 923180
1.5283678 0.36836565 0.081193268 594730
1.5302136 0.37057412 0.080853164 1382944
1.5322841 0.37251008 0.080386341 4013114
1.5338635 0.37513632 0.080268085 3224116
1.5360024 0.37769723 0.079924345 2105373
1.5380945 0.37939197 0.079491317 1447709
1.5404792 0.38155657 0.079382002 1053472
1.5423276 0.38359696 0.079799533 592408
1.5089566 0.35085076 0.081985891 987175
1.5101035 0.35253942 0.08273828 1710901
1.5123733 0.35429519 0.081946433 2042440
1.5143461 0.35652459 0.082105219 2172745
1.5163734 0.35878962 0.081995666 1844287
1.5180354 0.36094707 0.081336796 1647680
1.5199982 0.36322796 0.080952227 1254208
1.5218596 0.36600029 0.080684006 660784
1.5241301 0.36797345 0.080215275 1384761
1.5263007 0.36981732 0.080140352 1186348
1.5277321 0.37244314 0.079452574 1316387
1.530067 0.37404543 0.079382002 2237225
1.5317829 0.37614781 0.079601943 2368804
1.5027759 0.34711522 0.081169426 1250850
1.5046837 0.34941643 0.081727028 790567
1.5065382 0.3514291 0.082003355 1515063
1.5081586 0.35351741 0.080881596 2175311
1.5103383 0.3559472 0.080842316 2110292
1.5118709 0.3582114 0.080615342 2569038
1.5142536 0.36045724 0.080131352 2832469
1.516644 0.36274445 0.080010355 2635606
1.5183678 0.3654564 0.079459965 2305351
1.5201647 0.36728901 0.078691661 1843772
1.5222783 0.36926723 0.078470051 1448238
1.5243615 0.37146741 0.078217149 2040109
1.5258271 0.3738932 0.078289866 2106421
1.52788 0.37482661 0.078434646 1973543
1.4951987 0.34329987 0.080560744 461863
1.4985117 0.34633559 0.081125438 790818
1.5006498 0.34821886 0.0815323 1054507
1.5024529 0.3505401 0.080737293 1516861
1.5043092 0.35288823 0.08029145 1779265
1.5063763 0.35496861 0.079998314 2108230
1.5083354 0.35703635 0.079996526 2766157
1.5098921 0.35930169 0.079634845 2701918
1.512301 0.36209142 0.079154313 3162210
1.5142474 0.36461002 0.078173697 3686493
1.5166898 0.36701941 0.077610433 3818076
1.5179179 0.36914915 0.077876806 3357528
1.5200162 0.37085384 0.0777964 2501698
1.5220369 0.37290031 0.077741802 1844024
1.4923168 0.34367698 0.080561817 1251128
1.4946154 0.34548157 0.080397189 593954
1.496446 0.3479045 0.079826832 856874
1.4986434 0.35016292 0.079639673 1185842
1.5007066 0.35173202 0.079061389 1514026
1.5021707 0.35452783 0.079206645 2501696
1.5046368 0.35562021 0.078656912 2961472
1.506367 0.35843706 0.078131616 3487300
1.507283 0.36064863 0.078450143 3487560
1.5098443 0.36278832 0.078199804 3685460
1.5117991 0.36533016 0.077972591 3620181
1.5141106 0.36813956 0.077262044 4013398
1.4843678 0.33834291 0.079428673 2171961
1.4864542 0.34017122 0.079164565 2764099
1.4886584 0.34281671 0.079345644 2895681
1.4901457 0.34453189 0.078803599 1317156
1.4923311 0.34701061 0.07836622 987939
1.4945521 0.34904003 0.078676641 1382184
1.4965241 0.35133344 0.078329146 1315623
1.4980397 0.35338408 0.078632414 2172473
1.4728187 0.32905525 0.079057753 2567492
1.4767141 0.33304346 0.078665674 1911373
1.4788662 0.33443296 0.07941848 527402
1.4809068 0.33680212 0.078676283 593443
1.4823694 0.33943641 0.078630865 725022
1.4841726 0.34156609 0.078432858 1646125
1.4864061 0.34360743 0.078005493 2500915
1.488593 0.3462348 0.078101575 1842213
1.4906338 0.3485027 0.077321827 2039594
1.492847 0.35027742 0.077670932 1841442
1.4947119 0.35266238 0.078094065 1512486
1.4670806 0.32573307 0.079639733 593173
1.4686232 0.32769185 0.079248965 1777460
1.4704854 0.32978731 0.079217136 2305348
1.4728487 0.3321209 0.078646958 2569807
1.4747682 0.33406794 0.078139961 2964829
1.4765872 0.33619559 0.077579916 2965862
1.4786341 0.33876783 0.077944815 1318211
1.4806108 0.34064174 0.077923954 198429
1.4823067 0.34319752 0.076650262 723988
1.484404 0.34510183 0.076778352 1579298
1.4867516 0.34764165 0.076007307 2565675
1.4880526 0.34930176 0.076804399 461333
1.4629872 0.32505089 0.077831686 526617
1.4655399 0.32641631 0.07859689 987164
1.4668083 0.32939172 0.078012645 1448744
1.4693317 0.33145726 0.077014804 2831426
1.4710797 0.33332098 0.07721597 3490132
1.472558 0.33600974 0.076980412 4017006
1.4744982 0.3381936 0.076781809 3885415
1.4763707 0.33972138 0.07651794 3818594
1.4786665 0.34223729 0.075959265 2500674
1.4801259 0.34487802 0.075320542 1053228
1.4835498 0.34685898 0.075921357 920851
1.4565811 0.32180548 0.076962292 1055550
1.4593779 0.32361704 0.077133238 856880
1.4607861 0.32593387 0.077191532 1121347
1.4632334 0.3283655 0.077144444 526355
1.4647286 0.33069634 0.076654732 526352
1.4667665 0.33249974 0.076051652 1448220
1.4682966 0.33506727 0.076075733 2698283
1.4703511 0.33688188 0.076049745 4210249
1.4728041 0.33916211 0.075255215 4867926
1.4751105 0.34208298 0.07428205 4802394
1.4762621 0.34383672 0.074098408 5131625
1.4775594 0.34544581 0.074772954 4079707
1.4517674 0.31845814 0.076723039 527384
1.452913 0.32083285 0.07692486 1120043
1.4550544 0.32335782 0.076585472 1581626
1.4568224 0.32521695 0.076305211 1845056
1.4584155 0.32734036 0.076113641 2831689
1.4607947 0.3297472 0.075559616 2173252
1.4626122 0.33226186 0.075080574 1054519
1.4648821 0.33401525 0.075169742 197648
1.4659113 0.33617926 0.075474679 855311
1.4708712 0.34049463 0.074408412 5196628
1.4725502 0.34325665 0.073711693 5788274
1.4739021 0.3445307 0.074287534 5525625
1.4415114 0.31132632 0.075988233 6055564
1.4428139 0.31344318 0.076411664 2832206
1.4449791 0.31570005 0.075950205 1514805
1.4467599 0.31791878 0.075991333 1316659
1.4491436 0.31998998 0.075974643 527134
1.4505713 0.32238209 0.075388253 922142
1.4528553 0.32477003 0.075082898 1316128
1.4546988 0.32679987 0.074284315 1578272
1.4564924 0.32892531 0.074899018 3355461
1.4594691 0.33133417 0.075391948 4539742
1.4602206 0.33231217 0.075526416 3425905
1.4332477 0.30660731 0.075231135 461093
1.4352498 0.30866796 0.075522482 1118500
1.4377648 0.3113088 0.074863493 2369590
1.4388838 0.31268519 0.07565254 2896201
1.4410207 0.31485504 0.075564444 3751255
1.4432312 0.31722045 0.075354874 2895944
1.4454732 0.31972665 0.074852169 2172213
1.4470439 0.32182348 0.074871719 1052954
1.4491177 0.32354784 0.074128926 1710368
1.4499865 0.32586265 0.073349535 986136
1.4272317 0.30317986 0.0746755 3881794
1.4292173 0.30532622 0.0746333 3752544
1.4309561 0.30796599 0.07510972 1185083
1.4330406 0.30978376 0.07544452 592423
1.4350288 0.31173193 0.074680746 461084
1.4367812 0.31389356 0.074334681 1119002
1.4390107 0.31654286 0.073987305 3289397
1.4409685 0.31848335 0.073531091 5131090
1.44262 0.32065547 0.073068917 4275527
1.4444783 0.32254851 0.0729056 1908004
1.4464791 0.32539696 0.072561681 526606
1.4230871 0.30249441 0.074213088 2831163
1.4250829 0.30441457 0.074665427 3752280
1.4270675 0.30635363 0.074646652 3753061
1.4288238 0.30901027 0.074097812 3819370
1.4314599 0.31121022 0.073242962 2963807
1.4328409 0.3132695 0.07285732 2042183
1.4349722 0.31581539 0.072964013 461338
1.4374661 0.31747562 0.072467268 1052432
1.4388428 0.32058746 0.07210356 1578261
1.4131856 0.29512781 0.073525488 2571106
1.414921 0.29677093 0.073213041 2635873
1.4194362 0.30135345 0.073470533 987675
1.4208959 0.30348098 0.073670089 1645852
1.4230974 0.30596334 0.073693693 3619391
1.4253685 0.30878693 0.073139966 4408407
1.4278011 0.31048238 0.07231909 4605271
1.4295363 0.31267899 0.072376668 4474979
1.4307584 0.31479412 0.072297275 4212324
1.4324068 0.31686163 0.072287381 2566473
1.4077178 0.2926631 0.072790682 991294
1.4097362 0.2941438 0.073641658 1979229
1.4110034 0.2963109 0.072980523 2437980
1.4129014 0.29890925 0.073241949 2635101
1.4153057 0.30076396 0.072671235 1581638
1.4172421 0.30273545 0.072622359 527395
1.4191537 0.30485344 0.072562575 592144
1.4208946 0.3071422 0.071577847 1512723
1.4224842 0.30983901 0.071723163 2960175
1.4247806 0.31220376 0.071968317 5721961
1.4271207 0.31377316 0.071937025 5854323
1.4027653 0.29120612 0.071959794 2369092
1.4057094 0.29348904 0.072346985 987948
1.4070969 0.2956773 0.072891176 1910599
1.4093298 0.29781109 0.072245657 1778493
1.4110099 0.30002952 0.072172701 2962250
1.4130929 0.30180055 0.071922004 4013387
1.4154215 0.30401689 0.071587861 2631745
1.4174714 0.30698109 0.070840061 395303
1.4187276 0.30874121 0.07105583 131858
1.3974965 0.28804469 0.071539164 2698300
1.3992398 0.29015809 0.071618557 4079961
1.4010166 0.29221553 0.071410596 1579561
1.4031838 0.29446185 0.071346879 1118750
1.4052336 0.29707837 0.070842445 1052951
1.4072857 0.2988295 0.071636915 2368816
1.3854935 0.27909857 0.071344852 3356759
1.3934207 0.287314 0.070360303 329497
1.3953571 0.28958762 0.070965588 725020
1.3977501 0.29161662 0.071007848 2039595
1.3993399 0.29388654 0.070373356 2104869
1.4014449 0.2959317 0.070386469 921366
1.4032774 0.29786396 0.07047528 394504
