# .PCD v0.7 - Point Cloud Data file format
VERSION 0.7
FIELDS x y z rgba
SIZE 4 4 4 4
TYPE F F F U
COUNT 1 1 1 1
WIDTH 1182
HEIGHT 1
VIEWPOINT 0 0 0 1 0 0 0
POINTS 1182
DATA ascii
1.3827904 0.33214566 0.053643405 265239
1.3851309 0.33240619 0.053492427 790557
1.3879169 0.33344555 0.053355217 1909543
1.3907022 0.33448717 0.052577138 2173240
1.3933427 0.33538637 0.05237627 2832198
1.3962587 0.33601725 0.052315295 2503766
1.3989491 0.3372674 0.050906718 2240076
1.4015605 0.33859921 0.050226748 1580860
1.4041618 0.33949029 0.049983501 264217
1.4094659 0.34261298 0.048379302 1384750
1.2995108 0.301999 0.072049499 592147
1.3020002 0.30240408 0.072397172 2434341
1.3048732 0.30445102 0.072067857 5065805
1.3072826 0.30418149 0.071945488 4408654
1.3099192 0.30564529 0.071317852 3750733
1.3132052 0.30699217 0.070909262 2238019
1.3159721 0.30784833 0.068924725 461078
1.3182309 0.30851185 0.069004357 986895
1.3201526 0.30998012 0.068968356 3681829
1.323499 0.3114565 0.06649965 5199736
1.3258535 0.31079844 0.066200614 4279402
1.3307947 0.31427905 0.063591123 789544
1.33497 0.31517908 0.064291 1645079
1.3427926 0.31819448 0.063687682 4672354
1.3462958 0.31903049 0.062342823 3555151
1.3480754 0.32036909 0.06285727 1317897
1.3509951 0.32163829 0.06196636 985876
1.3703796 0.32956216 0.054371476 4148319
1.3729079 0.33023041 0.054408729 4610173
1.3756895 0.33075395 0.05391562 3821686
1.378692 0.33164746 0.053903282 4084597
1.3812202 0.33260342 0.05288595 1714757
1.3837806 0.33443648 0.051852882 857390
1.3864961 0.33511907 0.051261008 592665
1.3890836 0.33577421 0.051145494 1250846
1.402899 0.34298629 0.047616005 1321281
1.4056081 0.34302706 0.047516823 199964
1.4077731 0.34307414 0.047451258 395794
1.2866585 0.29904366 0.072203517 4537930
1.2895963 0.30062398 0.072516978 5393505
1.2923236 0.30149826 0.072337091 3289929
1.2949194 0.30251145 0.072065294 1842995
1.2983027 0.30365628 0.072027802 592150
1.3035343 0.30599755 0.068325698 4471893
1.3067787 0.30648357 0.068519592 5590621
1.3093923 0.3077116 0.067989647 3683659
1.3118725 0.30841529 0.067551374 2895950
1.3143934 0.31014469 0.067453027 922156
1.3186723 0.3105453 0.065685213 4674338
1.3206654 0.31166208 0.065397084 6710912
1.3255644 0.31535482 0.063819706 3685472
1.3281803 0.31501874 0.063329875 3357020
1.3309963 0.3162488 0.063017011 264744
1.3331778 0.3160626 0.06331861 396314
1.358508 0.32678092 0.054756403 4415874
1.3606347 0.32789871 0.054797292 4349565
1.3636016 0.32844791 0.054113209 1647929
1.3661838 0.33015791 0.053438365 395796
1.3686458 0.33104232 0.053398311 2436406
1.3718647 0.33141735 0.053405523 4085104
1.3746796 0.33315927 0.051330984 3490133
1.3770504 0.33378911 0.051296473 3754852
1.3799204 0.33468437 0.051011086 3689836
1.3825887 0.33587983 0.050668597 2767707
1.2798254 0.29926467 0.071608126 592923
1.2830279 0.30017674 0.072174549 1973019
1.2858189 0.30086106 0.072069526 5590352
1.2893122 0.30286238 0.072389305 6380142
1.2943609 0.30454037 0.068626106 2369606
1.2976167 0.30500525 0.06857723 329745
1.2997855 0.30658734 0.068749905 657413
1.3020689 0.30619353 0.068483949 3749159
1.3050685 0.30904573 0.067695677 7101288
1.3091742 0.30993727 0.067667007 4012361
1.3158528 0.3130677 0.063908696 1053701
1.3187883 0.31335241 0.064405143 5790015
1.3276415 0.31715968 0.063309729 3358043
1.3310076 0.31958252 0.06069839 134186
1.3484702 0.32505575 0.05514729 199690
1.3512366 0.32675862 0.054525614 3752784
1.3541261 0.32749671 0.054675817 5334924
1.3568931 0.32809246 0.054175019 4611461
1.3602639 0.32890984 0.053241968 4281462
1.3621515 0.33080295 0.052163243 3031653
1.3648818 0.33134535 0.051536143 1647161
1.3678477 0.33244652 0.050914824 725018
1.3709128 0.33320671 0.050432026 1908521
1.3730346 0.33408907 0.05066216 3028290
1.3751963 0.33513939 0.050594687 3424842
1.2738168 0.29951862 0.07204628 3290182
1.2768784 0.29961202 0.071569145 2171958
1.2796679 0.30121076 0.071465552 657426
1.2816488 0.30166602 0.07055819 921867
1.2862656 0.30525029 0.06871295 7497071
1.2899787 0.30462801 0.068317354 5852009
1.2926351 0.30606183 0.068051219 3354933
1.2959825 0.306777 0.068566322 987422
1.3008354 0.30942729 0.064557672 5397615
1.3026955 0.30949524 0.063528061 5660262
1.3063185 0.31183746 0.063481927 2639727
1.309001 0.31249112 0.062985539 2568504
1.3120298 0.31351003 0.062847435 1314858
1.3142805 0.31317604 0.062935829 593160
1.3258978 0.32072783 0.059175968 3621472
1.3397205 0.32405078 0.055050492 5204104
1.3422571 0.32509792 0.054667592 3823482
1.3450209 0.32571194 0.054619908 1256275
1.3472605 0.32703927 0.053791046 265240
1.3504999 0.32786778 0.053428411 1910311
1.3532728 0.3288244 0.052950442 4280164
1.3555621 0.33008558 0.052039385 3951460
1.3587337 0.33109963 0.050899327 4017511
1.3609856 0.33208293 0.050923288 4280432
1.3636302 0.33295429 0.050475001 3358559
1.3663657 0.33476853 0.049374759 989755
1.3695661 0.3354308 0.048604727 724245
1.3715104 0.33626264 0.04945296 1975343
1.2597098 0.29560944 0.072210371 1512997
1.2613963 0.29667184 0.072005868 591896
1.2643923 0.29826128 0.071833849 657682
1.2673506 0.29855517 0.071543753 3355196
1.270201 0.29866913 0.071498275 5395300
1.272512 0.30142152 0.070735812 3487027
1.2752866 0.30168822 0.069380581 2828350
1.2781498 0.3016496 0.069665968 1051665
1.2807965 0.30519879 0.068096757 788753
1.2839532 0.30546144 0.067929387 3288114
1.2867942 0.30492052 0.066591799 7233150
1.2886232 0.30673301 0.067660511 7166093
1.29216 0.30810946 0.063914239 2237492
1.2955246 0.30917031 0.062943816 330522
1.2973254 0.31031576 0.063978374 1250573
1.2994163 0.3114571 0.063533604 4541779
1.3026942 0.31194803 0.063320339 6911868
1.3045115 0.31291711 0.063494742 6714739
1.308664 0.313977 0.062594354 3028542
1.3102593 0.31587511 0.062205851 1514278
1.3335508 0.32380566 0.053611279 4938588
1.3356376 0.32530615 0.05413568 4873087
1.338455 0.32552028 0.054454148 4873858
1.3408411 0.32627788 0.054441273 4217981
1.3439387 0.32745373 0.053020179 2702435
1.3472933 0.32932234 0.05265826 132882
1.3490145 0.3296532 0.05227834 658978
1.3520279 0.33165723 0.04997921 1843501
1.354252 0.33212537 0.049749017 2897240
1.3571273 0.33275241 0.050130546 3753316
1.3638959 0.33535084 0.048398077 3687003
1.3660827 0.33643436 0.048028111 2238784
1.3683413 0.33712846 0.047130704 525842
1.2498617 0.29456219 0.072127223 3025981
1.2526561 0.29490095 0.072238326 2960188
1.2557623 0.29619253 0.072708845 2236460
1.2579341 0.29702434 0.072405815 1841448
1.2601022 0.29735023 0.072485447 854550
1.2635384 0.29949751 0.070390522 526344
1.2682388 0.30106843 0.067632377 5918842
1.2717266 0.30248126 0.068348169 4604753
1.2776743 0.30505979 0.065304756 986380
1.2796949 0.30534142 0.065020859 1183762
1.2816752 0.30568326 0.064668119 5328466
1.2909167 0.31047219 0.063440979 2698559
1.2937123 0.31029388 0.063462496 855317
1.2958062 0.31056574 0.06312716 723473
1.2988045 0.31262338 0.063314199 4147266
1.3179437 0.32078078 0.055172145 5201786
1.3254156 0.32295975 0.05299145 3096940
1.3289452 0.32453915 0.052885175 67357
1.3314266 0.32505485 0.053297818 1515561
1.3336304 0.32686457 0.053116739 4742260
1.3393855 0.32840773 0.0502249 4675196
1.3423197 0.32996377 0.050354779 4280439
1.3451111 0.33088124 0.049871922 3490144
1.347924 0.33154878 0.049536347 725538
1.3506799 0.33220401 0.049308717 396041
1.3531491 0.33342934 0.048440099 2765098
1.2426665 0.29410231 0.071971178 3025458
1.2450809 0.29534271 0.071907461 2565163
1.2480199 0.29607126 0.071911454 1775657
1.2511379 0.29649004 0.072265863 1117983
1.2540351 0.29850572 0.069355726 2631722
1.2565097 0.29941577 0.069209933 1842468
1.2600712 0.30046505 0.069371521 919846
1.26209 0.30026662 0.069298267 658692
1.2651685 0.30240634 0.067870319 1776403
1.2682605 0.30355051 0.067707717 3947585
1.2701473 0.30293497 0.067129672 5525871
1.2733521 0.3046903 0.064610183 2895421
1.2756083 0.30589601 0.065140665 1119251
1.2786705 0.30841872 0.064172924 1052438
1.2815388 0.3088364 0.064406455 3816011
1.2842577 0.30938444 0.063003242 7107957
1.2868482 0.31028244 0.062058449 5659523
1.2887254 0.31095695 0.062680364 2568528
1.3166362 0.32054454 0.054860532 4872299
1.3196926 0.32288769 0.053328276 5069694
1.3219374 0.32414782 0.053121626 4806527
1.3248982 0.32510066 0.053052127 3820139
1.3274343 0.32542869 0.052311957 989495
1.3306391 0.3278968 0.050705135 593175
1.3327892 0.32875371 0.04985404 1318177
1.3359078 0.32910961 0.050108731 4148331
1.3386919 0.33039042 0.049678206 4674937
1.3412132 0.33083841 0.049149811 3885420
1.3434539 0.33039618 0.048346579 3818841
1.2341565 0.29293579 0.071048975 1381667
1.2355492 0.29384863 0.071562886 789276
1.2389827 0.2947554 0.071844518 1052178
1.24084 0.29534641 0.072434425 788750
1.2477844 0.29822981 0.068130553 3092777
1.24956 0.2990438 0.069216788 1512734
1.25257 0.29870176 0.069514096 1841949
1.2637057 0.30311504 0.064963341 3158064
1.2661549 0.30386409 0.064909399 5987693
1.2694401 0.30586612 0.063816011 3816520
1.272086 0.3071579 0.064205647 1645859
1.2763909 0.30873144 0.06403929 1052688
1.3124967 0.32228807 0.052639604 1119510
1.3154161 0.32359594 0.052638829 4148063
1.3182278 0.32421899 0.052785099 5989248
1.3204519 0.32590204 0.05084902 5854859
1.3234167 0.32730624 0.049880385 4739957
1.3257756 0.32798392 0.049726963 3688565
1.3287097 0.32884437 0.049020231 1450040
1.3316283 0.3300997 0.04850477 461840
1.3346435 0.33087343 0.047810614 2173498
1.3368447 0.33163077 0.047997653 3490145
1.2321254 0.29442915 0.070930541 2104882
1.2377124 0.29717362 0.069113731 1249544
1.2404435 0.29690731 0.068999469 1183754
1.2435229 0.29827848 0.068491161 987155
1.2463088 0.29849765 0.068357646 2237468
1.2597064 0.30430755 0.063818932 854548
1.2622764 0.30567089 0.063824475 1380890
1.266008 0.30683556 0.063818038 3354678
1.2673304 0.30798608 0.064048946 1447450
1.3016635 0.32006899 0.05319792 4874369
1.3031921 0.32146183 0.052648962 3493746
1.3059335 0.32271314 0.051750124 3820144
1.3087312 0.32333067 0.051715791 1121332
1.3119503 0.32457709 0.052201867 397341
1.3136945 0.32588732 0.050559759 1450273
1.3170153 0.32715824 0.049151361 3291469
1.3198706 0.32779783 0.049161077 5002872
1.3221222 0.32843274 0.048613548 5661059
1.3254571 0.32987398 0.048074961 3031665
1.3283439 0.330614 0.048071325 1845065
1.3305244 0.33248329 0.047049046 197911
1.3329644 0.33260372 0.046620607 527628
1.3359246 0.33421007 0.045637846 1845294
1.3395346 0.33578268 0.045768797 6315672
1.2285653 0.29549864 0.068749011 3354678
1.2308613 0.29593098 0.069390774 2566196
1.234417 0.2964395 0.067572057 1119519
1.2355616 0.29884693 0.067698896 1445661
1.2534323 0.30565223 0.064051986 1381403
1.2562512 0.30555815 0.063528597 855073
1.2579792 0.30637088 0.062888503 789274
1.2968923 0.32153296 0.051320195 5136767
1.2994343 0.32221162 0.051397204 5991821
1.3019156 0.32325143 0.051218688 5858184
1.3045241 0.32376298 0.051388085 4083836
1.3074502 0.32609344 0.049292207 3950704
1.3100166 0.3263174 0.048904657 1647166
1.3126431 0.32756907 0.04818821 264213
1.3156006 0.32829744 0.047808528 1515824
1.3179734 0.32979599 0.048228145 5002357
1.3213741 0.32958341 0.047212541 6586287
1.3236868 0.33175617 0.046595573 5858709
1.2256957 0.295672 0.066928387 4603448
1.2270448 0.29645497 0.06791085 3814710
1.2299954 0.29841685 0.066446066 2631728
1.2332389 0.29878968 0.067339838 1645092
1.2813876 0.31756225 0.052285194 8357806
1.2843046 0.31888479 0.052603245 5003651
1.286189 0.32004583 0.052562773 2835800
1.2904236 0.32113618 0.05050391 134167
1.2927282 0.32196856 0.050510824 199180
1.29524 0.32321677 0.050227225 1582385
1.2980223 0.32406533 0.049605906 3753821
1.3005143 0.32527143 0.04923135 5857915
1.3038453 0.32587531 0.048750043 5595786
1.3060403 0.3263903 0.048466444 4477560
1.3092904 0.32790768 0.047888994 3160405
1.31083 0.32849598 0.046485901 1514811
1.3136959 0.32989824 0.047774315 723472
1.2265334 0.298491 0.066167474 4999232
1.2777097 0.31963611 0.051968992 4145745
1.2805755 0.31956059 0.052184403 7697816
1.2834945 0.32022318 0.050715625 5988230
1.2861054 0.32171515 0.050175965 4148589
1.2886802 0.32299644 0.049695849 2700886
1.2914029 0.32375947 0.049317181 1317688
1.2944007 0.32445312 0.049177051 527636
1.2966952 0.32627141 0.047575355 527892
1.2994958 0.32710743 0.047192097 2962492
1.3018695 0.32733545 0.04728353 7896211
1.2740178 0.31969678 0.050540984 264458
1.275645 0.32024494 0.051024973 988184
1.2797831 0.32157528 0.048361719 3490657
1.2823126 0.3226454 0.048387229 6843540
1.2848054 0.32352498 0.048638999 6054277
1.2868111 0.32363078 0.048642933 4410731
1.2905279 0.32594225 0.046272933 2698309
1.2929621 0.32611772 0.046379745 921894
1.2952143 0.3263939 0.046572328 198160
1.2618645 0.31742534 0.050317347 5790319
1.2645376 0.31809619 0.050232947 6186358
1.2673719 0.31911838 0.049726188 4278626
1.2700773 0.31990677 0.049358666 2896971
1.2725672 0.32138306 0.048544228 1711414
1.2754107 0.32221398 0.047937214 658452
1.2781473 0.32303941 0.047875762 1514283
1.2808088 0.32415056 0.047408521 3357272
1.2834363 0.32564861 0.0465644 3160113
1.2867963 0.32613292 0.046157122 3027282
1.2891383 0.32707563 0.046190023 724513
1.2580509 0.31761044 0.049537122 1318192
1.2605604 0.31862885 0.049670577 3027776
1.2631569 0.31960338 0.049600899 3488081
1.2659709 0.32045114 0.048901975 3750754
1.2691083 0.32158875 0.048313916 2369608
1.2716671 0.32236472 0.047683835 2435648
1.2740403 0.32375991 0.046574891 724255
1.281961 0.32690054 0.046466053 721690
1.2379515 0.31265759 0.052497327 791838
1.2399555 0.3136397 0.052266657 791061
1.2424964 0.31345081 0.051001072 2567989
1.2458639 0.3158071 0.050085366 2172215
1.2484081 0.31614721 0.050288081 2435634
1.2512283 0.31743079 0.049489081 1908526
1.2540778 0.31860757 0.048570573 1185061
1.256603 0.3190425 0.048691273 593433
1.2587974 0.32090437 0.047566831 724501
1.2615728 0.32169449 0.046947062 1446952
1.2673019 0.32337725 0.044617891 462120
1.2703621 0.3245647 0.045204222 724784
1.2309333 0.31187373 0.051894426 2236705
1.2336874 0.31301874 0.051489413 858406
1.2357842 0.31378263 0.051786184 68137
1.2393819 0.31494385 0.049194813 2895670
1.2420411 0.3161664 0.049440563 1251106
1.2447162 0.3166852 0.049660921 1184808
1.2473738 0.31760189 0.049159765 1250341
1.2498147 0.31846747 0.048922181 1382438
1.2528065 0.32053238 0.047494173 1316906
1.2552938 0.32094133 0.0470047 791069
1.2642771 0.32406145 0.045148373 724510
1.2661053 0.32476166 0.044883132 395798
1.268102 0.32668668 0.043944657 592426
1.2269478 0.31309548 0.049417794 2304577
1.2297064 0.31333369 0.050985694 988451
1.2327822 0.31522214 0.048802912 1513513
1.2350919 0.31584346 0.048771799 1909022
1.237703 0.31673172 0.048401654 1514783
1.240296 0.31742951 0.048177361 1120284
1.2430791 0.31913674 0.046658754 1253411
1.2462611 0.31976485 0.046273351 791072
1.2491068 0.32083541 0.046035886 527639
1.2513472 0.3212668 0.046261907 856613
1.2252895 0.31546265 0.048320651 1649990
1.2283528 0.31560072 0.047663748 1646907
1.2307489 0.31651911 0.047933698 1382178
1.2336277 0.317848 0.046787322 1974059
1.2368397 0.318699 0.0457955 1975337
1.2394433 0.31933773 0.046611965 2371641
1.2170445 0.31312424 0.048565507 8754591
1.2190559 0.31361735 0.048640907 8491683
1.2217442 0.31537378 0.047351837 4544376
1.2246814 0.31565994 0.046491027 2241094
1.2272761 0.31740493 0.046293557 2830921
1.2301028 0.31827113 0.045150399 3289400
1.232963 0.31875998 0.045216084 2959919
1.23564 0.3204357 0.046169817 3096651
1.2179666 0.31674895 0.045060813 8488847
1.2203356 0.31737289 0.045285523 7500922
1.2234 0.31825948 0.044843554 4671825
1.2260519 0.31924313 0.044522166 4276033
1.2287524 0.32002085 0.044035196 4143417
1.2315311 0.32105547 0.044327974 4537398
1.2137352 0.3174929 0.043943405 7694692
1.2167639 0.31749892 0.044315994 7169634
1.2191057 0.31871751 0.043775976 6378828
1.2223735 0.31951469 0.043351293 6051664
1.2244104 0.32047603 0.042592347 4540746
1.2266134 0.32129031 0.043058693 2173241
1.2122899 0.31837806 0.044063151 7300190
1.2150152 0.31929481 0.042881548 7695202
1.2183287 0.32083988 0.040912807 7891806
1.2213985 0.32188368 0.041043222 6840664
1.2231548 0.32304177 0.040422022 6381389
1.2121226 0.32073295 0.040123522 9011823
1.2149665 0.32162106 0.040540338 8550761
1.2161415 0.32287854 0.040128589 8484200
1.6339028 0.35552874 0.071010828 1645584
1.6375089 0.35528243 0.071054757 2367009
1.6282221 0.35535792 0.070100129 1052435
1.6309373 0.35585043 0.071153522 1118232
1.6130151 0.35131222 0.071260512 526610
1.6163635 0.35123247 0.071552336 986148
1.6179993 0.35413 0.070658803 657682
1.6209919 0.35482177 0.070272923 658962
1.6240705 0.35558447 0.069898725 593428
1.626742 0.35672125 0.069569588 723985
1.6405243 0.36169398 0.064804733 1907497
1.6415329 0.36404917 0.06474781 724541
1.6038216 0.35036567 0.072405636 658439
1.6072972 0.35177183 0.07130909 594701
1.6096668 0.35139215 0.070968688 462599
1.611308 0.35425377 0.070040703 657677
1.614462 0.3543396 0.070615113 854807
1.6344638 0.36334631 0.06377387 528400
1.6367407 0.36223125 0.064133465 2041639
1.6393529 0.36404553 0.06350565 1644321
1.6425762 0.36391693 0.063005924 1383981
1.5918535 0.34850568 0.071837842 791321
1.5943792 0.34886718 0.071497381 789783
1.5973885 0.35032314 0.071539462 922658
1.6000491 0.34987825 0.071237743 592661
1.6023678 0.352079 0.071198165 460826
1.6089435 0.3545976 0.070346653 1184025
1.6277586 0.3617231 0.062992096 1248798
1.630487 0.36279371 0.063079894 1183773
1.6325686 0.36351189 0.06301719 1578291
1.6351714 0.36494157 0.062818289 330260
1.5852581 0.3486284 0.071162522 986657
1.5880022 0.34849367 0.071373284 1052443
1.5905874 0.34918132 0.071476161 1446681
1.5930443 0.3507033 0.071609259 1710369
1.6150072 0.35888213 0.063138783 856087
1.6175488 0.36066991 0.063176155 529427
1.6201555 0.36075979 0.062962055 856850
1.622663 0.36193994 0.061569631 921114
1.6258618 0.36387202 0.061360478 592652
1.6286966 0.364243 0.061322808 1315367
1.6310368 0.36485159 0.061508358 1382439
1.6336458 0.36670029 0.058838725 858890
1.6366738 0.3681379 0.058636069 1383963
1.6393732 0.36730438 0.058697939 1842736
1.6415528 0.36919686 0.056027651 2104641
1.5759056 0.34678641 0.070965767 1972250
1.5782903 0.34641257 0.070694208 1314072
1.5809398 0.34884784 0.07105273 2893870
1.5835314 0.34842062 0.070758581 1447193
1.5871712 0.35068631 0.070969522 920864
1.6076996 0.358051 0.062990367 1248790
1.6111484 0.3600468 0.062906027 1052941
1.6141398 0.36115149 0.06268692 856859
1.6168641 0.362066 0.061882019 789792
1.6193312 0.36302525 0.061552107 1119523
1.6220276 0.36408746 0.060927331 724759
1.6246905 0.36478478 0.059820235 790297
1.6273766 0.36605248 0.058798969 1118746
1.6303842 0.36762431 0.058145106 1251625
1.6331112 0.36740333 0.058000207 1186331
1.6354992 0.36990663 0.056302667 1318675
1.6384479 0.37037027 0.056490421 1581085
1.6409292 0.37094641 0.056760013 1448994
1.5720172 0.34681076 0.070554554 1511448
1.5748893 0.34810105 0.071112692 3550251
1.5769953 0.34902114 0.070828736 5062460
1.5934939 0.35730529 0.065068424 2700849
1.5960959 0.35638279 0.064093947 1646368
1.5989709 0.35766068 0.063768923 2105898
1.6016831 0.35884133 0.063230455 1710883
1.6047041 0.35955849 0.062495172 921111
1.607518 0.36040339 0.061910868 855316
1.6097822 0.36178774 0.061359107 1251096
1.6123648 0.36244982 0.061997473 2041393
1.6149588 0.36349353 0.058981776 1118491
1.617993 0.36542925 0.058548093 1449758
1.6207668 0.36599407 0.058154225 922650
1.6237167 0.36696994 0.057453394 723989
1.6263421 0.36818603 0.057069659 790291
1.6289716 0.36866516 0.056851983 1119516
1.6323646 0.37042803 0.055915713 790556
1.6339798 0.37091488 0.056520164 662027
1.5626438 0.34708053 0.069844484 2302506
1.5650538 0.34664062 0.069572985 2236962
1.5676107 0.34787232 0.069224477 1644576
1.5705422 0.34921664 0.069517016 1380889
1.5860326 0.35520235 0.063681722 1250858
1.589597 0.35717386 0.063800871 986397
1.5920359 0.35649264 0.063567758 1447707
1.5949153 0.35774621 0.062493324 2436385
1.5980122 0.35857955 0.06266588 2239545
1.6019924 0.36025524 0.062017262 790040
1.6028305 0.36087897 0.06170845 526095
1.6069227 0.36289948 0.060061932 789274
1.608641 0.36405817 0.05887109 1317147
1.6115333 0.36436129 0.058422208 1383209
1.6144334 0.36575985 0.058037758 1713713
1.6167676 0.36640042 0.057660103 1187110
1.6197364 0.36713687 0.057108343 921892
1.6224803 0.36893234 0.056683421 526610
1.6247728 0.37007555 0.056460738 526607
1.5560888 0.34714302 0.069238007 2499885
1.5580871 0.34657019 0.068583667 2499885
1.5611777 0.34718055 0.068976164 2434092
1.5653504 0.34895006 0.06945771 2104871
1.5752623 0.35293168 0.06430316 3750205
1.5773414 0.35447299 0.064383984 4078904
1.5800683 0.3545545 0.063523889 3289905
1.5833054 0.35561106 0.063429654 2829371
1.5855345 0.35730746 0.062716365 1251103
1.5881952 0.35652182 0.062479973 527137
1.5902621 0.35943186 0.060474336 2104093
1.5935297 0.3600969 0.06037575 2895922
1.5960231 0.36127827 0.059294939 2042169
1.5995562 0.36277533 0.057542562 2239546
1.6020113 0.36345997 0.057622373 1253918
1.6049588 0.36436847 0.057298124 593686
1.6076037 0.36513907 0.057451725 856344
1.6103296 0.36587828 0.056958675 1514005
1.6132214 0.36710161 0.056949437 1056530
1.5515673 0.34605208 0.067086756 3023166
1.5547115 0.34763631 0.068008423 2500146
1.5587447 0.34914464 0.068851173 2368299
1.5652562 0.35170978 0.063652039 3157053
1.566681 0.35134679 0.063516676 3288638
1.5708787 0.35373732 0.063292444 1315875
1.57337 0.35469949 0.063669443 2369065
1.5752026 0.3554455 0.064284682 6579049
1.5802542 0.35790947 0.062754095 3029306
1.5823238 0.35698506 0.061847568 2897193
1.5841652 0.35917887 0.060992897 1975579
1.5870926 0.35995036 0.059285522 658445
1.5897977 0.36082652 0.059093177 1316114
1.5931793 0.36234558 0.058082819 2502193
1.5953878 0.36329105 0.057330608 2108476
1.5980566 0.3637085 0.057565629 2174530
1.6006684 0.364555 0.057346642 2042683
1.6033559 0.3658911 0.056811273 988946
1.6067587 0.3668085 0.056607187 723209
1.5454011 0.34670621 0.067325592 2630450
1.548126 0.34780067 0.067436278 2564656
1.5506877 0.34825128 0.066644669 2564665
1.5534251 0.34816438 0.066755831 2629962
1.5566818 0.35046849 0.063089073 2961213
1.5578263 0.35105956 0.064168751 3091773
1.5603993 0.35174048 0.062314093 3157566
1.5638211 0.35350713 0.063450098 2960696
1.5669615 0.35399139 0.063848555 3157063
1.5698104 0.35520706 0.061863959 1119263
1.5717413 0.35510167 0.062237859 2039583
1.5777442 0.35883668 0.058696866 3618910
1.5804172 0.36019328 0.058036447 3028822
1.5828238 0.36081946 0.057624638 2107976
1.5860438 0.3614921 0.057507634 593443
1.5888668 0.36301997 0.056371629 922125
1.5913798 0.36369115 0.056328475 1843237
1.5935353 0.36432508 0.057361484 2897471
1.529618 0.34226242 0.067846835 2565927
1.5358605 0.34476686 0.066960335 2696495
1.5388845 0.34596363 0.067251086 2565676
1.5421418 0.34694657 0.067267001 2630955
1.5442038 0.34629717 0.06660521 2368299
1.5517818 0.35146865 0.063203514 3092037
1.5545594 0.35177571 0.063199997 3091783
1.5560238 0.35286641 0.062811673 3091773
1.5603582 0.35463932 0.061532617 3092540
1.5618644 0.35449633 0.060961485 3158076
1.5656227 0.35604882 0.059899688 2568012
1.5674503 0.35724121 0.059798598 1779763
1.5715436 0.35812604 0.05795753 1648427
1.5739151 0.35930288 0.057709336 2765356
1.5766385 0.36022931 0.057702482 4672345
1.5790505 0.36132804 0.057230353 3357783
1.582413 0.36239913 0.056415021 2568525
1.5848553 0.36343494 0.056212425 1450541
1.5875556 0.36449185 0.05551064 659739
1.5895253 0.3644819 0.054506063 527398
1.51975 0.34056389 0.067786872 2762801
1.5237905 0.34226283 0.067195654 2828594
1.527284 0.34261781 0.068072557 2763306
1.5294355 0.34537205 0.067042112 2827810
1.532922 0.34557083 0.065900266 2761770
1.5344355 0.34694624 0.066360712 2696488
1.5431862 0.35048473 0.063022852 3091766
1.5455781 0.35057592 0.063095212 3091511
1.5487792 0.35169977 0.062732458 3026481
1.5507284 0.35227457 0.061186552 3159097
1.5535438 0.3534798 0.061461747 2830908
1.5561378 0.35423267 0.060310543 2701110
1.5587442 0.35473871 0.060000658 2765887
1.5620911 0.35674074 0.060249567 2765622
1.5648025 0.3583473 0.060138226 2765911
1.567463 0.3588084 0.057225883 1713200
1.5699506 0.35962024 0.057351053 1053985
1.5731143 0.36101478 0.056425273 2436143
1.5751884 0.36215454 0.056593597 3817543
1.5845128 0.36559138 0.055507421 2307389
1.5119092 0.34180126 0.0686692 3026230
1.5132697 0.34110999 0.067776859 2828851
1.5168868 0.34176406 0.067996085 2959407
1.5199207 0.34286293 0.067591071 2893104
1.5221484 0.34405646 0.066894174 2827824
1.5252011 0.34509921 0.066187084 2763306
1.5271014 0.34572738 0.067267835 2959647
1.5388577 0.3505899 0.062194943 3158592
1.5412284 0.3506344 0.061716676 3157564
1.5442731 0.35265258 0.060216904 3225657
1.5471464 0.35311237 0.060242414 3027783
1.5495764 0.35455856 0.060518503 2831935
1.5524404 0.35599583 0.059770763 2503999
1.5551274 0.35607871 0.05975759 2437934
1.557542 0.35730597 0.058980584 2963774
1.5609952 0.35928819 0.05571574 2569024
1.5634118 0.35967445 0.05558157 2502729
1.5658816 0.36067876 0.056095779 2108474
1.5688602 0.36195761 0.054547429 989484
1.571089 0.36321688 0.054803252 1317923
1.4921229 0.33467621 0.070110977 3550527
1.4969717 0.33619243 0.069394827 3420985
1.4993677 0.33848611 0.069439471 3487033
1.5026551 0.33843225 0.068580329 2566194
1.5043452 0.33973566 0.068245769 1643819
1.5075303 0.34110627 0.067143023 2038571
1.5106311 0.34136114 0.067872167 2565679
1.5216632 0.34583521 0.062854886 3290431
1.5235678 0.34681761 0.06317842 3289918
1.5264349 0.3483445 0.062470913 3551550
1.5294466 0.34982613 0.062050283 3356223
1.5318681 0.35018703 0.061324596 3290688
1.5348725 0.35095525 0.061422467 3158589
1.5374669 0.35123599 0.060003877 2896712
1.5400372 0.35370481 0.059842944 3093335
1.542623 0.35416523 0.059601903 2896931
1.545223 0.35542655 0.059834719 3094334
1.5476733 0.35662946 0.058943152 2830679
1.5563486 0.35938105 0.054762363 2765635
1.559422 0.360374 0.054719269 2699843
1.5618029 0.36161494 0.054967999 2700357
1.5647792 0.36266738 0.054311931 2437968
1.5675151 0.36350745 0.054278374 1711931
1.4864572 0.33466285 0.069425583 2434093
1.4895482 0.33622667 0.070324242 3222836
1.4923137 0.33694512 0.069949567 3485241
1.4951074 0.33820364 0.068869174 3749435
1.4971421 0.33849135 0.069198966 3486778
1.5003362 0.33997816 0.067322016 3751238
1.5053543 0.34186369 0.068062782 1906991
1.5169349 0.34674978 0.062939048 3225404
1.5201361 0.34729514 0.063379526 3486283
1.5235804 0.34910637 0.06277597 2960433
1.5265456 0.35073358 0.061735868 3225405
1.5282333 0.35020626 0.061520696 3290943
1.5316237 0.35108742 0.060160339 3817534
1.5341189 0.35332954 0.059061944 3488315
1.5364122 0.35388598 0.058640599 3094334
1.5415319 0.35601822 0.05895704 2635591
1.5448129 0.35708159 0.054809153 2307912
1.5468042 0.35850883 0.055163205 2634051
1.5499467 0.35932696 0.054795623 2634318
1.5528795 0.3603231 0.054302037 2765386
1.5552251 0.36132407 0.053782225 2699339
1.558043 0.3621369 0.053740859 2896973
1.5605063 0.36237368 0.053545654 3421270
1.4748807 0.33253795 0.070307612 3620700
1.4801379 0.33519495 0.069490492 2368552
1.4833815 0.33589524 0.069714844 1446440
1.4858444 0.3370783 0.069354713 1973287
1.4881431 0.33663353 0.069071591 3289650
1.4915549 0.33907375 0.06633985 3948109
1.4942659 0.34011292 0.066785157 4079695
1.4974144 0.34111658 0.066108823 4409425
1.5001556 0.34183815 0.065569639 4080461
1.5020754 0.34325418 0.064570069 3685714
1.5046276 0.3442305 0.063082278 921896
1.5081232 0.34549323 0.062284052 2501954
1.510519 0.3467328 0.062109232 3094590
1.513229 0.3467676 0.062004387 3356729
1.5296625 0.35415608 0.056370616 2700869
1.5337795 0.35554317 0.055389702 3226951
1.5377985 0.35700589 0.054133296 2765370
1.5406423 0.35792083 0.054564476 2766403
1.5433867 0.35885713 0.054562688 2569294
1.5457129 0.36016366 0.053310156 2832447
1.5490105 0.36093473 0.053238332 2832448
1.5515139 0.36114937 0.053387284 2830919
1.4676586 0.33276147 0.069845498 789277
1.471117 0.33250895 0.06987381 2236201
1.4737735 0.33570981 0.069566607 2237720
1.4768909 0.33523792 0.069215894 3224861
1.4785972 0.33729208 0.068850458 1512458
1.4853343 0.33926356 0.064959645 1842440
1.4883192 0.33881727 0.06521672 4276545
1.4898179 0.34109524 0.06524086 3948098
1.5045509 0.34647235 0.062691152 131649
1.5069014 0.34732199 0.062250674 2172193
1.5259829 0.35454178 0.055612862 3094862
1.5282795 0.35561118 0.055370986 2766917
1.5312976 0.35640889 0.054745078 2897990
1.5337886 0.35753331 0.054409146 2831688
1.5368248 0.35832018 0.053876638 2766404
1.5392467 0.35950086 0.053795934 2700614
1.5420424 0.36048621 0.053346574 2700617
1.4703761 0.33535373 0.068632483 1512212
1.4807791 0.33963782 0.064252913 2959176
1.4836051 0.34053937 0.064837217 1314853
1.4869347 0.34116367 0.06459409 3487788
1.4895906 0.34293815 0.064299107 4210500
1.496694 0.34537157 0.060270965 3889784
1.5077903 0.3496004 0.056706846 2964549
1.5105951 0.35152081 0.057008445 2570823
1.5131304 0.3522706 0.056257665 2766660
1.5163453 0.35320532 0.055879354 3160395
1.5187562 0.35454115 0.055131495 3226442
1.5217768 0.35525966 0.054563463 3095376
1.5243911 0.35611001 0.05458504 2831943
1.5271063 0.35690814 0.053470671 2635588
1.5297383 0.35837764 0.053292513 2569030
1.5325543 0.35859197 0.052639186 2371395
1.5344075 0.36017233 0.052245498 1911361
1.4541228 0.33351916 0.069434702 1249287
1.4637314 0.33697042 0.066534042 657930
1.4660251 0.33656171 0.066285312 657682
1.4681602 0.33783442 0.06665504 722694
1.4738251 0.33910871 0.064088881 3422530
1.4768403 0.33949134 0.063891411 3618138
1.4791343 0.34115249 0.063588202 3287873
1.4815602 0.34213313 0.064379036 1445657
1.4916823 0.34558964 0.059368551 4216183
1.4914525 0.34788749 0.059986591 4742262
1.4955381 0.34774768 0.058633506 4349305
1.498385 0.34883207 0.057685971 4414340
1.5006794 0.34861767 0.056891501 2046835
1.5039012 0.35087913 0.056182504 1122859
1.5068935 0.35179308 0.056346595 2963002
1.5098051 0.35261455 0.055747807 3029570
1.512068 0.35400137 0.054902554 2897224
1.5149437 0.35489219 0.054041386 3226692
1.5175114 0.35605523 0.053621411 2501435
1.5206006 0.3568837 0.053126633 2699855
1.5230186 0.35808131 0.052902222 2436932
1.5265639 0.35906053 0.052601278 2174016
1.4291134 0.32481062 0.071970522 789525
1.4340502 0.32636261 0.073193192 790812
1.4490716 0.33160803 0.068303883 854308
1.4514637 0.33280182 0.068043172 788499
1.4542437 0.33325952 0.066452682 723722
1.4571252 0.33466741 0.067373991 855071
1.4601481 0.336126 0.064991951 921604
1.4624135 0.33621204 0.065385282 2828847
1.464596 0.33871242 0.063873291 855323
1.4675915 0.33853495 0.063851178 1052938
1.4708272 0.33995125 0.063750148 1447698
1.4896263 0.34712902 0.058071434 3755366
1.4919589 0.34863096 0.056784332 4150890
1.4947922 0.34935588 0.056623757 4281714
1.4973329 0.35057205 0.056252718 4149877
1.5003692 0.3514705 0.055383384 2636636
1.5028379 0.35213828 0.054751158 991015
1.5054773 0.35366443 0.053545058 1845063
1.5082973 0.35485077 0.053410947 2502730
1.5112745 0.35568294 0.052954435 2568265
1.5141022 0.35607815 0.052543044 2896463
1.5165091 0.35737395 0.052559316 2895695
1.4095875 0.31933838 0.074123025 1051676
1.4114051 0.32014853 0.0742746 1316385
1.4139428 0.32158789 0.07431215 1973800
1.4164181 0.32261136 0.073757172 1907755
1.4195322 0.32293886 0.072679639 1052185
1.4224992 0.32531846 0.072465062 855063
1.4255096 0.3253417 0.071787 855065
1.4277297 0.32511321 0.071738839 986909
1.430883 0.32802248 0.069241583 1314072
1.4324795 0.32780111 0.069129467 919058
1.4425597 0.3331002 0.067421615 66820
1.4446247 0.33199763 0.066845953 723998
1.4471977 0.33237767 0.066832483 723475
1.4536041 0.3358894 0.063972831 768
1.4559896 0.33685467 0.064725339 331525
1.4581395 0.33785346 0.063275099 2040357
1.4607633 0.33884338 0.063000321 395540
1.4634321 0.33844247 0.063206375 724757
1.4829826 0.34785694 0.056429327 1383212
1.4855014 0.34789032 0.056173801 3358037
1.487956 0.3488811 0.055955231 3294042
1.4906658 0.35008454 0.055554092 3293789
1.4934366 0.35125518 0.055254936 3490405
1.4963975 0.35209855 0.054465711 2964059
1.4989686 0.35345477 0.054230392 3225943
1.5018742 0.35427514 0.053411841 1845309
1.5047464 0.35511175 0.053357244 1253175
1.5068232 0.35558596 0.052343667 2636891
1.403397 0.31863174 0.073356986 527126
1.4053953 0.32007942 0.073886931 592141
1.4078519 0.32077467 0.073999345 1119002
1.4100804 0.32081532 0.074834287 1843752
1.4180371 0.32519728 0.070714772 2500663
1.4213085 0.32609725 0.070661902 1644059
1.4244937 0.32707065 0.069828868 656901
1.4272531 0.32832295 0.069258988 1579297
1.429722 0.32916704 0.068405747 1119260
1.4324934 0.33007798 0.068933368 791324
1.4349105 0.32994205 0.067182124 527109
1.4375241 0.33253238 0.065991879 1450021
1.4404857 0.33260664 0.065679789 395800
1.4427992 0.33452663 0.064415932 526886
1.4458028 0.33497024 0.064060807 1247522
1.4484023 0.33643243 0.063356757 1052200
1.451628 0.33730206 0.06307441 593694
1.4541085 0.3379752 0.06346786 199168
1.472802 0.34611419 0.056150913 3226454
1.4757473 0.346636 0.055317819 4278883
1.4786098 0.34825909 0.055625021 2369588
1.4816254 0.34873265 0.055425048 1448248
1.4842204 0.35018885 0.054742634 2305086
1.4871012 0.35083398 0.054637849 3029834
1.4895632 0.35173148 0.054379582 2897737
1.492529 0.35338581 0.053711057 2438722
1.4953873 0.35412121 0.053623319 2307671
1.3937205 0.31749895 0.073388815 2038819
1.3953409 0.31943312 0.07417798 3091507
1.3983067 0.31961635 0.073968291 3159107
1.4014941 0.31972027 0.073571563 2041140
1.4043746 0.32154325 0.073586524 330517
1.4061211 0.32217482 0.073841214 592914
1.4116303 0.32526612 0.070123911 2828060
1.4145243 0.32512555 0.07019335 2498601
1.4168128 0.32475269 0.069979012 1512489
1.4282367 0.33123091 0.066308796 2236710
1.4310956 0.33193213 0.065973282 2435119
1.4339111 0.33294904 0.064719856 1842737
1.4364376 0.33374226 0.064165831 1448486
1.4387618 0.33507437 0.064065456 660251
1.4419632 0.33554408 0.064391255 525348
1.4456384 0.33722901 0.063638985 1510444
1.4481891 0.33873555 0.062953889 3288898
1.4496243 0.33830085 0.062749743 2038575
1.4672989 0.34574583 0.054697573 3028570
1.4690243 0.34663504 0.055624962 1974350
1.4719951 0.34767443 0.055185437 2435898
1.4749193 0.34853336 0.055023193 2631997
1.4773922 0.34932873 0.054475963 2566977
1.4805405 0.35021925 0.053728938 1383479
1.4829313 0.35183704 0.053333402 1252648
1.4854919 0.35250664 0.053362548 1647147
1.4880151 0.35307533 0.052890062 2895949
1.3892955 0.31807527 0.073435366 1117980
1.3914257 0.31898651 0.073854923 2038560
1.3941203 0.32093233 0.072332501 3682879
1.3972821 0.32158706 0.071029246 3224893
1.4025669 0.32296628 0.069212794 2305075
1.4052367 0.32539052 0.069525301 329490
1.4082413 0.32502696 0.069374025 1051933
1.4104396 0.32488474 0.069326997 1708830
1.4254344 0.33206239 0.063335598 1052439
1.4266557 0.33041158 0.064806461 1118232
1.4534098 0.34254584 0.055825174 1186353
1.4559146 0.34335393 0.055645049 4148054
1.4627633 0.34682703 0.054975629 527913
1.4655398 0.34745023 0.054590821 987672
1.4683658 0.34816962 0.054303527 1185833
1.4708629 0.34909016 0.053936064 1974571
1.4738742 0.35121617 0.052651644 1315913
1.4759595 0.35140878 0.052161515 791320
1.4795774 0.35215679 0.052176356 1581109
1.3739121 0.31460518 0.074186206 2302756
1.3762219 0.31528798 0.073913991 2697773
1.3791605 0.31739801 0.073649764 3289656
1.3822145 0.31767184 0.073491812 3553088
1.3852404 0.31761935 0.073198199 1645094
1.3878018 0.32035962 0.071589112 460309
1.3905945 0.3207103 0.071639001 1973275
1.3927629 0.32000682 0.07077086 2104625
1.3994844 0.32454947 0.069425344 4015433
1.4017826 0.32535386 0.069072843 3949368
1.4040056 0.32499376 0.068835437 1512232
1.4096463 0.32760534 0.065057397 2236181
1.4121214 0.32908285 0.064245999 4407881
1.415177 0.33005247 0.064972818 3159122
1.4172111 0.33194122 0.063908279 4607587
1.4200157 0.33165184 0.063029349 1713978
1.4233031 0.33427367 0.062306643 264450
1.4255714 0.33494127 0.062722683 1578258
1.4506502 0.34436557 0.055384219 988959
1.4531302 0.34444496 0.055362105 528148
1.4558945 0.34607643 0.054458916 1580326
1.4588493 0.34679386 0.054232836 1251110
1.4614742 0.34816194 0.053713024 856093
1.4642676 0.34858879 0.053310573 527377
1.4658095 0.34941375 0.052823842 659490
1.4729865 0.35185948 0.051774383 593424
1.3701587 0.31526121 0.073231936 789271
1.3729588 0.31632242 0.074212611 1644830
1.3785508 0.3187266 0.070910513 3947575
1.3815024 0.31968692 0.070880234 4408648
1.3839436 0.32071698 0.070894837 3751247
1.3860052 0.32127881 0.070106268 1185069
1.4082661 0.3297866 0.064200878 2302499
1.4111553 0.33151415 0.063887835 5264458
1.4132118 0.33086306 0.063638866 4803172
1.4193074 0.33509022 0.062384367 4344165
1.421313 0.33457118 0.06213522 198694
1.443958 0.34410083 0.054663122 856868
1.4466068 0.34444386 0.054790497 857125
1.4489565 0.34551674 0.054214776 856615
1.4522045 0.34693944 0.053135872 857129
1.454775 0.34746265 0.053099215 593695
1.4574554 0.34843904 0.052669466 527378
1.459637 0.3502284 0.052040994 658197
1.3561047 0.31247717 0.074045658 2104607
1.3585652 0.31281349 0.073406756 2697004
1.3608459 0.31411621 0.073233724 3157817
1.3640238 0.3155103 0.072977901 3421514
1.3669107 0.31597224 0.072586238 2237493
1.3695177 0.31712317 0.073226273 658198
1.3716829 0.31878245 0.070143163 1051409
1.3739706 0.31901607 0.070807219 2368546
1.3764799 0.3189553 0.07089591 3487278
1.3788217 0.32125351 0.071024537 4012603
1.3978696 0.32869506 0.063398838 4938351
1.4016271 0.32916912 0.063318253 3159381
1.4047333 0.33013168 0.062920988 395022
1.4059488 0.33209321 0.063306212 68608
1.4091201 0.33270243 0.063287735 4608296
1.4289294 0.34027365 0.055858135 1847361
1.4316479 0.34150755 0.055657446 1912649
1.4345798 0.34231779 0.055066824 924201
1.4372255 0.34368852 0.054197848 725269
1.4400294 0.34432256 0.05392617 658454
1.4425426 0.34506497 0.053469777 1119010
1.4455007 0.34617624 0.053024888 1053734
1.4484284 0.34725446 0.052675664 1317675
1.4509929 0.34838113 0.052687287 1185834
1.4533241 0.34951404 0.052529573 1383466
1.3489593 0.31197262 0.073289454 1776943
1.3516409 0.31271607 0.073276043 592152
1.3541952 0.3140167 0.073460817 1315356
1.356969 0.31487778 0.07370168 2762539
1.3619699 0.31699315 0.071219087 3618624
1.3651593 0.31851566 0.068940461 3554893
1.3684709 0.31880102 0.069863021 858145
1.3698237 0.31969815 0.070048153 788495
1.3897845 0.32749009 0.063088953 2368798
1.3919802 0.32871047 0.063546658 5461575
1.395203 0.32933888 0.063031316 5199715
1.3989096 0.33060732 0.062791467 4608359
1.4006568 0.33192009 0.062552691 3883872
1.4037427 0.33291271 0.062120974 659997
1.4227037 0.34032151 0.055049539 856601
1.4249084 0.34068707 0.055553615 1780018
1.4275694 0.34207815 0.054436922 1911098
1.4307307 0.34299052 0.054066122 2108217
1.4335024 0.34378326 0.053807318 2239809
1.4359889 0.34499925 0.053038955 1712697
1.4388665 0.34601554 0.05233115 856096
1.4418486 0.34653687 0.052330256 724495
1.4434767 0.34778529 0.052286208 922404
1.3361979 0.30893859 0.073466599 1381145
1.3398328 0.31033176 0.07386148 2960946
1.3421798 0.31097832 0.073681235 3421505
1.3451838 0.31206363 0.073634744 3159107
1.3480332 0.3138898 0.073619843 2040627
1.355963 0.31680951 0.068915963 2499354
1.3594118 0.31782815 0.069092751 3618367
1.3613752 0.31907293 0.069393337 4144458
1.3638307 0.3201831 0.068381429 3883599
1.3669355 0.32048196 0.067514181 2370370
1.3698528 0.32148531 0.066755295 459282
1.3720829 0.32249057 0.066110134 3421250
1.3748536 0.32453531 0.06493181 4740454
1.3773942 0.32441083 0.065004468 4871530
1.3802297 0.32560882 0.063121259 4083570
1.3839436 0.32737058 0.061325192 397106
1.388099 0.32982197 0.062339723 921614
1.3939291 0.3315008 0.062714815 5855818
1.4075736 0.33697975 0.056726694 4346722
1.4103072 0.33776954 0.056653738 5005436
1.4130462 0.33890101 0.055433273 3885931
1.4152976 0.34007502 0.054744065 3623791
1.4184121 0.34067518 0.053986847 1121593
1.4209614 0.3417514 0.053866923 396570
1.4241481 0.34258839 0.05347538 1185825
1.4266498 0.34369433 0.05320406 1975338
1.4294059 0.34409893 0.053074539 2238518
1.432547 0.34579441 0.053027749 2437708
1.3328748 0.31008783 0.072715461 723743
1.3353692 0.31051373 0.073005795 920597
1.33831 0.31224635 0.07312417 3092785
1.3407509 0.31265202 0.073609412 4869716
1.3524936 0.31865948 0.067774236 395796
1.3545998 0.31850854 0.068924546 1710611
1.3576639 0.31992167 0.068389416 3747659
1.3594661 0.32049683 0.066719413 5000283
1.3624817 0.32093269 0.066560924 4016223
1.3656156 0.32288986 0.065819144 1780263
1.3679383 0.32374191 0.065856576 591389
1.3709891 0.32513735 0.06516844 2106670
1.3792346 0.32870951 0.061913908 4017519
1.3818016 0.32912403 0.060869932 3950951
1.3844771 0.32980895 0.061401308 1186105
1.3870856 0.32864925 0.060457528 724252
1.3956425 0.33514231 0.056911469 4744082
1.3962564 0.33655214 0.057783544 5268887
1.4019325 0.33602461 0.056369901 199961
1.4037921 0.33730224 0.056087673 462600
1.406303 0.33791277 0.05555737 3556399
1.4091642 0.33920887 0.054391623 3161421
1.4118217 0.34005731 0.054413617 3754853
1.4144969 0.34081846 0.05377984 3163237
1.417398 0.34217113 0.053362131 2899294
1.4196148 0.34347028 0.052346885 1581396
1.422858 0.34483656 0.051130056 395808
1.4244772 0.34550354 0.052201211 594202
1.3206335 0.30744222 0.072709739 3552051
1.3242589 0.30913401 0.072645605 5525595
1.3264039 0.30977884 0.07238847 4078930
1.3286999 0.31040612 0.07226932 3356234
1.3307726 0.31193259 0.072631121 1842743
1.3339392 0.31238848 0.072578371 591891
1.3422419 0.31605718 0.068092644 4474461
1.3448229 0.31678051 0.067648828 4277326
1.3472263 0.31830695 0.067502677 3423306
1.3505329 0.31848317 0.067229927 856362
1.3531088 0.32086363 0.067452967 1315608
1.3569932 0.32166636 0.0635584 4674888
1.3620707 0.32414302 0.064780772 3884886
1.3636971 0.32574978 0.064071357 2309725
1.3771629 0.32924116 0.062139928 5663635
1.3801736 0.3305451 0.061226249 3755623
1.3914473 0.33531359 0.056075871 5334674
1.3943443 0.33606967 0.055514693 4940684
1.3970513 0.33682874 0.055189669 4479102
1.3992963 0.33824304 0.05410713 2438228
1.4019327 0.3392072 0.053601742 331037
1.4052325 0.33997691 0.053171337 1317160
1.4078737 0.34111142 0.052701294 2370874
1.409905 0.34157377 0.0523417 2568004
1.4160478 0.34412962 0.052670956 4939387
1.3171235 0.30833066 0.072130442 657945
1.3191177 0.30958688 0.072132885 1973282
1.3221556 0.31050852 0.072146237 6117474
1.3250064 0.31108549 0.071808457 5327957
1.3271466 0.31228274 0.070549369 3686741
1.3302742 0.31428763 0.069417477 2501175
1.3323535 0.31450239 0.068170249 396564
1.3367475 0.31595811 0.067522347 5264472
1.3383574 0.31692764 0.066797793 5000278
1.3410661 0.31761178 0.066656291 4803425
1.3439075 0.31919351 0.067462862 3948124
1.3483866 0.3210952 0.063889802 661536
1.3556995 0.32200378 0.063739836 4609095
1.3566389 0.32383955 0.063052118 6052935
1.3595644 0.32615879 0.062397778 5658731
1.3849615 0.33511168 0.054914713 197892
1.3874068 0.33558193 0.055196941 3621450
1.3902531 0.3364681 0.054386377 3688289
1.3929542 0.33759445 0.05410409 4149094
1.3958712 0.33841643 0.053778768 4610171
1.398561 0.33976221 0.052785754 3885427
1.4013079 0.34088224 0.051882386 2370383
1.4040002 0.34164661 0.05159235 329492
1.4065453 0.34239957 0.05149895 1185820
1.4094849 0.34405911 0.048470378 1973826
1.411694 0.34501874 0.049228966 4017491
1.4143412 0.3460663 0.049811244 5993362
1.3029977 0.30522865 0.072684228 5197140
1.3072729 0.30774975 0.072383463 4539480
1.3099035 0.30794975 0.072251678 3092804
1.3129288 0.30946219 0.072261274 1644331
1.3156158 0.30996144 0.072043359 657688
1.3172121 0.31044406 0.0693537 526344
1.3234386 0.31298134 0.069550037 7234946
1.3278751 0.31498462 0.070124745 4144727
1.3347951 0.3176432 0.066695929 1841949
1.3367729 0.31827623 0.06633985 3946809
1.3398069 0.31897014 0.064879596 5986653
1.3425685 0.32079679 0.063697636 5460328
1.3458247 0.32146144 0.063793957 3358033
1.3484943 0.32290244 0.062986732 1118756
1.3507504 0.32393032 0.0624066 855048
1.3534708 0.32482767 0.061445534 3222607
1.3568916 0.32658532 0.061674774 7630949
1.3708277 0.33165324 0.055476248 5464203
1.3724992 0.33239546 0.0562585 5728145
1.3756053 0.33269867 0.056004882 5465747
1.3780419 0.33430716 0.055483818 5071504
1.3809537 0.33501589 0.054780841 2175058
1.3836386 0.33621892 0.053615153 331025
1.3862799 0.33726215 0.052825153 592422
1.3889356 0.33844033 0.052948892 2436157
1.39144 0.33907253 0.053393185 3688802
1.3999182 0.34302202 0.051568925 4608655
1.4020921 0.34354857 0.04821676 1581642
1.4056462 0.34442529 0.047874093 331298
1.4082475 0.34578893 0.047980905 986914
1.2954189 0.30507585 0.072343946 1184294
1.2977639 0.30678248 0.072824657 657427
1.3005729 0.30641964 0.0724352 1249817
1.3035388 0.30742976 0.072500408 4407630
1.3055503 0.30885738 0.07305336 3617611
1.3088167 0.31131685 0.069661796 2500917
1.3110468 0.31083304 0.069191217 2764096
1.3137025 0.31235424 0.06814307 592145
1.3161926 0.31304282 0.067722082 723969
1.3196398 0.31407338 0.067837656 3091763
1.3338006 0.3181957 0.064672172 856087
1.3370219 0.32196569 0.063757539 8220781
1.3393389 0.32176793 0.063631177 8548969
1.3657176 0.33166313 0.054413259 132866
1.3689779 0.33295146 0.055637181 4016485
1.3713257 0.3338246 0.054565966 4610939
1.3743742 0.33539984 0.053802609 4742268
1.3771204 0.33634317 0.052677035 4544374
1.3797275 0.33705264 0.052377999 4478327
1.3825051 0.33804357 0.052130699 1911109
1.3851284 0.33891734 0.051562846 396062
1.3870895 0.34124112 0.050848305 854805
1.3966718 0.34321243 0.047250867 5597068
1.3988041 0.34360072 0.047575116 2373454
1.4013814 0.34567955 0.04726547 2305616
1.4043168 0.34703907 0.046864092 790863
1.4066228 0.34745383 0.046919823 593946
1.2853748 0.30352506 0.072903037 3617081
1.2881335 0.30464512 0.072931588 3157052
1.2911279 0.30537599 0.072941482 1907505
1.2934315 0.30534962 0.072658181 1908015
1.296345 0.30797789 0.070418894 591623
1.2995487 0.30812702 0.071031511 1380618
1.3023598 0.30939823 0.069637716 5524298
1.3048178 0.31109008 0.068829954 5394765
1.3073572 0.31080723 0.068765104 4080464
1.3114945 0.31272012 0.068449259 3025477
1.3134941 0.31462151 0.067923784 1050658
1.3150599 0.31486002 0.06619966 1184526
1.3177305 0.3142733 0.065429747 4999498
1.3284551 0.31966585 0.061830044 1780817
1.3505912 0.32817838 0.05565387 3751744
1.3537024 0.32979742 0.056606948 5992853
1.3568069 0.32999244 0.056017876 5137821
1.3590176 0.33161074 0.054981291 4479878
1.361617 0.33275658 0.053589821 2966125
1.3645078 0.33395821 0.053434074 67097
1.3674349 0.33419788 0.053348601 1251865
1.3699975 0.33575591 0.051917136 2633783
1.3729455 0.33682793 0.052148998 4083307
1.3759159 0.33827958 0.051359594 4478577
1.3785018 0.33923396 0.051752508 3754608
1.3822632 0.34027055 0.051084757 2372695
1.3848041 0.34116778 0.050526083 723473
1.3889997 0.34348628 0.04758656 921111
1.3919185 0.3443822 0.047040462 1844797
1.3947234 0.34528351 0.046250343 6386033
1.3975644 0.34631708 0.046011925 7304090
1.39959 0.3469798 0.046221197 2242125
1.276154 0.30240312 0.073270202 986140
1.2791429 0.3028031 0.072825193 657684
1.2820196 0.30423367 0.072922468 789264
1.2837036 0.30480328 0.073159933 723216
1.2925712 0.30798545 0.069964647 1907490
1.294717 0.30780801 0.06991756 2171144
1.3120126 0.31536883 0.065351725 1183520
1.3138102 0.31807083 0.064366698 921102
1.322901 0.32077506 0.061878562 4934517
1.3257425 0.32203326 0.060987473 3489102
1.3283606 0.32197678 0.061582208 1777968
1.3314049 0.32196856 0.060663402 330013
1.3415608 0.32724404 0.056883276 4217985
1.3444134 0.328008 0.05619514 1321281
1.3475238 0.32889706 0.056360006 396309
1.3502312 0.33007973 0.055773675 3030597
1.3527125 0.33156425 0.054152787 4414324
1.3552709 0.33266795 0.053322077 5135996
1.3581228 0.33344635 0.05272615 4807548
1.3611523 0.33423722 0.052676499 3426675
1.363513 0.33558163 0.051580787 2437204
1.3663417 0.33676836 0.051628947 330522
1.3688347 0.33715168 0.051541865 857364
1.37168 0.33895916 0.049532294 2502972
1.3739252 0.33956233 0.049459994 3558222
1.3863664 0.34436724 0.046688795 265224
1.3891644 0.34525856 0.047628641 854808
1.391681 0.34576729 0.046599865 2433840
1.3931351 0.34700572 0.046394944 2305591
1.2663877 0.30078104 0.07274574 855316
1.2693074 0.30168009 0.072823107 1447198
1.2728527 0.30256423 0.073106349 789015
1.2740468 0.30352694 0.073490143 657673
1.2837284 0.30783707 0.068684995 1317654
