# .PCD v0.7 - Point Cloud Data file format
VERSION 0.7
FIELDS x y z rgba
SIZE 4 4 4 4
TYPE F F F U
COUNT 1 1 1 1
WIDTH 1179
HEIGHT 1
VIEWPOINT 0 0 0 1 0 0 0
POINTS 1179
DATA ascii
1.5183842 0.39434814 0.032368183 2764104
1.5203179 0.39672536 0.03207469 3290965
1.5219483 0.39917397 0.031757891 3224912
1.523886 0.40202034 0.031970859 3290196
1.5251958 0.40448928 0.030857384 3027788
1.5268772 0.40707463 0.030439258 2765383
1.5284886 0.40896857 0.030079722 2305599
1.5301176 0.41172922 0.029780507 4213856
1.5316005 0.41441119 0.03012681 2241091
1.5326755 0.41616714 0.030628443 2239807
1.5379462 0.42429322 0.026351511 2106943
1.5396895 0.4263519 0.026806653 1843514
1.5415974 0.4277637 0.026549935 1843776
1.4988916 0.36790401 0.035592377 5387818
1.5008085 0.37059283 0.035727739 6441771
1.5020248 0.37306058 0.036531627 6375470
1.5036836 0.37564516 0.036102891 4271371
1.5046302 0.37833798 0.034900367 6640436
1.5068614 0.38039988 0.033896685 7431778
1.5083055 0.38290089 0.034028888 9997200
1.5097933 0.38557303 0.033557892 5657172
1.5118461 0.3883546 0.032225013 2830920
1.5132148 0.39101911 0.032421649 2369605
1.5153809 0.39280647 0.032326102 1777467
1.5168035 0.39563537 0.031749606 1448760
1.518621 0.39823651 0.030925274 1514801
1.5197246 0.40067291 0.030003071 2107442
1.5214272 0.40295136 0.029885769 2765376
1.523199 0.40551233 0.029629648 2699847
1.524668 0.4079408 0.030228972 2765383
1.5260648 0.41081023 0.030126989 3291466
1.5276089 0.4120782 0.029990196 3028809
1.5322593 0.42079902 0.02547133 1844538
1.5343635 0.4230122 0.025541902 2238785
1.5357679 0.4252764 0.025985479 2172994
1.538003 0.42712533 0.026521206 1253944
1.4916775 0.3625409 0.035533547 1052178
1.4930758 0.36461598 0.035187125 919826
1.4951046 0.367019 0.035206914 1379600
1.4969494 0.36899477 0.035366058 2825237
1.4982543 0.37176371 0.034709692 4341058
1.4994611 0.3741554 0.033033013 2173265
1.5016885 0.37661695 0.032466471 3354414
1.503431 0.37960005 0.032780051 4933430
1.5049821 0.38182122 0.032392561 5197118
1.5064809 0.38400978 0.032335997 6973281
1.5079203 0.38676298 0.031597257 5790560
1.5096207 0.38886833 0.031092346 2436667
1.5110873 0.3916707 0.030524492 1251366
1.512876 0.39432406 0.030506909 924206
1.5149691 0.3962844 0.03029716 1253430
1.5163891 0.39905882 0.030142248 1253177
1.518152 0.40198213 0.029907644 1186088
1.5196725 0.40481818 0.029568136 2371129
1.5210443 0.40704876 0.029466152 2502723
1.5242474 0.41249239 0.02469033 2304321
1.5256894 0.41457808 0.024697244 2172994
1.5272899 0.41688365 0.025118947 2107203
1.5291545 0.41900414 0.02500391 1844543
1.5303466 0.42151332 0.025268614 2173253
1.5319123 0.42360073 0.025507092 2370631
1.5335408 0.4264828 0.025761366 1975873
1.4807113 0.34971303 0.035497308 1970455
1.4835532 0.352795 0.035558462 4732450
1.4848068 0.3557027 0.034928322 5453602
1.4863321 0.35835731 0.03472507 5784615
1.4880836 0.36026156 0.035058856 5654587
1.4890943 0.36276168 0.035033703 1314570
1.4915907 0.36533636 0.034731507 722701
1.4931644 0.3682102 0.033493936 1447981
1.4947525 0.37024164 0.033516824 2371408
1.4960485 0.37273246 0.033450305 3490664
1.4974337 0.37551254 0.032239676 3424870
1.4989889 0.3779766 0.032128572 1976919
1.501143 0.38011819 0.031828046 2104625
1.5019627 0.38297021 0.031457782 2565931
1.5039885 0.38536543 0.03065753 3553337
1.5055233 0.38761139 0.029861093 2830649
1.5072111 0.39022666 0.029916286 1580070
1.5089784 0.39244944 0.030104756 922657
1.5103049 0.3945446 0.030601978 1188924
1.5189608 0.40853405 0.024613023 1646902
1.5200603 0.4105497 0.024671435 2173245
1.5212556 0.41316628 0.024787545 2304576
1.5230408 0.41542584 0.024698019 2239044
1.5249844 0.41760474 0.024576545 2305094
1.5266402 0.41929334 0.024646819 2304838
1.5276735 0.42150068 0.024696946 2370637
1.4760249 0.34682852 0.035695672 2893353
1.4776115 0.34943664 0.035930812 2695464
1.4794605 0.35164165 0.035671651 2562847
1.4810694 0.35420138 0.034873366 3086619
1.4831326 0.3570329 0.034189463 5848363
1.4840796 0.35886776 0.034471691 6113330
1.4851894 0.36145943 0.034346581 3351576
1.4865657 0.36375749 0.034727335 852744
1.4889841 0.36683184 0.032400608 1381160
1.490391 0.36899418 0.032258093 1447981
1.4919268 0.37165391 0.032231927 2700623
1.493912 0.37398863 0.031109214 3754343
1.4952327 0.37678969 0.030934751 8554913
1.4968486 0.37895966 0.030551612 7437726
1.4988332 0.38140655 0.029775262 5068161
1.5004013 0.3846159 0.028537333 1909832
1.5020547 0.38667029 0.028553247 1120289
1.5032949 0.38876587 0.028883696 1777966
1.5047193 0.39051759 0.029799581 2698802
1.5095772 0.39929163 0.025518775 462887
1.511914 0.40162069 0.025554419 1518152
1.5130278 0.40434957 0.025458336 4280176
1.515131 0.40668511 0.024975717 2963546
1.516458 0.40899444 0.024741232 1451330
1.5181687 0.41113317 0.02438271 1910848
1.5193045 0.41382152 0.02409333 2174022
1.5206692 0.41619438 0.023976088 2371142
1.522332 0.41765797 0.024410725 2502220
1.4707522 0.3431493 0.03482765 1379350
1.4723444 0.34524566 0.035060644 2235165
1.4739678 0.34792382 0.035446286 3090725
1.4756349 0.35046941 0.034551978 3157297
1.4773872 0.35257387 0.033581316 2896717
1.4786106 0.35499358 0.033276677 4015971
1.4804544 0.35767704 0.032792151 5984367
1.4818058 0.36024392 0.031951189 6182515
1.4835384 0.36296684 0.031007171 2040399
1.4852362 0.36535692 0.03110075 1052701
1.4870245 0.36755991 0.031442344 1118488
1.4885746 0.37001264 0.030052125 1316378
1.4899507 0.37253714 0.030568123 3423032
1.4925401 0.37546712 0.030123174 4542297
1.4936699 0.37775397 0.029198587 7896451
1.4947194 0.38048911 0.028965592 8619154
1.4962811 0.38292807 0.02880913 6185074
1.498276 0.38505644 0.028259754 4278378
1.4995527 0.38761216 0.028198302 1384239
1.5011237 0.38972777 0.02868247 921634
1.5046444 0.39541757 0.024365902 329233
1.505964 0.39754826 0.02474618 592916
1.507259 0.4000811 0.025300205 792622
1.5090642 0.40278852 0.025455832 2046300
1.4654981 0.33992976 0.033283234 1971738
1.4668477 0.34210438 0.034057677 2365713
1.4682274 0.34380412 0.034600019 2825496
1.4702276 0.34642339 0.033687353 3351830
1.4721174 0.34868091 0.033120871 3157552
1.473435 0.35165042 0.032363355 2961465
1.4747114 0.35357624 0.032635808 2501696
1.4759345 0.35613459 0.031682372 4673649
1.4776456 0.35842556 0.031575024 9210030
1.4792743 0.36118561 0.030734718 8355483
1.4813151 0.36367679 0.030525804 2633043
1.4825169 0.36614454 0.030334592 592924
1.4846921 0.36871153 0.029485822 527126
1.4860611 0.37120336 0.028549194 592916
1.4863679 0.37390381 0.028770208 1316376
1.4946482 0.38417178 0.028226972 4015930
1.4968872 0.38853955 0.024019957 6315885
1.4987024 0.39098781 0.023410916 2830414
1.5001812 0.3938275 0.023693025 1053478
1.5019084 0.39605254 0.024051428 723990
1.5039065 0.3988536 0.023945451 2106149
1.4550781 0.32769322 0.034530759 3091249
1.4561465 0.329889 0.034481466 3091250
1.4580359 0.33261985 0.034052134 2762798
1.4594946 0.33509779 0.03366977 2302759
1.4614527 0.33753842 0.033134699 1710361
1.4626744 0.34030944 0.033295035 2169884
1.4643377 0.34244573 0.033159852 3155744
1.4659653 0.34505904 0.032672405 3746334
1.4678292 0.34690875 0.033486068 4731944
1.469975 0.34987861 0.03125596 2697269
1.4710119 0.35247916 0.031763375 2500399
1.4725956 0.35479158 0.030619502 2698800
1.4741099 0.35773671 0.03042537 6448237
1.4759407 0.36019778 0.030201733 9540009
1.4772623 0.36263108 0.030044675 3752004
1.4793731 0.36488289 0.029448688 659482
1.4814417 0.36773717 0.029491901 725539
1.4828204 0.36985868 0.027989388 988966
1.483708 0.3723942 0.028093994 660004
1.4847472 0.37407804 0.02841568 658712
1.4895582 0.38064682 0.024221063 4606806
1.4900298 0.38306421 0.023948729 4474459
1.4922309 0.38469827 0.023538172 6317172
1.494005 0.38727641 0.023251057 8158349
1.4946826 0.38960189 0.023397028 4803158
1.4966805 0.39201951 0.023412228 1843248
1.4983575 0.39490914 0.022987723 855837
1.5000539 0.3975035 0.023144901 263952
1.5011077 0.39933342 0.023439765 1185051
1.4476449 0.32144284 0.033991456 1905949
1.4492731 0.32389963 0.034537315 2827816
1.4512885 0.3263787 0.034562826 3156781
1.4525691 0.32887411 0.034657717 3288111
1.4544585 0.33153152 0.034756422 3222577
1.4560673 0.3336612 0.033918023 3354941
1.4574099 0.33633453 0.032851636 3421770
1.4593968 0.3387292 0.032215774 3094099
1.4606957 0.34107387 0.031709433 3029338
1.4621515 0.34337378 0.031113148 2700374
1.4639165 0.34631848 0.03040874 1448758
1.4656957 0.34836257 0.03000468 1711661
1.4670508 0.35134685 0.029963017 2566456
1.4688864 0.35389996 0.029376209 2567493
1.4706013 0.35598731 0.028749704 1976114
1.4717563 0.35895562 0.029236019 2699062
1.473469 0.36076826 0.029822588 5855574
1.4849403 0.37887752 0.022736073 66076
1.4868624 0.38081568 0.023576021 5393208
1.4885788 0.38395458 0.022931933 7894643
1.4900196 0.38625371 0.022822559 6908018
1.4913251 0.38859761 0.022973299 6052972
1.4929354 0.39129895 0.023090601 1646125
1.4946264 0.39330876 0.02303791 659225
1.4427053 0.31742132 0.033708215 1445140
1.4442853 0.31950361 0.033948123 1708049
1.4453118 0.32257116 0.03420794 3023906
1.4474814 0.3250351 0.033838034 3484711
1.4484658 0.32703906 0.034059167 3550258
1.4501992 0.32971251 0.032271981 3355205
1.4523094 0.33234048 0.031628788 3291224
1.4538002 0.33488053 0.031574726 3554657
1.4556813 0.33740032 0.031472445 3686763
1.4570225 0.33989245 0.031869769 3686763
1.4587748 0.34254408 0.031519651 3622003
1.4605176 0.34524715 0.031357646 3292771
1.4624159 0.34729791 0.030686617 1581895
1.4637187 0.34997821 0.030033708 658994
1.4650278 0.3528288 0.029501021 1184800
1.467099 0.35491484 0.028038204 2633783
1.467868 0.35755676 0.028201699 3028800
1.4699786 0.3595534 0.028730035 1317939
1.4777414 0.37190026 0.023420811 1515322
1.4794421 0.37487632 0.02320534 2634574
1.4809102 0.37727594 0.023334861 2700628
1.4826689 0.3799336 0.022830129 1384515
1.4845041 0.38251519 0.022694826 3026487
1.4858329 0.38464111 0.022610068 7234903
1.4873133 0.38711959 0.02212745 8945793
1.4893558 0.3894093 0.022079527 7039091
1.4352299 0.31157541 0.033196151 2828588
1.4374735 0.31366265 0.033391714 2564900
1.4390025 0.31598234 0.033648491 1511701
1.4400958 0.31877166 0.033168852 1510928
1.441709 0.3211422 0.033015251 2563097
1.4434986 0.32390243 0.032756329 3745818
1.4455163 0.32578886 0.032310128 4273192
1.4466867 0.32827884 0.030912757 3947057
1.4482296 0.33084959 0.030802131 3881792
1.4497467 0.33330494 0.030993581 3685714
1.4512429 0.3360101 0.031312406 3620967
1.4534309 0.33841747 0.031316519 3752812
1.4660153 0.35793895 0.02773267 2765870
1.4728091 0.36873668 0.022097826 395786
1.4744202 0.37068623 0.022686958 725280
1.4753425 0.37312615 0.022870064 1581625
1.4772514 0.37538576 0.023520112 2568778
1.4797628 0.37894136 0.02322495 2372691
1.4811466 0.38184631 0.022598863 1782872
1.4823711 0.38430423 0.022246361 1912143
1.4844035 0.38668746 0.022022843 4078149
1.4269509 0.3033129 0.033610702 3024679
1.4286342 0.304869 0.033660293 2827047
1.4300866 0.30731517 0.033384979 3286824
1.4317288 0.30919999 0.032921553 2959665
1.4329033 0.31202817 0.032832205 3025449
1.4349034 0.31444341 0.032898247 2367262
1.4366997 0.31713718 0.031939268 1643290
1.4380761 0.31972629 0.031657696 920088
1.4394629 0.32261747 0.030838728 1646390
1.4414032 0.32494003 0.030309439 2369854
1.4429414 0.32723534 0.030074298 1448236
1.4448328 0.32975185 0.029537737 1249570
1.4460839 0.3322587 0.029567719 2236446
1.4474752 0.33437788 0.030461192 3882798
1.4686928 0.36743236 0.021152496 1777195
1.4702976 0.36945081 0.021696329 2763815
1.4715086 0.3716805 0.02208823 3092775
1.472877 0.37341493 0.022797942 1974571
1.4214548 0.29975641 0.03273356 2367258
1.423082 0.30123395 0.033225179 2696224
1.4247258 0.30318999 0.03346312 2893089
1.4259307 0.30595934 0.033821583 3351849
1.4277833 0.30844438 0.032675147 5787231
1.4293295 0.31079155 0.032306075 7037819
1.4309185 0.31359667 0.031538963 6051685
1.4326813 0.31577164 0.031339169 2236472
1.4344511 0.31825858 0.031086564 920598
1.436084 0.32093358 0.029655933 527132
1.4374135 0.32330376 0.029952228 2371411
1.4391668 0.32555485 0.029946685 3293029
1.4412591 0.32826167 0.029643714 3226976
1.4424193 0.33046675 0.029328048 1580865
1.4439071 0.3328076 0.029144764 789289
1.4583189 0.35576689 0.022180796 2832733
1.4601481 0.35755533 0.022101164 2832476
1.4610572 0.3601532 0.021215081 2503256
1.4626348 0.36298579 0.020880938 1252670
1.4647763 0.36556619 0.020669341 1317426
1.4663105 0.36818159 0.02074182 2040884
1.467337 0.37037468 0.021021008 3093047
1.4680827 0.37245822 0.020563841 5131836
1.4164219 0.2952559 0.031954944 920338
1.4174324 0.29730844 0.032216549 1380115
1.4190086 0.29933423 0.032483637 2103828
1.4207175 0.30203921 0.032508314 2826778
1.4216557 0.30435807 0.032710135 3090199
1.424109 0.30685776 0.030570149 2566963
1.4255073 0.30987167 0.030440748 4803681
1.4267888 0.31237501 0.030231178 10393272
1.4283433 0.31445366 0.030388832 6974327
1.430419 0.31727505 0.029771447 1579568
1.4323874 0.31939816 0.028128862 724006
1.4335258 0.32206273 0.028940678 1448749
1.4354907 0.32394516 0.029431581 3621988
1.4512606 0.34942305 0.021168292 2766165
1.4526528 0.35155869 0.021574795 2766681
1.4545999 0.35440755 0.021908641 2766424
1.4562762 0.35676873 0.021876931 2700889
1.4577373 0.35902101 0.021846294 2701144
1.4597036 0.3616339 0.021556616 2897752
1.4611468 0.36400276 0.021451473 2239304
1.4627333 0.36622137 0.021174788 790573
1.463975 0.36943465 0.020525217 857124
1.4656878 0.3706072 0.020458817 1975342
1.4071839 0.28576231 0.0324682 5655341
1.4088359 0.28750414 0.032521784 7299931
1.410799 0.2904923 0.032076359 6248536
1.4118904 0.29295224 0.031795263 1972766
1.413748 0.29560995 0.031849146 919821
1.4151828 0.29818273 0.031894624 1577492
1.4171585 0.30057573 0.031445324 1577489
1.4186676 0.3029483 0.030891061 1446676
1.420495 0.30575347 0.029215634 921110
1.421243 0.30849165 0.029957235 1645086
1.4234953 0.31075484 0.029197931 3093041
1.4254273 0.31361777 0.028997779 6908276
1.4270318 0.31583554 0.027716398 8027288
1.4282938 0.31793368 0.027786016 1711915
1.4298477 0.32048845 0.027858496 592922
1.4313385 0.32244682 0.028404474 1315875
1.446195 0.34535462 0.021051645 3750983
1.4471912 0.34800023 0.021357656 3159890
1.4487658 0.35040027 0.021689534 2765651
1.4510043 0.35296702 0.021607339 2568787
1.452633 0.35537916 0.02160871 2175574
1.4541895 0.35738581 0.021589637 2175831
1.3987334 0.27819961 0.032500803 1578771
1.4006646 0.28037053 0.032091022 1248781
1.4017597 0.28209269 0.031868637 1446158
1.4036485 0.28449684 0.03183347 2234643
1.4051509 0.28660995 0.032035828 3090717
1.4067023 0.28938109 0.031485796 3879974
1.4083486 0.29185671 0.031570315 3090720
1.4097345 0.29485852 0.031365812 920074
1.4113734 0.29674578 0.030373573 854804
1.4128407 0.29956126 0.030141115 2698303
1.4145262 0.30179888 0.029436231 3094612
1.4163746 0.3040669 0.028719783 2701137
1.4174671 0.30669415 0.028550923 1910341
1.4194628 0.30921632 0.027619302 988213
1.421471 0.31160158 0.027326763 1118748
1.4223483 0.31421202 0.027765095 1382682
1.4246583 0.31682533 0.027759194 2172210
1.4262551 0.31931645 0.027470648 263445
1.4402747 0.34230602 0.020032465 3686238
1.4423825 0.34403783 0.019812107 1054003
1.4435809 0.34690166 0.020679951 1580063
1.4451165 0.34883773 0.021106124 1911094
1.447253 0.35137993 0.021629095 2699601
1.3917176 0.27166301 0.032650828 1972758
1.3930707 0.27308273 0.032906651 2104086
1.394453 0.27556992 0.033200324 2235673
1.3964589 0.27796704 0.032430828 2433314
1.3978817 0.28057134 0.031988263 2565162
1.3994595 0.28291833 0.031673849 2171178
1.4011234 0.28525877 0.03132993 1973025
1.40275 0.28809297 0.03087163 2038036
1.4041846 0.29061776 0.030719697 2564120
1.406092 0.29309636 0.029211521 1644313
1.4079185 0.29486746 0.029249847 1315866
1.4087626 0.2975167 0.029452622 789790
1.4106722 0.30116558 0.02752769 4082788
1.4123726 0.30286515 0.027777791 6318728
1.413974 0.30529082 0.028522789 3227508
1.4163914 0.30865896 0.028191686 2899043
1.4172877 0.31093061 0.027344167 2174796
1.4188737 0.31243736 0.026921511 528692
1.432092 0.33385336 0.02010119 3226184
1.4336764 0.33549523 0.020160437 4015196
1.4346652 0.33766693 0.020219207 5330290
1.4363061 0.340276 0.020135045 4080480
1.4382004 0.34283769 0.019949138 2370115
1.4398955 0.34525788 0.019681036 2106163
1.4414315 0.3474853 0.019612253 3026989
1.3875266 0.26980036 0.031791627 1774354
1.3892698 0.27152985 0.032339573 2103574
1.3905566 0.27405101 0.031766295 2432797
1.392607 0.27686381 0.031074047 2565162
1.3944092 0.27918738 0.031585813 2631479
1.3959589 0.28135622 0.031756282 2173517
1.397576 0.28421289 0.030048966 2965616
1.3991035 0.28632522 0.029514194 5333382
1.4007738 0.28871131 0.028751493 3884912
1.4021908 0.29173499 0.028809965 1382447
1.403541 0.2939378 0.028041005 658456
1.4051253 0.29643035 0.028129935 1052437
1.4071445 0.29873419 0.026468515 987676
1.4084718 0.30114597 0.026970148 2699321
1.4279649 0.33238691 0.01870209 526879
1.4298601 0.33407545 0.019411385 3093296
1.4312162 0.33630812 0.019445181 4080196
1.4324114 0.33914542 0.019696712 4539986
1.4343067 0.3415823 0.019432664 4342867
1.4366817 0.34403551 0.019157648 2040376
1.4380302 0.34717655 0.019006431 592920
1.383889 0.26851672 0.030580163 1445901
1.3852806 0.27027577 0.031424999 1905938
1.3870978 0.27296263 0.030359864 2235674
1.3885055 0.27551413 0.030460775 2368553
1.3901166 0.27721715 0.030952454 2565938
1.3918377 0.27956194 0.031478882 2632516
1.3930079 0.28476775 0.029260635 5075374
1.3950709 0.28553206 0.029146671 4875679
1.3970447 0.28836006 0.028641462 11054829
1.3985194 0.29059148 0.02789557 8949968
1.4000342 0.29269636 0.02708292 3424380
1.4015007 0.29503942 0.026557446 987953
1.4032245 0.29791713 0.025681257 856607
1.4046589 0.30029583 0.025794744 1053470
1.4060918 0.30216426 0.026644647 1974565
1.4222305 0.32681775 0.018985569 2964829
1.4239442 0.33010292 0.01841259 3490922
1.4255717 0.33228266 0.018542886 1713489
1.4270316 0.33507788 0.018764079 1448756
1.4287696 0.33739924 0.018856823 3882555
1.430434 0.3396588 0.019006491 5065806
1.3797032 0.26701689 0.029537201 1051915
1.3815044 0.26879835 0.029999495 1249036
1.3830694 0.27157396 0.029404283 1052947
1.3849204 0.27411151 0.029586613 1250069
1.3858033 0.27615458 0.029892564 1579037
1.3962662 0.2912395 0.027255833 8884159
1.3979971 0.29400694 0.026973128 856374
1.416607 0.32380635 0.018109679 790814
1.4185148 0.32620656 0.018879294 2896460
1.4206583 0.32857877 0.019061744 3358560
1.4221822 0.33077312 0.018997669 3359849
1.4234767 0.33329087 0.018771589 3360110
1.4251995 0.33577371 0.018549085 2305117
1.3747411 0.26354057 0.028779268 1183244
1.3763621 0.26512301 0.029215932 1380109
1.3780066 0.26737857 0.029274225 1578258
1.3793808 0.26967418 0.028850794 1909027
1.3809787 0.27254719 0.029432893 1251876
1.3825431 0.27420998 0.02953285 723999
1.409992 0.31754619 0.017603397 4606308
1.4117047 0.3198151 0.017281294 2500934
1.4130925 0.32222658 0.01730895 1184804
1.4143627 0.32463539 0.018139005 1316902
1.4160815 0.32725102 0.018562078 3750220
1.3686197 0.25957322 0.027744055 2104095
1.3702972 0.26168609 0.028128803 1643542
1.3725092 0.26346564 0.028333902 1446417
1.3740211 0.2660923 0.02763319 1381400
1.375692 0.26811403 0.028004408 1579297
1.4045814 0.3137933 0.016930342 1711638
1.4063228 0.31590861 0.016946554 4211784
1.407474 0.31839836 0.017492533 3027003
1.4095566 0.32078677 0.017493248 987678
1.4110149 0.32354379 0.017531753 1118751
1.4126438 0.32491374 0.017457843 1842731
1.3652931 0.25758505 0.027353764 2235165
1.3670348 0.26013136 0.027278304 2104090
1.3685371 0.26236147 0.027087092 1710364
1.3703977 0.26446593 0.027171135 1250589
1.3716812 0.26633 0.027990758 1447450
1.3955698 0.30454141 0.017062902 3819115
1.3973845 0.30728108 0.017428637 3819637
1.399106 0.30985481 0.016884923 3885689
1.400628 0.31221318 0.016451836 2306145
1.4019669 0.31449443 0.016499758 660014
1.4037712 0.31681275 0.016705811 1448475
1.4052411 0.31858253 0.016913652 2961201
1.3601425 0.25418562 0.025850296 2169114
1.3614062 0.25626361 0.026540041 2300699
1.3628659 0.25841033 0.026084781 2367006
1.3646516 0.26080406 0.025909245 2039594
1.3666112 0.26276982 0.026496887 1514026
1.3919871 0.30348492 0.016512871 3160655
1.3936081 0.30576813 0.016979694 4608114
1.3950382 0.30810595 0.017129898 4148596
1.3969693 0.31068712 0.016530037 4149626
1.3985512 0.31307441 0.016273022 4346497
1.4001991 0.31541663 0.016482413 2503515
1.4014143 0.31840187 0.015523791 463144
1.3564456 0.25281036 0.02510643 2168856
1.3576825 0.25477463 0.02566582 2366235
1.3592231 0.25728303 0.024888635 2368034
1.3612151 0.25934774 0.024850607 2172215
1.3626412 0.26126778 0.025898457 1778222
1.3845215 0.2963779 0.015820026 855832
1.3862195 0.2994647 0.015929699 658708
1.3884313 0.30188966 0.015772939 1316387
1.3896482 0.30446136 0.016217113 2830908
1.3916174 0.30665857 0.016879797 4015709
1.3936199 0.30990708 0.016663671 4478320
1.3956409 0.31313002 0.015758395 4347771
1.3521228 0.25173867 0.024340868 2168596
1.3538971 0.25319868 0.024490118 2235161
1.3555459 0.25574893 0.024137974 2237228
1.3574741 0.25773931 0.024555326 2237750
1.3746476 0.28543717 0.016395211 3292764
1.3761253 0.28787422 0.016259789 3161949
1.377591 0.29038405 0.01600337 3227483
1.3794497 0.29306585 0.015656888 2502218
1.3811693 0.29549104 0.015731215 987685
1.3829771 0.29798859 0.015624702 658974
1.3841187 0.30068988 0.01530093 659483
1.3862907 0.30295968 0.01500994 1250847
1.3873156 0.30554265 0.015337586 2369583
1.348042 0.25021076 0.023167729 2102288
1.350112 0.25179505 0.023513973 2038298
1.3518685 0.25385743 0.023472309 1974571
1.3671944 0.27956903 0.016048551 2700369
1.3690881 0.28172863 0.016280413 2964312
1.3706439 0.2843194 0.016130745 3161693
1.3728242 0.28660566 0.015587687 3227485
1.374112 0.28942096 0.015810966 3227485
1.3753189 0.29185849 0.015386701 3160919
1.3768504 0.29405689 0.015304685 2699077
1.3787766 0.29667687 0.014707088 1579818
1.3807023 0.29883873 0.014438272 724765
1.3819499 0.30163431 0.014140785 1055021
1.3840854 0.30413526 0.014038205 857121
1.3442607 0.24852109 0.022210836 2496526
1.3459995 0.25044382 0.0224455 1907225
1.3481852 0.25205028 0.022601128 1842725
1.3643843 0.27817225 0.015813112 2568269
1.3651751 0.28033233 0.015805125 2832470
1.3669605 0.28274137 0.015762746 3161693
1.3686571 0.28550959 0.015303493 3293537
1.3702583 0.28797603 0.015483141 3293280
1.3721211 0.29016888 0.014959931 3227228
1.3733147 0.29296267 0.014577866 2898003
1.3756351 0.29549038 0.014605641 2172470
1.340423 0.24732023 0.021600366 2956555
1.3423126 0.2489053 0.021143794 2432276
1.344376 0.24954933 0.020355463 2169622
1.3585235 0.2747103 0.014677525 2304574
1.3600678 0.27658886 0.015064359 2502216
1.3614888 0.27898687 0.014940858 2765905
1.3631196 0.28132945 0.015074372 3030363
1.3643556 0.28395182 0.015005171 3425378
1.3662889 0.28572226 0.014900088 3425379
1.3677508 0.28830212 0.015031099 3228000
1.3367752 0.24662268 0.020165026 3877128
1.3386271 0.24740338 0.019995153 3680268
1.3402836 0.24850339 0.019371092 3090195
1.3533013 0.27045608 0.014016867 1185574
1.3542347 0.27287239 0.014406919 1975608
1.3561965 0.27494371 0.014425874 2435906
1.3575876 0.277152 0.014504194 2699852
1.3594549 0.27972251 0.014446914 2963799
1.3323945 0.24529827 0.018241227 5585936
1.3344123 0.24622184 0.018459558 4797453
1.3362244 0.24805486 0.018157661 3878944
1.3492817 0.26961136 0.012965024 1053472
1.3505757 0.27147293 0.013634205 1580335
1.352309 0.27379394 0.013628364 2304573
1.3538517 0.27554232 0.014284849 2699591
1.3307054 0.24526221 0.016914129 5455373
1.3322424 0.24694109 0.016881883 4732704
1.3438941 0.26527798 0.011558354 1118756
1.3448724 0.26784724 0.012393951 987422
1.3469167 0.26970541 0.012517393 1119007
1.3484581 0.2722162 0.01269573 1712431
1.3268086 0.24404699 0.015879035 5719581
1.3290548 0.24584502 0.015723169 5719573
1.3397257 0.26424754 0.010865867 1711146
1.3414009 0.26630735 0.011562824 1053214
1.3430556 0.26828337 0.011556864 987418
1.3450354 0.27100581 0.012124956 1317157
1.3247794 0.24442565 0.014618278 6377496
1.335885 0.26293421 0.010470927 1777458
1.3376498 0.26467186 0.010719061 1579559
1.3390201 0.26684678 0.010872245 1052956
1.3210859 0.24237102 0.014134765 6114332
1.5545647 0.42214805 0.039179206 3549224
1.5502257 0.41953748 0.038017511 4011060
1.5519133 0.42122167 0.039046228 3746604
1.5478507 0.42008334 0.038140237 4930632
1.5515144 0.42406929 0.036448717 2305885
1.5429698 0.41656488 0.03646642 11704731
1.5445268 0.41847408 0.036939144 9798794
1.5462525 0.4215039 0.034932792 8354959
1.5476072 0.42282158 0.035352051 5198714
1.5370691 0.41278332 0.035260439 3021334
1.5384569 0.41505998 0.03560257 7429997
1.5404754 0.41682875 0.03611064 11310241
1.5419252 0.41954309 0.035160899 10591153
1.5435596 0.42203057 0.034688175 5790581
1.5453451 0.42433685 0.03376925 1975613
1.5265527 0.40126389 0.036307335 7693900
1.5287646 0.40318465 0.036163986 7499059
1.5315619 0.40784693 0.03500396 4935208
1.5340471 0.41123497 0.034937263 3747632
1.5348182 0.41368324 0.034734845 3222332
1.5365589 0.41592455 0.035135865 5393505
1.5383389 0.4182837 0.033645391 5262178
1.5395943 0.4206531 0.033603311 5854572
1.541373 0.42279208 0.03309989 5724781
1.5431197 0.42590928 0.031672299 1450284
1.5446098 0.42800623 0.031586587 1384489
1.5151042 0.38803977 0.037279963 3747642
1.5178264 0.390715 0.036509693 3813940
1.5222418 0.39719206 0.035479784 3682352
1.5233309 0.39959234 0.035928726 3418402
1.5245752 0.40180558 0.036345363 7626817
1.5262146 0.40490425 0.035806894 10194767
1.5277841 0.40728128 0.035358906 10657116
1.5295086 0.4097833 0.033798397 6317136
1.5312172 0.41237789 0.033859253 3685701
1.5329843 0.41418326 0.033024728 2436939
1.5344346 0.41736537 0.032700896 2830158
1.5360153 0.4191919 0.032015204 2633800
1.5371268 0.42122072 0.031783581 2502983
1.5390682 0.42451894 0.031326234 2239292
1.5403178 0.42707002 0.031122386 1450028
1.5049952 0.37579125 0.038103938 11900055
1.506418 0.3785454 0.037144959 12888247
1.5071198 0.38060647 0.037045896 10983072
1.5095868 0.38381398 0.036613047 3682364
1.5104415 0.38702506 0.037348509 3024426
1.5127506 0.388399 0.036889434 3222322
1.5150311 0.3907584 0.037157774 3484984
1.5162328 0.39329672 0.03703922 3550524
1.5176375 0.39555687 0.035189986 3550772
1.5192635 0.39870715 0.035078526 3682352
1.5207922 0.40016913 0.03495729 3617080
1.5218052 0.4028939 0.032953262 3619676
1.5241196 0.40597439 0.032909155 3159380
1.5255932 0.40796506 0.032765567 4277343
1.5274603 0.41054839 0.032787502 4541286
1.5285494 0.41334361 0.031993866 2502468
1.5300264 0.41562855 0.03138119 2371140
1.5319862 0.4181807 0.030933022 2634054
1.5338006 0.42029864 0.031322539 2765384
1.5354552 0.42268407 0.031391144 2831432
1.4998724 0.3724317 0.03730917 7559977
1.5011058 0.37482637 0.037382066 5453080
1.5028173 0.37657166 0.038227618 10256228
1.5038035 0.37985766 0.037680745 9930630
1.5055217 0.38247871 0.037017226 5064766
1.5075654 0.38457608 0.036479712 3157033
1.5084575 0.38668078 0.035813808 2367000
1.5104411 0.38971412 0.034741938 1774358
1.512143 0.39190602 0.03460741 1051929
1.5138643 0.39435035 0.034063637 1777207
1.5151851 0.39681649 0.033587933 2106949
1.5169797 0.39892954 0.033289671 2500925
1.5182195 0.40177232 0.032409966 2632773
1.5201223 0.40466207 0.032287717 3356495
1.5218194 0.40674996 0.032294393 3290706
1.523725 0.40960312 0.030618429 2962506
1.5248277 0.41162437 0.030818641 2699589
1.5267235 0.41417253 0.030308247 2896967
1.5281943 0.41649741 0.030832171 2897223
1.5297318 0.4192369 0.031041145 3225419
1.5333331 0.42474383 0.026674092 1975870
1.5349462 0.42688584 0.027329087 1121336
1.5371859 0.42761928 0.027583599 857904
1.4932646 0.36887091 0.036746323 2498335
1.4954998 0.37047356 0.036389112 3088669
1.4970617 0.3729701 0.036862671 5256478
1.4985436 0.37530607 0.037021279 6703653
1.5006022 0.37754941 0.035860121 7953964
1.5021781 0.38061416 0.03514421 7690804
1.5038702 0.38274175 0.034904957 7627330
1.504869 0.38551557 0.034136355 3881521
1.5062202 0.38817674 0.034110069 2434096
1.5084741 0.39026523 0.033446193 1579044
1.5101733 0.39272958 0.033385217 856873
1.5116118 0.39498216 0.03266716 1582922
1.5128679 0.39798236 0.031710386 3492458
1.514745 0.40032482 0.031982601 2240348
1.5161784 0.40257448 0.030841768 1122116
1.51792 0.40536726 0.030718923 2041913
1.5198337 0.40783507 0.030171394 2897216
1.5211973 0.41011065 0.03041023 2897223
1.5224942 0.41326904 0.030279398 2831177
1.5244429 0.41464508 0.030183733 3159886
1.5291176 0.42330706 0.026492119 1975872
1.5309732 0.42527157 0.027124166 1252405
1.5322673 0.42684424 0.026176572 1186871
1.5340137 0.42870182 0.025714159 727609
1.4870732 0.36201137 0.036118031 591374
1.4882675 0.36446768 0.03611958 985102
1.4897022 0.36711854 0.036439359 2498597
1.491792 0.36952215 0.036529541 3419435
1.4931049 0.37158215 0.036120296 3288114
1.4952044 0.37485409 0.034630418 5197418
1.4962492 0.37753135 0.035671771 3611164
1.4986079 0.38004851 0.034742475 7031844
1.4996357 0.38200253 0.033836365 5982002
1.5012723 0.38407457 0.03297472 5459266
1.5027257 0.38627738 0.033620179 3684672
1.5049658 0.38914257 0.031607509 2764089
1.505833 0.39146578 0.031777382 987422
1.5074227 0.39423102 0.031247377 924203
1.509352 0.39628369 0.031340361 2374488
1.5106678 0.3992328 0.031094313 7240600
1.5126575 0.40170318 0.030866385 6910612
1.5141695 0.40391278 0.030443192 3162472
1.5159824 0.40623033 0.030145466 1450561
1.5177155 0.40900069 0.03014046 2765892
1.5236607 0.41884446 0.026080608 2172996
1.5251426 0.42157203 0.025849283 2304581
1.5269182 0.42383808 0.026055396 2041667
1.5281384 0.42606735 0.026140213 1121597
1.5303633 0.42828906 0.025521576 924473
1.5330958 0.43047732 0.024351954 529975
1.4762436 0.35023224 0.036960185 2564394
1.4834001 0.36070091 0.035475373 3155490
1.4843967 0.36291367 0.035893083 1181707
1.4861389 0.36527979 0.035920084 2035993
1.4876934 0.36776012 0.035477161 2695458
1.4896362 0.37063831 0.034505725 3289664
1.4908534 0.37309736 0.034163833 3487565
1.4925479 0.37527502 0.034314632 8156557
1.4944267 0.37772131 0.033302665 7304340
1.4958155 0.38013709 0.032563686 8487333
1.4972448 0.38246685 0.031923831 6579088
1.4991008 0.3854509 0.031829834 1449284
1.5012686 0.38739395 0.031423271 1910062
1.5024712 0.39027369 0.03081727 1843244
1.5037223 0.39240569 0.030416727 1119519
1.5049055 0.39457136 0.031092763 1845039
1.5095224 0.40162158 0.030266643 9014946
1.5100272 0.4028433 0.026453137 4937080
1.5148152 0.41071326 0.025137246 3028299
1.5168401 0.41313314 0.024768531 1779779
1.5181744 0.41477883 0.025254786 2304582
1.5198193 0.41799581 0.02523756 2304838
1.5215391 0.42037642 0.025202394 2370374
1.5228832 0.42235762 0.025378227 2370631
1.4717417 0.34671587 0.036489725 2893352
1.4723163 0.34901476 0.037034214 2301215
1.4740291 0.35144824 0.036597133 3811631
1.476397 0.35371244 0.036133409 6047830
1.4766012 0.35680699 0.03566426 9010051
1.4793342 0.35932624 0.035057962 2957607
1.480702 0.36165065 0.035011172 919310
1.4824672 0.36357242 0.034794688 1641995
1.4838617 0.36541343 0.035492539 4205333
1.4859862 0.36865747 0.033339143 3749931
1.4872556 0.37136132 0.03315866 3552812
1.488613 0.37447643 0.032595873 3751219
1.4904311 0.37638593 0.032303929 4803666
1.4925457 0.3788411 0.031838536 8488348
1.4937487 0.38137501 0.031848431 10132402
1.4951925 0.3841812 0.031065881 5332590
1.49685 0.3861444 0.030610561 3359062
1.4986739 0.38905674 0.029417276 1450031
1.5002261 0.39129442 0.029740036 1251364
1.5018111 0.39339352 0.03057456 790302
1.5051265 0.39998657 0.025877714 2895921
1.5068437 0.40126193 0.026353717 2042428
1.5076135 0.40291631 0.026251316 4936814
1.5095947 0.4058848 0.025854111 8488867
1.5111017 0.40858972 0.025803089 7961495
1.5128613 0.41112483 0.025455117 5330031
1.5145812 0.41360956 0.025229156 2370382
1.516374 0.41605097 0.025005102 2239303
1.5179973 0.41844106 0.024883509 2370885
1.4676609 0.34548241 0.036128581 3745825
1.4688838 0.34776622 0.036300182 3023392
1.4701762 0.34958965 0.035828292 2891031
1.4716189 0.35268873 0.035217404 4994355
1.4739808 0.35476249 0.035056949 8876409
1.4753219 0.358127 0.034480751 8220272
1.4764636 0.36036348 0.033955932 4011045
1.4787126 0.3627342 0.033150077 1315102
1.4801704 0.36525542 0.032348394 723737
1.4817144 0.36763203 0.032329619 1316910
1.4839666 0.36975271 0.032371521 1578784
1.4853382 0.37251341 0.03245312 1446944
1.487425 0.37519383 0.03001833 3092260
1.4877734 0.37783402 0.030478954 3882800
1.4897538 0.38033748 0.03085506 7895431
1.491452 0.38299185 0.030450583 8094355
1.4932258 0.38551486 0.030396223 2110013
1.495056 0.3873319 0.029075623 725286
1.4969063 0.38960254 0.028660834 528168
1.5004044 0.39765483 0.024875283 526357
1.5029179 0.39963776 0.02558428 4473393
1.5043069 0.4025268 0.025255144 5132881
1.5053121 0.40473109 0.025865436 5790562
1.5073528 0.40742421 0.025763094 8026772
1.4629421 0.34363788 0.034233868 4074794
1.4649333 0.34591717 0.035380483 5389878
1.4670067 0.3486498 0.034580708 4337440
1.4683385 0.35155225 0.034696937 3876623
1.4700022 0.35392326 0.033654332 5063224
1.471598 0.35579127 0.032591105 4932679
1.4727678 0.35848522 0.031876087 7695479
1.4747286 0.36164528 0.031273127 4540751
1.4763161 0.36361545 0.03142786 921626
1.4778147 0.36619085 0.031479359 856869
1.4795144 0.3683393 0.030697703 2174787
1.4806676 0.37148041 0.030032754 3623262
1.4823823 0.37377644 0.028928995 1977419
1.4843513 0.37623036 0.028981388 395550
1.4854743 0.37840462 0.029497623 987153
1.4952745 0.39365172 0.02446866 395026
1.4969614 0.39620703 0.02470243 527906
1.4986255 0.39867467 0.02494967 790820
1.5006452 0.40090734 0.024510741 1907742
1.5019238 0.40350324 0.024633646 5592130
1.4511515 0.33003676 0.035231709 3025203
1.4524758 0.33253175 0.035400033 3090995
1.454489 0.33491611 0.034933388 3288372
1.4560463 0.33724242 0.034947038 2959665
1.4576081 0.33987498 0.034380555 2828334
1.4597683 0.342206 0.034236312 1906975
1.4613088 0.34517741 0.034016788 2169371
1.4627187 0.34715909 0.033605456 2498332
1.4645455 0.34968686 0.033133149 3155227
1.4655445 0.35219777 0.032614052 3353129
1.468159 0.3544085 0.03127259 2763316
1.4691761 0.35728019 0.030851185 2368563
1.4707234 0.35979223 0.031059146 3486260
1.4723223 0.36232233 0.030669689 2040355
1.4741955 0.3646816 0.030794263 329743
1.4756995 0.36687618 0.030791044 1516083
1.4815314 0.37555134 0.029023111 2505560
1.4825602 0.377482 0.029029131 792383
1.4835341 0.37952781 0.028826177 264226
1.490365 0.38993359 0.023778677 2040625
1.4916151 0.3923831 0.024240553 461073
1.4929006 0.39433193 0.024153113 197902
1.4949005 0.39657259 0.024098873 528416
1.4974911 0.39957094 0.024116158 1121330
1.4994419 0.40295911 0.024134278 1382944
1.4438312 0.32389373 0.035152912 4339759
1.4460551 0.32665229 0.035014689 3090223
1.4482119 0.32861125 0.035090387 3090481
1.448923 0.33115721 0.035033405 3156530
1.4510272 0.33350271 0.034726381 3353650
1.4525151 0.33634603 0.034362018 3551546
1.4542822 0.33867592 0.033708215 3617859
1.4555182 0.34149778 0.03246212 3620193
1.4576008 0.34346765 0.032397449 3620962
1.458647 0.34623039 0.032010317 3490149
1.4603786 0.34860718 0.031497598 2898013
1.4620433 0.35090327 0.031352639 1581124
1.4635828 0.35381377 0.030511022 1316658
1.4655939 0.35589099 0.03014034 2566197
1.4667521 0.3587299 0.029973924 2698302
1.4685557 0.36104423 0.029335856 1843771
1.4699593 0.36364597 0.029232085 856613
1.4841392 0.38650018 0.022970319 1119795
1.4867961 0.38855594 0.022951841 4802121
1.4879501 0.39098394 0.023325384 2434607
1.4895723 0.39288372 0.023439467 658704
1.4914896 0.39517415 0.023442209 461588
1.43907 0.32098961 0.034179568 2036248
1.4416261 0.32278204 0.034209788 4865316
1.4420369 0.32490528 0.034855843 5128490
1.4437909 0.32724953 0.034438789 4601892
1.4453501 0.32956243 0.034606278 4338980
1.4471141 0.33252978 0.033603549 3748145
1.4486744 0.33502501 0.033067048 3552582
1.4500495 0.33738256 0.032536387 3488084
1.4518802 0.33943707 0.031952977 3554913
1.4533124 0.34209692 0.032155216 3620967
1.4556861 0.34467739 0.032218993 3686761
1.4571526 0.34761703 0.032045066 3555435
1.4632685 0.35641342 0.030293226 526885
1.4657595 0.36005294 0.028648734 2962488
1.4667275 0.36151123 0.028764904 2635065
1.4738029 0.37441927 0.024209857 2370111
1.4757605 0.37695295 0.024097204 1911627
1.4774393 0.37939972 0.023687601 2570076
1.4791174 0.38210213 0.02347374 5397894
1.4806912 0.38476074 0.022854745 5396867
1.4822395 0.38704807 0.022638679 2896728
1.484181 0.38965487 0.022476435 1515057
1.4858057 0.39175123 0.022935748 1317153
1.4872398 0.3936215 0.023049057 264210
1.4335418 0.31603462 0.033758759 788236
1.4348465 0.31891644 0.034050226 1446680
1.4368899 0.32092649 0.033788562 2301473
1.4388472 0.32325888 0.033939719 2629919
1.4398689 0.32565832 0.033311784 2432802
1.4416633 0.32832813 0.032609403 2366500
1.4428751 0.33055043 0.031471968 1183271
1.444756 0.33368236 0.031615913 4472632
1.4464536 0.33601773 0.03115046 4013626
1.4485044 0.33805913 0.03144443 3817554
1.4497056 0.34090555 0.031725287 3620453
1.4711566 0.37341434 0.023154676 5065799
1.4722188 0.37589377 0.023691118 3488839
1.4739295 0.37839472 0.02360642 1189183
1.4754853 0.38121611 0.023389816 4411250
1.4772093 0.38368028 0.022973299 8883623
1.4791565 0.38625973 0.022545636 8487585
1.480418 0.38869911 0.022221029 5066868
1.4821146 0.38977021 0.022198737 2633558
1.4243824 0.30665559 0.033883929 5193021
1.4265721 0.3094098 0.033608675 10061462
1.4278021 0.31240559 0.033248782 5195608
1.4299639 0.31467068 0.033312917 1052176
1.4313047 0.31677866 0.034117341 788237
1.4331827 0.31964779 0.032622099 1774873
1.4345372 0.32179594 0.032659173 3092024
1.4356838 0.32446575 0.032428443 3751253
1.4378972 0.32698256 0.031325698 3357540
1.4395053 0.32910681 0.030754626 3095396
1.4408302 0.33230394 0.030282736 2501968
1.4429166 0.33432835 0.030024409 1644851
1.4441409 0.33715183 0.03027302 1841966
1.4460549 0.3392514 0.030942917 3684425
1.4674265 0.37210453 0.021833539 3420984
1.4684036 0.37431997 0.022029102 6117451
1.469722 0.37671125 0.022745252 7894377
1.4198532 0.30450135 0.033191979 2695450
1.4215331 0.30548495 0.033492684 2891796
1.4229823 0.30790532 0.033264279 6772040
1.424387 0.31062204 0.033077896 9075060
1.4257677 0.31385446 0.032944679 1709842
1.4279922 0.31539744 0.032426476 1051659
1.4288652 0.31818277 0.031645656 1116426
1.430692 0.32042015 0.031509638 1512991
1.4322729 0.32338297 0.03134805 3619909
1.4341512 0.32571822 0.029997945 5396848
1.4351248 0.32825893 0.0302279 4804734
1.437073 0.33029985 0.03054744 3423340
1.4389296 0.33280408 0.0299505 3227497
1.4406254 0.33527857 0.02969861 2700108
1.4415931 0.33716303 0.029575586 1447982
1.4539177 0.35723561 0.022391856 2635351
1.4563818 0.36027974 0.022348106 2831960
1.4577115 0.36282516 0.022174239 2962257
1.4593809 0.36547095 0.02217108 1974070
1.4612033 0.36818314 0.021624327 790564
1.4626586 0.37054449 0.021479964 593438
1.4644275 0.37294322 0.021107912 1580588
1.4656763 0.37504399 0.021391034 2632751
1.4667842 0.37705052 0.021863222 5196597
1.4127419 0.29770607 0.03293705 2038555
1.4138347 0.29979807 0.033055246 1840917
1.4158099 0.30178589 0.032883704 1445647
1.4173771 0.30432856 0.032349706 1971987
1.4189057 0.30690181 0.032666922 2629654
1.4200861 0.3094275 0.032706857 4010533
1.4220406 0.31189698 0.031730294 3288102
1.4237521 0.31409383 0.031133533 3091755
1.4250808 0.31689888 0.030719995 855314
1.4270464 0.31928647 0.030348897 592144
1.428659 0.3216961 0.029901206 1184282
1.4302766 0.32430387 0.029190302 1842724
1.4315054 0.32643902 0.029832184 3356728
1.433808 0.32938802 0.030105472 4080738
1.4476596 0.35203034 0.022599339 2634580
1.4492733 0.35370129 0.022698879 1649746
1.4509528 0.35627073 0.022112727 2701924
1.4528641 0.35898042 0.022012711 5265022
1.454211 0.36176944 0.022172689 3948127
1.4565467 0.36454499 0.022387624 1776950
1.4575981 0.36653358 0.022252262 1251104
1.459522 0.36894929 0.021835983 790819
1.461638 0.37201482 0.021058083 397091
1.4065633 0.29361278 0.032613158 787981
1.4082533 0.29577601 0.033175349 2365984
1.4103729 0.29774016 0.03268379 3090472
1.4115659 0.30025721 0.032358646 3814711
1.41352 0.30279833 0.032470405 2630949
1.4146323 0.30537492 0.032122433 2302251
1.4165511 0.30762023 0.032258391 2169625
1.4183128 0.31022453 0.030087233 987173
1.4196824 0.31302482 0.030084431 921374
1.4218745 0.31546503 0.029910207 987674
1.4228137 0.31792688 0.02832365 658458
1.4245224 0.32027858 0.02872169 791075
1.4264281 0.32245922 0.028630376 593183
1.4273562 0.32553178 0.028237462 658456
1.444366 0.34998196 0.022215068 2699592
1.4453458 0.35256165 0.022293329 1911884
1.4471891 0.35499656 0.022283256 1978453
1.4489625 0.35778135 0.022006631 5792648
1.4502534 0.3601675 0.02187717 8882344
1.4524006 0.36242205 0.021683931 6973831
1.3949018 0.27965099 0.033736825 2630181
1.3974111 0.28326601 0.03244108 4076857
1.3995826 0.28663206 0.032149553 1577748
1.4015943 0.28913522 0.031854272 2564387
1.4032931 0.29200423 0.032149792 1182728
1.4046018 0.2943216 0.032067299 1248011
1.406117 0.29664606 0.031941533 2234900
1.4083617 0.29943949 0.031391084 4603461
1.4097714 0.3017571 0.030625165 5591399
1.4115616 0.30453849 0.029661179 4146540
1.4129167 0.30708575 0.02950573 3620973
1.4145867 0.30905575 0.029136181 3621996
1.4160575 0.31199259 0.028709292 2305867
1.417698 0.31424391 0.027542949 1185839
1.4188223 0.31663799 0.028018117 592411
1.421082 0.31871772 0.028649211 658727
1.4352071 0.34213901 0.020939112 1316399
1.4354894 0.34350991 0.021478593 527392
1.4384404 0.34602702 0.020656526 658705
1.4403267 0.34888995 0.020640731 4144432
1.4419255 0.35144532 0.021258354 5986646
1.4430217 0.35354733 0.021810472 3817558
1.3880177 0.27341098 0.033370018 2300956
1.3895413 0.27551723 0.034060776 2366749
1.3915396 0.27760273 0.034208298 2366494
1.3927124 0.28041857 0.033200383 2826531
1.3945122 0.28284234 0.03258276 4341324
1.3962189 0.28527939 0.032144129 5919073
1.3976578 0.28786451 0.031470597 3748931
1.3993092 0.29028434 0.031340957 1446429
1.4004924 0.29299343 0.031103194 919819
1.402492 0.2957108 0.030496359 1380110
1.4046196 0.29835886 0.028854609 1250329
1.4057977 0.30006063 0.0293172 2039592
1.4072573 0.30314016 0.028924942 3224886
1.4089316 0.3053686 0.028768301 3423315
1.410656 0.30718541 0.028847456 5593222
1.4118593 0.30983579 0.029101551 8160185
1.4139166 0.31248689 0.02816999 3359588
1.4156712 0.31534278 0.028109193 1645882
1.43142 0.34052324 0.020724177 2434604
1.4329815 0.34262544 0.02115953 1119784
1.4348207 0.34530979 0.020447254 659753
1.4363911 0.34781456 0.020245016 923696
1.4377601 0.34985834 0.020104408 1119526
1.4392226 0.35195518 0.020698428 3880741
1.3845381 0.27210784 0.032788157 2169112
1.3857987 0.2739951 0.033525288 2300953
1.387519 0.2763207 0.032098234 2630174
1.3891178 0.27890038 0.031994164 2828328
1.3907421 0.28155512 0.032064378 3158086
1.3921554 0.28424728 0.031909645 6250375
1.3941222 0.2865302 0.031161427 8420770
1.3957531 0.28907269 0.030425727 6907258
1.3966725 0.29124522 0.029701591 3487824
1.3983616 0.29398656 0.029079556 987174
1.4001309 0.29660577 0.028421521 988198
1.4021842 0.29888034 0.02859205 790043
1.4034613 0.30195886 0.027235627 921634
1.4048814 0.3035422 0.027325749 1447717
1.4058561 0.30571115 0.027653217 2237495
1.4277625 0.33856326 0.019506574 2040367
1.4294213 0.34117126 0.020172477 2105899
1.4311826 0.34336489 0.020196378 1053470
1.4321496 0.3459354 0.020371199 331816
1.4345247 0.34818059 0.019957423 2175575
1.3806286 0.27048546 0.031434894 1248782
1.3817849 0.272744 0.031943202 1511695
1.3836761 0.27524233 0.031001568 1774350
1.385276 0.27760214 0.031009495 2038297
1.3867522 0.28039211 0.031098425 2435629
1.3883431 0.2818765 0.031763017 2897491
1.3906152 0.28574306 0.029424191 10462681
1.3918796 0.28746128 0.029123187 11512804
1.3934932 0.28994668 0.028787255 7238812
1.3949356 0.29272014 0.028091073 1646644
1.3963776 0.29528087 0.027516842 527909
1.3981148 0.29769003 0.027840137 2437959
1.4003406 0.30004829 0.02723372 2239797
1.4011322 0.3022179 0.027123094 1055026
1.4027879 0.30500883 0.026668787 724766
1.4173102 0.32764435 0.019700348 5262695
1.4186172 0.330033 0.019730747 4409192
1.4201517 0.33241916 0.019915104 4740731
1.4221299 0.33490866 0.019405723 6384272
1.4234905 0.33767623 0.019174159 4476286
1.4254992 0.33978915 0.019335151 594218
1.4272079 0.34155369 0.019729912 592916
1.373517 0.26497197 0.030203342 1314316
1.3743651 0.26668096 0.031051874 1906195
1.3765171 0.26860356 0.03130579 2104087
1.3781238 0.27141494 0.031036019 2170651
1.3794503 0.27382159 0.030281901 2105893
1.3814938 0.27618021 0.029968977 1118750
1.3827032 0.27886689 0.030429304 1117719
1.38398 0.28081274 0.030409276 1118232
1.3884158 0.2875008 0.028054595 7832243
1.3895526 0.2892049 0.027567208 10855896
1.3910285 0.29140103 0.027386904 4608617
1.3924369 0.2936812 0.027443051 329755
1.3941362 0.2952984 0.027602077 527908
1.4141682 0.32680267 0.019200921 3487293
1.4154537 0.32861578 0.019270658 4210515
1.4167535 0.33133608 0.019547939 3818592
1.4181144 0.33315009 0.019969821 4675441
1.4204741 0.33639663 0.019586742 7371684
1.3693167 0.26383561 0.030561566 1445387
1.371184 0.26533443 0.030452967 1840144
1.3728263 0.26730019 0.030570686 2235417
1.3748015 0.27033806 0.029287934 2435378
1.3763943 0.27225947 0.030332327 2698812
1.3869822 0.29007119 0.026429772 5202010
1.3889253 0.2923665 0.026851296 1910583
1.4077663 0.32269573 0.018222272 528160
1.4093246 0.32491356 0.018297195 724768
1.4115548 0.32695258 0.018268585 1974309
1.4128087 0.32943016 0.018886566 3093302
1.3646076 0.25955874 0.028600693 1906970
1.3655192 0.26193923 0.029226005 1248781
1.3674847 0.26362276 0.029586077 1511436
1.3689132 0.26615214 0.028806686 1710109
1.3713503 0.26843631 0.028906465 2105642
1.3726275 0.2704373 0.029292822 2501173
1.384541 0.29080683 0.024535239 3356984
1.4023086 0.31859541 0.017724633 461076
1.4041543 0.32062733 0.018133283 593438
1.4060135 0.32296228 0.018450499 1516092
1.4077134 0.32563502 0.018834949 1515848
1.4092453 0.32790297 0.018424392 724507
1.3596882 0.25756586 0.028268099 2169630
1.3618592 0.25976008 0.028478146 1643544
1.3633337 0.26232159 0.028284669 1446162
1.3647847 0.26460689 0.027937949 1315867
1.3667165 0.26605427 0.028267741 1579301
1.3938661 0.3092348 0.017743051 4476794
1.3952256 0.31162947 0.017575383 4411263
1.3969094 0.31450212 0.017009854 4411258
1.3987913 0.31722772 0.017327011 2567245
1.4006014 0.31920838 0.017580986 724511
1.4017377 0.32095486 0.018237174 593697
1.3563471 0.2562325 0.027166605 2300704
1.358124 0.25841087 0.027597189 2169881
1.3596053 0.26113576 0.027050078 1644054
1.3612792 0.26326174 0.026863933 1316381
1.388352 0.3054567 0.017011642 1843497
1.3901377 0.3078869 0.017203867 3160910
1.3918159 0.31072628 0.01721549 4673903
1.3930514 0.31338376 0.016931236 5266045
1.3945212 0.31517565 0.016734481 4476013
1.3966739 0.31757736 0.017081976 2764617
1.3509204 0.25295937 0.026116729 2431512
1.3525484 0.25452524 0.026686192 2366493
1.3541048 0.25678825 0.026399255 2367267
1.3557096 0.25910926 0.026051879 2105384
1.3579017 0.26102006 0.02608788 1580324
1.381011 0.29972994 0.016729355 2175057
1.3826492 0.30163252 0.016693473 2502735
1.3841861 0.30418396 0.016504645 1054513
1.3862801 0.30686665 0.016389489 1119259
1.3880206 0.30916607 0.016346216 2501938
1.3893995 0.3117643 0.016253233 3292489
1.3904856 0.3142429 0.01572001 4279906
1.3906752 0.3165307 0.015498161 3555157
1.3471394 0.25175399 0.025448859 2365975
1.3487031 0.25323784 0.025609732 2366750
1.3503687 0.25545239 0.025384307 2302505
1.3522497 0.25792688 0.025264382 2106677
1.3760982 0.2956447 0.016373456 987679
1.3775198 0.29804289 0.016580701 1252658
1.3791132 0.30005318 0.01655072 2372691
1.380878 0.3028509 0.016081035 3556714
1.3824726 0.30538034 0.015744984 2964320
1.3839895 0.3076635 0.015206933 1055539
1.3856757 0.31066841 0.01520288 1383205
1.3864 0.3133617 0.014777005 2238769
1.3410696 0.24876076 0.02514565 2037011
1.3433199 0.24958134 0.02464503 2168340
1.3449183 0.25161839 0.024665654 2235679
1.3463037 0.25376105 0.025030732 2106162
1.3642582 0.28280991 0.016745269 3490410
1.3657026 0.28408307 0.016924858 3621737
1.3675852 0.28713363 0.016224027 3424870
1.3694637 0.28914368 0.016361415 3555938
1.3706484 0.29147971 0.015561223 3292248
1.3723989 0.29402715 0.015639007 2369082
1.373718 0.29658681 0.015846729 790299
