# .PCD v0.7 - Point Cloud Data file format
VERSION 0.7
FIELDS x y z rgba
SIZE 4 4 4 4
TYPE F F F U
COUNT 1 1 1 1
WIDTH 1183
HEIGHT 1
VIEWPOINT 0 0 0 1 0 0 0
POINTS 1183
DATA ascii
1.6216671 0.33286703 0.049075708 5330477
1.6227663 0.33499599 0.050007984 2697513
1.6247687 0.33779281 0.049495086 3026732
1.6259097 0.34175712 0.045815632 1447949
1.6277754 0.34296519 0.045999572 921098
1.6292617 0.34518719 0.045939609 723717
1.6309924 0.34784046 0.044489011 591876
1.6326166 0.35010403 0.044792935 986889
1.6339602 0.35217589 0.044987783 1446678
1.6356304 0.3542853 0.044914588 1446423
1.6175228 0.33280149 0.04838787 2039056
1.6192352 0.33271557 0.04837583 3159296
1.6208162 0.33712983 0.045351073 1510400
1.6218679 0.34025413 0.046936259 1776411
1.6237805 0.34215507 0.045608029 1315604
1.6253686 0.34379786 0.045000598 1118224
1.6266408 0.34613484 0.044342086 592142
1.628533 0.34897006 0.044328555 263177
1.6304721 0.35191298 0.044488832 657412
1.6150423 0.33264905 0.046872362 789760
1.6166624 0.33541074 0.044366762 1116672
1.6188761 0.33789885 0.044607565 2563846
1.6201712 0.34041521 0.044512615 2366747
1.6216388 0.34246266 0.044529423 1446930
1.623299 0.34495503 0.044025943 1117459
1.624585 0.34686357 0.04410921 855574
1.6258779 0.34895355 0.043966517 724021
1.6094823 0.32911152 0.044494085 1315860
1.6110464 0.33198285 0.044999413 657671
1.6127539 0.33325499 0.044610672 328964
1.6143681 0.33610514 0.044757888 525571
1.6165222 0.33841109 0.044365451 1511689
1.6174654 0.34104976 0.044229314 2761760
1.6191968 0.34298247 0.043772206 3683357
1.6201606 0.34606689 0.043532297 1446693
1.6056703 0.32758063 0.04480242 1775648
1.6075869 0.33000547 0.044632547 1447190
1.6095558 0.3325232 0.044307999 921357
1.6108032 0.33536434 0.043853514 526089
1.6115328 0.33720577 0.044023685 263936
1.6140071 0.33974093 0.044229969 657409
1.5997901 0.3236447 0.044325583 1841424
1.6019086 0.32574636 0.044676356 1775380
1.6034353 0.32841647 0.0439189 1578258
1.6049187 0.33086458 0.043493859 1315599
1.6066746 0.33345565 0.042521946 1117718
1.6085445 0.33527374 0.043464653 1051155
1.5942101 0.31895137 0.043769352 1643525
1.59639 0.32208639 0.043443017 1709583
1.5981991 0.32457989 0.043471031 1643286
1.5995015 0.3268857 0.043150537 1315347
1.6015275 0.3289414 0.042774312 1446163
1.6025164 0.33192986 0.0425952 1052688
1.6040523 0.33423632 0.042884521 1118481
1.5892787 0.31657946 0.043037705 1380635
1.5907158 0.3183217 0.043933861 1709842
1.5926654 0.32143241 0.042800419 1578001
1.594264 0.32318199 0.042868786 1644047
1.5956037 0.3252939 0.042906694 1511953
1.5967143 0.32768992 0.043074124 1315080
1.586776 0.31672138 0.042616658 1184022
1.5883327 0.31966212 0.042068534 1315082
1.5904042 0.32188353 0.04201328 1511702
1.5923193 0.32423502 0.042774968 1708829
1.5814484 0.31361333 0.04094439 1709341
1.5830183 0.3158437 0.041499011 1512722
1.5847373 0.31797445 0.041385226 1249294
1.5861614 0.32015285 0.042095833 1446418
1.5880219 0.32177937 0.041873984 1577749
1.5776929 0.31226236 0.040505104 2237207
1.5793513 0.31440169 0.041125886 1709844
1.5810598 0.31690139 0.040792517 1446924
1.5819862 0.31852844 0.040630989 1183751
1.5739824 0.31065446 0.040386729 2367521
1.5754727 0.31284153 0.040509276 2038552
1.5764589 0.31537765 0.039471082 1710361
1.5785377 0.31791684 0.038877718 1381646
1.569952 0.30876231 0.040017545 2630944
1.571233 0.31103587 0.039567053 2564897
1.5727779 0.31371456 0.038692594 2169368
1.5750648 0.31609771 0.038954906 1447446
1.576646 0.31702217 0.03796678 1512990
1.5676144 0.31030172 0.038517296 3091491
1.568589 0.31212717 0.039037108 2432805
1.5636491 0.30898544 0.036878645 4276789
1.5652641 0.31097746 0.037407458 3222060
1.5598963 0.30651176 0.038044155 4671031
1.5606642 0.30877697 0.037426114 3881266
1.5561529 0.30567172 0.037256479 3881787
1.642881 0.34822792 0.055300817 1581077
1.644961 0.3498486 0.05256246 858624
1.6411525 0.34883809 0.052137777 2698011
1.6385804 0.34901458 0.049929008 2763807
1.6389172 0.34995586 0.05162923 2961178
1.6334693 0.3464866 0.050770029 2631696
1.636011 0.34943232 0.050488755 2698009
1.6402403 0.35701483 0.047854885 1120271
1.6422095 0.35912615 0.047264561 1052171
1.6270518 0.34226739 0.050253496 1775632
1.6283002 0.34205568 0.050170645 1644825
1.6305465 0.34591717 0.049526021 1644827
1.6321496 0.34823233 0.049875364 1974035
1.6335238 0.34985089 0.050540373 2698015
1.6369002 0.35598698 0.046140894 723465
1.6382509 0.35749322 0.046899006 2830400
1.6405525 0.3609966 0.046034917 1578517
1.6400293 0.36301833 0.04659383 2828322
1.6202787 0.33434743 0.050115451 4473387
1.6211462 0.33594522 0.050391242 4670540
1.623458 0.33943659 0.049807116 2829344
1.6255493 0.34188378 0.049655721 2302489
1.6268854 0.34515241 0.049246356 1710615
1.6287143 0.34637666 0.049593136 920587
1.6290277 0.34860539 0.047583565 855299
1.6326627 0.35339388 0.045568272 1380872
1.6345143 0.35615551 0.045769617 723976
1.6356075 0.35852689 0.046604559 5788506
1.6376767 0.36165848 0.046065733 7169917
1.6403729 0.36648244 0.043560907 2960714
1.6418748 0.36928698 0.043414518 1447683
1.616833 0.33337623 0.049241349 2170390
1.6183283 0.33512312 0.050047383 4473133
1.6199706 0.33796728 0.049577877 4801832
1.6205106 0.34002683 0.049091384 2698272
1.6228483 0.34286278 0.048459336 1512986
1.6243098 0.34552515 0.04756628 1579036
1.6261649 0.34760708 0.046209559 723979
1.6273705 0.3507005 0.045534894 394505
1.6286827 0.35276282 0.045640573 591876
1.6308323 0.35522565 0.045528457 788740
1.632785 0.3576225 0.045522079 1909278
1.6339926 0.3596116 0.045693323 4734575
1.6149118 0.33398452 0.048549816 1644551
1.6157393 0.33559209 0.04876332 1974542
1.6170042 0.3388164 0.048236474 2369046
1.6191934 0.34177065 0.046655461 2367271
1.6201973 0.3431654 0.046392128 1644573
1.6218506 0.34657884 0.045445904 1446426
1.6232613 0.34844428 0.04505156 1184528
1.6253549 0.3513422 0.044930503 723727
1.6267999 0.35401493 0.04520677 394247
1.629056 0.35641134 0.045031115 393986
1.6093924 0.33470309 0.048162393 3225390
1.6121024 0.33482677 0.04725837 1119505
1.6131104 0.33786273 0.046812825 1447441
1.6148574 0.34000215 0.046036705 1381131
1.6165198 0.34265175 0.045542106 2038801
1.6179926 0.34473109 0.045155808 1709326
1.6194997 0.34716499 0.044902489 1446167
1.6211796 0.34969798 0.045039341 1118992
1.6232933 0.35319752 0.044628188 1053704
1.6056668 0.33176371 0.046068959 1840664
1.6083318 0.3335337 0.046032958 1315599
1.6096027 0.336218 0.046162896 1645329
1.6107345 0.33854142 0.045134537 657928
1.612596 0.34128308 0.044606917 789252
1.6141583 0.34371167 0.044917688 1381385
1.6153797 0.34554797 0.044276521 1381394
1.6168416 0.34798929 0.043951318 1118740
1.6007686 0.32705796 0.045547597 1906966
1.6021216 0.32945696 0.045499794 1709847
1.6037544 0.33235094 0.045718782 1709584
1.6058338 0.33445185 0.045245998 1380883
1.6071637 0.33727181 0.044524305 1117715
1.6085337 0.33994937 0.044781975 921100
1.6103477 0.34267622 0.044195823 723971
1.6123756 0.34535873 0.04385411 1579806
1.6133357 0.34678337 0.043998584 2500134
1.6148946 0.34881055 0.04347913 1447446
1.5959857 0.32511193 0.04447519 1972750
1.5986353 0.32846504 0.044472568 1512975
1.5998884 0.33128905 0.044823341 1315602
1.6018181 0.33345836 0.044563763 1249809
1.603339 0.33622485 0.043993048 1118485
1.6050892 0.33814478 0.044173591 1182996
1.58965 0.31970224 0.045219056 1841424
1.5911409 0.32138669 0.045332365 1972502
1.5923548 0.32453337 0.044666521 1578254
1.5942054 0.32683682 0.044432811 1446927
1.5962262 0.32955784 0.044075243 1184524
1.5976601 0.33205646 0.044386439 1052433
1.5863696 0.31807107 0.044631831 2037791
1.5870515 0.32112324 0.044725828 1774370
1.5891062 0.32310539 0.043884926 1643027
1.5909592 0.32535738 0.043727271 1446426
1.591476 0.32796061 0.043868236 986388
1.5825003 0.31772971 0.043417327 2103087
1.5836494 0.3194437 0.043825559 2037532
1.585467 0.32189 0.043504827 1512468
1.5871685 0.3243188 0.044011585 3089451
1.5888606 0.32703161 0.043018989 1250330
1.5752162 0.31076109 0.043963186 1249819
1.5745019 0.31286073 0.044418506 986647
1.5785387 0.31581253 0.041814499 1381653
1.5798361 0.31803453 0.042990081 1643797
1.5815425 0.32020953 0.042728357 1644050
1.583342 0.32221127 0.042796545 1381907
1.5724365 0.31156313 0.042999744 1249565
1.5742055 0.3143211 0.042242579 1314837
1.5762683 0.31644544 0.042078547 1118478
1.5770968 0.31913489 0.042117052 789002
1.5785055 0.32080206 0.04150515 788238
1.5672026 0.30837452 0.042099893 1776409
1.5690346 0.31047538 0.042155206 1447191
1.5701746 0.3129065 0.041430473 1380625
1.5720087 0.31482774 0.041487277 1051917
1.5736152 0.3174594 0.040924959 920838
1.5755867 0.31909341 0.040292077 1051657
1.5647098 0.30890012 0.041229069 2301975
1.5663422 0.31156039 0.040976346 1644039
1.5681123 0.31371891 0.040626764 1249296
1.5608371 0.30761963 0.040444195 2630174
1.5623215 0.30939278 0.040356696 2367509
1.56411 0.31298852 0.038666308 1842200
1.5658129 0.31410244 0.039357603 1118232
1.5572528 0.30595636 0.039825141 3156782
1.5585283 0.30831119 0.039129555 3024676
1.5604562 0.31110308 0.038668096 2498338
1.5621718 0.31300908 0.038946748 1973530
1.5529585 0.30455166 0.039090991 3354417
1.5546577 0.30755764 0.038061798 2959408
1.5562547 0.30937663 0.038737595 2434341
1.549147 0.30316275 0.0378865 4012856
1.5508363 0.30517912 0.03835243 3222580
1.5525086 0.30762696 0.038665831 2432553
1.6417552 0.34902579 0.056575879 1975080
1.6430651 0.34881234 0.057364091 790540
1.6408086 0.34873807 0.055922732 2369553
1.6397518 0.35211134 0.05555819 3487290
1.6388582 0.35151201 0.053322122 2828834
1.6389157 0.35499567 0.053332612 9145736
1.6452463 0.3634885 0.050129697 2166016
1.6351141 0.35061812 0.051597759 2697732
1.6361866 0.35322326 0.052257583 4934734
1.6374421 0.3554402 0.052323923 8026992
1.6429317 0.36284828 0.050627694 1514262
1.6315725 0.35019249 0.050799474 1644825
1.6327648 0.35136053 0.050995931 1580550
1.6339877 0.35383672 0.051485583 6906199
1.6353709 0.3576659 0.050370917 7631483
1.6382848 0.3599543 0.050711975 2106112
1.640041 0.3645882 0.048400089 1579024
1.6225176 0.34107631 0.051363632 1381653
1.6257792 0.34586746 0.050241515 2040586
1.6269364 0.34693128 0.05041723 1118218
1.6288228 0.35048956 0.050234839 1184267
1.6310449 0.35203457 0.049792811 1512464
1.6319234 0.35420826 0.050776884 6048820
1.6335466 0.35907146 0.046751246 7628129
1.6352822 0.3603906 0.046757504 7629935
1.6363286 0.36337769 0.046101257 4867635
1.6379091 0.36491722 0.046268091 1907227
1.6392474 0.36792821 0.045803472 1381124
1.6413054 0.37013555 0.043894514 1444364
1.6203738 0.3411729 0.051287517 1842962
1.6215558 0.34414563 0.050515339 1645080
1.6233728 0.34642243 0.050316438 3357225
1.6248642 0.34949163 0.049211189 3027262
1.6264396 0.35077596 0.049852952 1119259
1.6276017 0.35375524 0.047973737 854791
1.6297092 0.35696214 0.045984849 722951
1.6314746 0.35899106 0.046422884 5195850
1.6327052 0.36154741 0.04680191 5523793
1.6347352 0.3646183 0.04610233 1906454
1.6364001 0.36582297 0.045394823 1052166
1.6372421 0.36936653 0.04498373 1906714
1.6392552 0.37070662 0.044333264 1445654
1.6412261 0.37362123 0.043564543 657441
1.6423806 0.37461489 0.043695435 794
1.6163454 0.34091157 0.05008404 1842193
1.619169 0.34263644 0.049548253 2302743
1.6197335 0.34418046 0.050366625 1646848
1.6234531 0.351381 0.046008155 988928
1.6261455 0.35496596 0.045757636 393994
1.6278877 0.35739863 0.045881018 394499
1.6286371 0.35996544 0.046219453 1116421
1.6295003 0.3621392 0.046262369 1379841
1.630303 0.36450833 0.045182928 1314321
1.6113528 0.3396242 0.049072556 1447446
1.6133471 0.34077734 0.049315676 1710352
1.6168524 0.34762371 0.046860203 1446661
1.6187261 0.34832406 0.046637937 988170
1.6200706 0.35056788 0.04527913 1121573
1.621852 0.35350475 0.045483455 2500923
1.623257 0.35628918 0.044976339 2170399
1.6250341 0.3585031 0.044882342 723460
1.6259153 0.36095649 0.044997916 262926
1.6071482 0.33575785 0.047622614 3028261
1.6081724 0.33823761 0.047061495 2960922
1.609866 0.33924544 0.048133366 1776404
1.612802 0.34516576 0.045733623 2235178
1.614511 0.34691292 0.046208069 1578523
1.6162717 0.349392 0.045250222 1052427
1.6177971 0.35225305 0.045321628 4539201
1.6196882 0.35444599 0.045419201 5854794
1.6240865 0.36158764 0.043348834 525571
1.6255087 0.36530077 0.042673096 262923
1.6029001 0.33335969 0.047074132 1841424
1.6044784 0.33603671 0.04766982 2369560
1.6062111 0.33872122 0.047104172 2170896
1.6076554 0.34069985 0.045574062 1250566
1.6091579 0.34357089 0.045473449 921350
1.6108739 0.34593129 0.04544919 1183247
1.6123455 0.3491511 0.042701356 2434092
1.6135077 0.35061154 0.044221923 1973783
1.6151614 0.35281307 0.045115754 4077072
1.6232711 0.36491829 0.041501507 788746
1.5990571 0.33247244 0.046208672 1709845
1.6003919 0.334887 0.046433441 1644308
1.6020572 0.33671677 0.046105556 1512977
1.6036977 0.33964744 0.045471422 1381648
1.6053516 0.34234831 0.045153908 1250067
1.606916 0.34477651 0.044433765 921614
1.6091326 0.3473838 0.044070892 395265
1.6107066 0.34971651 0.043357722 394759
1.6117043 0.35047135 0.043426566 460302
1.5933807 0.32832021 0.045469098 1578260
1.5949031 0.33107477 0.045096271 1447188
1.5965798 0.33323383 0.045366399 1381385
1.5982747 0.33537263 0.045424454 1446673
1.5996555 0.33815679 0.044528715 1183757
1.6013963 0.34059128 0.044521563 1118988
1.6026373 0.34468389 0.043449931 1185287
1.6041164 0.34583789 0.043594591 1447197
1.5880016 0.32450628 0.045422487 3287565
1.5897208 0.3268635 0.045602314 1577739
1.5911924 0.3292585 0.045471303 1446419
1.5927539 0.33166379 0.04506474 1381137
1.5943261 0.33411103 0.044904225 1314842
1.5960418 0.33695352 0.044433407 1183763
1.5975989 0.33970991 0.044395797 1053448
1.5991131 0.34082037 0.044457547 921862
1.5825567 0.32160318 0.044891529 2431513
1.5841651 0.32345194 0.044944577 4075292
1.585438 0.32584023 0.045077674 4930114
1.587335 0.32799333 0.045134 1840922
1.5891194 0.33058098 0.044261329 921098
1.5906016 0.33257413 0.043953232 921356
1.591725 0.33510116 0.0439521 986646
1.5932064 0.3371647 0.043380789 1118481
1.5793952 0.31960973 0.044290952 1117710
1.5803225 0.3215144 0.044762366 1249297
1.5818174 0.32421982 0.044695906 2300951
1.5838176 0.32653129 0.045018904 4074821
1.5834616 0.32901633 0.04411041 2825285
1.5863698 0.33215141 0.043704502 132864
1.5715652 0.31382579 0.044174433 723471
1.5726367 0.31534046 0.044813514 789513
1.5747886 0.31804514 0.043094091 855817
1.5761294 0.32034576 0.043381147 591885
1.5780622 0.32303542 0.043214254 526086
1.5787123 0.32498682 0.044001512 526343
1.5672864 0.31202501 0.044234872 1052174
1.5694962 0.31426594 0.044090688 1052432
1.5709093 0.31669754 0.043036759 986899
1.5724742 0.31894627 0.043134801 723465
1.5747041 0.32111859 0.042752497 985877
1.5756445 0.32364011 0.042640321 920349
1.5620128 0.30844969 0.043796599 987403
1.5639331 0.31039071 0.043716729 855306
1.564939 0.3125914 0.043180048 1249289
1.5669905 0.31508961 0.042498469 1316105
1.5685869 0.31735319 0.042352915 1184018
1.5695089 0.31957543 0.042162716 1117721
1.5727863 0.32336789 0.042293124 1050886
1.5586979 0.30701053 0.043122411 1381405
1.5595735 0.30872452 0.042811275 1380882
1.561651 0.31118757 0.04275316 1183756
1.5633695 0.31473237 0.041825294 1249544
1.5647563 0.31580621 0.041212976 1118227
1.5663364 0.3181724 0.041911781 1577740
1.5673423 0.32126367 0.041324496 1775623
1.5542928 0.30593151 0.040792346 2563340
1.5558292 0.30739447 0.041771412 1840921
1.5574816 0.30953979 0.04179889 1380366
1.5590295 0.31208122 0.041099489 1183506
1.5608832 0.31477073 0.040929079 1118220
1.5501424 0.303711 0.041143596 2631712
1.5521288 0.30592296 0.041095436 2301724
1.5535036 0.30858725 0.040987313 1578005
1.5556475 0.31098357 0.039861202 1512463
1.5567557 0.31476986 0.040228307 854788
1.5481853 0.30481493 0.040313721 2762268
1.5499645 0.30681896 0.040082693 2234920
1.5443718 0.30302519 0.039734364 3353901
1.5462681 0.30538476 0.039463699 2630181
1.5402679 0.30157518 0.038611948 4078140
1.5414959 0.30355865 0.039134324 3682112
1.5366496 0.30069023 0.036889851 5132108
1.5377127 0.30208492 0.037897468 4671303
1.5324061 0.29949898 0.035968184 4014676
1.5342103 0.30080533 0.03693974 4540232
1.5289018 0.29811794 0.035504885 3356507
1.5303353 0.29961163 0.035859294 4212038
1.6412574 0.34944862 0.059157655 1579787
1.6425622 0.35172275 0.058853254 790784
1.6402611 0.3526634 0.057595655 2172944
1.6397449 0.35547829 0.056386217 2434868
1.6378813 0.35585752 0.053648457 9605723
1.6387526 0.35886914 0.053045675 2829075
1.640617 0.36220795 0.05112575 2697244
1.6414136 0.36527324 0.051186487 1646606
1.6422167 0.36601251 0.051984653 726017
1.6329859 0.35533077 0.05190663 9077116
1.6355811 0.35829115 0.051459476 6578729
1.6361333 0.36066628 0.051644906 2566413
1.6374542 0.3634719 0.051332518 2631450
1.6393772 0.36533165 0.051039323 2105619
1.6416941 0.36818758 0.051589713 1317888
1.6283324 0.35209119 0.05156593 1117955
1.6299895 0.35452801 0.050994441 2234889
1.6309382 0.35641417 0.052058205 2894364
1.6321756 0.35889632 0.051566228 3355675
1.6338139 0.36070317 0.051256046 2566682
1.6361216 0.36471 0.050621733 2171916
1.6387967 0.36869043 0.047685251 986634
1.6390536 0.37202686 0.047616348 591888
1.6408769 0.3732861 0.046164021 526898
1.6206069 0.34512869 0.0521705 2237220
1.6248866 0.35250467 0.050248787 2500134
1.6268464 0.35526833 0.05041866 1250314
1.6288083 0.35789737 0.050940976 1973782
1.6303387 0.3606081 0.050493941 2631697
1.6314296 0.36302388 0.047281608 986382
1.6335944 0.36580223 0.046385214 1051675
1.6350085 0.36797404 0.046633109 1512221
1.6360159 0.36991706 0.047044858 1512474
1.6378596 0.37223333 0.046479091 1249560
1.6396339 0.3755143 0.045917556 854289
1.6153467 0.34207177 0.051898763 2236685
1.6169866 0.34386992 0.051702365 2960912
1.6182967 0.34588596 0.052240655 6183776
1.6203659 0.3491095 0.050950333 9276776
1.6217533 0.35145894 0.050912842 5001253
1.6237587 0.3542766 0.049767479 2500629
1.6242843 0.35722297 0.049634859 1909779
1.6278151 0.36157835 0.046744928 854538
1.6294476 0.3638888 0.047535405 1249548
1.6313039 0.3667568 0.046532854 1446935
1.6327263 0.3686657 0.047026798 1578517
1.6353339 0.37195271 0.046558663 1577749
1.6353365 0.37286276 0.046807095 1578783
1.6123965 0.34239352 0.051153474 2170894
1.6142501 0.34461495 0.051670417 3618320
1.6201316 0.35417575 0.046753511 4603976
1.6218938 0.35692549 0.047690675 2896398
1.6235925 0.35981071 0.04515402 591887
1.6254429 0.36230469 0.045940921 722705
1.6271943 0.36467862 0.045968816 986124
1.6283578 0.36732134 0.045236811 1184775
1.6091936 0.34132481 0.050294153 1578761
1.6111602 0.34432551 0.05111324 1710089
1.6133676 0.34835106 0.047170863 2171141
1.6156472 0.35215658 0.04662995 6381146
1.6170021 0.35378149 0.046210155 5328424
1.6181329 0.35587102 0.046296462 1907226
1.6197642 0.358062 0.046114728 1446428
1.6219354 0.36105633 0.045414671 657941
1.6230084 0.36391783 0.045289442 723476
1.6246392 0.36631256 0.043040738 460306
1.6257365 0.36823145 0.043808922 790283
1.602029 0.33599436 0.049063854 3027761
1.6029862 0.33680433 0.049649291 2764060
1.605121 0.34020898 0.049236529 2302993
1.6066542 0.34111044 0.050762109 2631696
1.6079404 0.34532779 0.046207897 67844
1.6105224 0.34759787 0.046196572 723726
1.610971 0.34895056 0.046764545 657414
1.6133413 0.35165256 0.046246573 2827289
1.6145232 0.35484672 0.045736894 3354406
1.6162145 0.35693744 0.046499774 2698290
1.6177137 0.36031479 0.045730934 2302011
1.6194721 0.36209607 0.044741616 1314305
1.62059 0.36341971 0.044644162 659229
1.6236677 0.36569691 0.042227075 657442
1.6229925 0.36915028 0.043148324 526102
1.5998541 0.33659929 0.049801879 2301982
1.6005546 0.33814108 0.047948115 1513493
1.6027449 0.34085643 0.0476548 1447701
1.6038568 0.3435964 0.04703825 1250332
1.6060725 0.34578446 0.045899563 987155
1.6074984 0.3484078 0.045976453 592649
1.6087266 0.35065484 0.045684032 263682
1.6101916 0.35323507 0.044645838 263170
1.6117574 0.3549141 0.045304827 263431
1.595135 0.33532166 0.046731047 1972505
1.5974338 0.33673894 0.047109894 1841680
1.5983537 0.3390615 0.047105126 1643801
1.6000592 0.34224659 0.046478145 1578261
1.6016979 0.34410402 0.046469443 1578515
1.6039181 0.34673595 0.045291297 1644055
1.6049296 0.34999192 0.044690482 987157
1.606532 0.35195884 0.044522397 657930
1.6076764 0.35401818 0.044403009 328967
1.5904241 0.33151951 0.046177976 1774875
1.5913684 0.33297849 0.046418361 1709333
1.593219 0.33582011 0.046179406 1906457
1.5949701 0.33814251 0.046014182 1841180
1.5966381 0.34093344 0.045337372 1643556
1.5980073 0.34268692 0.045744829 1380629
1.6017495 0.34734622 0.044423334 1578509
1.6038141 0.35093832 0.044535808 1052688
1.584667 0.32790115 0.045868568 1709363
1.5859574 0.3295525 0.046426408 1842222
1.5878731 0.3317318 0.046223335 1315862
1.5895454 0.33421206 0.045702629 1447183
1.5908792 0.33661824 0.04512047 1184016
1.5925742 0.33949906 0.044013254 986897
1.5939565 0.34149289 0.044886224 1380881
1.580987 0.32578522 0.045312993 1050890
1.5824062 0.32779577 0.045617096 2038043
1.5836587 0.33032221 0.045829587 4014929
1.5855745 0.33322275 0.045025103 3223843
1.58719 0.33524144 0.04496818 1248802
1.5886551 0.33740899 0.044606857 1118991
1.5906456 0.34027201 0.044020168 790300
1.576681 0.32411048 0.044040017 460551
1.578406 0.32644171 0.04477679 657154
1.5799619 0.32921499 0.045053057 1118216
1.5810775 0.3321296 0.044323198 3422514
1.5830507 0.33338165 0.044505887 6775140
1.5678195 0.31510043 0.045354128 1052691
1.5698034 0.31791115 0.045617998 920845
1.5712599 0.32038823 0.044506252 526343
1.5727918 0.32261565 0.0436536 592391
1.5748543 0.32512784 0.043606631 789262
1.5759145 0.32734847 0.044055454 591881
1.5783901 0.32969397 0.043090276 460546
1.5786885 0.33273423 0.043234162 592641
1.5812691 0.33489779 0.043599598 5328963
1.5623603 0.31209278 0.045414269 1183749
1.5643612 0.31376946 0.045689821 1315080
1.5657498 0.3164444 0.045078754 1447188
1.5673814 0.31846708 0.044634581 1250063
1.5688914 0.32138747 0.043856263 920840
1.570608 0.32375553 0.043345392 657670
1.5723809 0.32612273 0.042997532 855046
1.573862 0.32824904 0.042406611 789002
1.575272 0.33167741 0.041613512 526090
1.5763602 0.33397529 0.041697137 395011
1.5590065 0.30978489 0.044828415 1051917
1.5601505 0.31274873 0.044691145 1512462
1.5622263 0.31478083 0.044702768 1446920
1.5638407 0.31762752 0.043669641 1446926
1.5655966 0.31967321 0.043103576 1381392
1.5664563 0.32243115 0.042335629 1118216
1.5685534 0.32494301 0.043350101 986630
1.5712216 0.32951665 0.041064918 328965
1.5722566 0.33291569 0.040328853 657417
1.5743996 0.33440074 0.040582232 526095
1.5553206 0.309255 0.042986512 789250
1.556482 0.31125125 0.043812394 986887
1.5576912 0.31314778 0.043543935 1382676
1.559539 0.31605631 0.041990519 1184004
1.5611099 0.31818721 0.042407274 1512964
1.5633149 0.32093304 0.042320073 1184519
1.5646784 0.32374913 0.042028487 722944
1.5514005 0.30818295 0.042154849 1117705
1.552513 0.30972919 0.042752624 1051915
1.5540676 0.31227005 0.042653918 855305
1.5549406 0.3149069 0.041586697 526344
1.5570623 0.31714916 0.041025698 526595
1.5581816 0.31970137 0.041750312 855040
1.5456412 0.30388016 0.042172372 1972765
1.5469564 0.30622944 0.041959822 1577742
1.5487889 0.30844659 0.042050898 1183756
1.5504044 0.3103466 0.042439044 1052684
1.552451 0.31256014 0.042209923 987392
1.5554233 0.31823742 0.040983737 263172
1.5414355 0.30242428 0.041734517 1907496
1.5431142 0.30452973 0.041433275 2103330
1.544691 0.30677059 0.041617811 1446164
1.5461338 0.30886507 0.040818632 1249553
1.5376935 0.30060354 0.041309059 2696744
1.5396433 0.3032411 0.040940583 2564639
1.540931 0.30511862 0.040544689 2037534
1.5424674 0.30766523 0.040563345 1118226
1.5338064 0.29917455 0.040852964 3156782
1.5357318 0.30156448 0.040306926 2894118
1.5371974 0.30433333 0.039207458 2894629
1.5297956 0.2976746 0.040042348 3749431
1.5312388 0.30137208 0.038155377 3749440
1.5331041 0.30300766 0.038422883 3354158
1.5350274 0.30461609 0.03872937 2893104
1.5272 0.29979134 0.038413592 4473657
1.5294546 0.30077672 0.03749419 4210501
1.5238708 0.29708606 0.038013823 5394530
1.5204597 0.29557168 0.037157305 4606043
1.6410581 0.35380444 0.060773358 1052416
1.6407702 0.35321552 0.059632882 1186304
1.6421692 0.36775047 0.052984521 1251840
1.6383309 0.36672282 0.052495882 2171670
1.640067 0.36873847 0.052218482 2040334
1.6411636 0.37268054 0.05186753 856336
1.6308366 0.36182219 0.052722797 2499613
1.6331468 0.36250469 0.052261159 2171671
1.634249 0.36606687 0.052101299 2368536
1.6361401 0.36729482 0.052020356 2631698
1.6377 0.37029317 0.05150567 3026460
1.6393903 0.37158421 0.051045343 2697491
1.6275513 0.35905674 0.051714048 1709841
1.6292853 0.36198831 0.051953241 2038815
1.6309559 0.36386973 0.052244887 1447195
1.6317767 0.36577502 0.051777408 1644324
1.6375666 0.37418211 0.047746584 1118236
1.638441 0.37625247 0.048302457 854295
1.6164936 0.34608006 0.053061828 7695465
1.6172898 0.34795672 0.052418098 8815483
1.6177105 0.34920627 0.052666411 8158794
1.6204387 0.35282743 0.051327035 2041130
1.6211997 0.35474738 0.050766274 3091457
1.6239456 0.35820016 0.051210448 1581320
1.6245511 0.36036539 0.051516399 1119747
1.6263481 0.36194864 0.051474974 1776644
1.6301776 0.36865562 0.048084483 1644046
1.6321532 0.37023804 0.047673032 1512724
1.6328844 0.37251824 0.047781989 1512720
1.6350168 0.37507421 0.047503933 1381137
1.6361575 0.37689909 0.047575995 1380645
1.6377623 0.38091475 0.046759233 985888
1.6119946 0.34484494 0.052160256 2236686
1.6138822 0.34619558 0.052797362 4539172
1.6147094 0.34887898 0.052700624 4605211
1.6165814 0.35146552 0.052271292 5327436
1.618108 0.35365522 0.051432058 3949399
1.6199778 0.35663453 0.049863204 2894624
1.6208668 0.35838789 0.050408468 2501660
1.626267 0.36552238 0.047480986 1905700
1.6279948 0.36881498 0.047275588 1644310
1.6292837 0.3713837 0.047378048 1447435
1.6308709 0.37335476 0.048030421 1447446
1.6325248 0.37547138 0.04762505 1381653
1.6079092 0.34287933 0.052057497 2039809
1.6091683 0.34509081 0.052037828 1250570
1.6111522 0.34783345 0.05165606 1118728
1.6124072 0.35059124 0.051459417 1577998
1.6140382 0.35274124 0.05160968 4473868
1.6163712 0.35618663 0.050495908 7961958
1.6177738 0.35797894 0.049852178 7895670
1.6201468 0.36284131 0.047097906 920602
1.6224303 0.36539626 0.046561643 854532
1.6237152 0.36742771 0.046647117 788488
1.6253922 0.36971217 0.046431765 1381140
1.6262878 0.37190843 0.046078131 1250066
1.6039146 0.34193632 0.051186912 3091976
1.6056793 0.34287703 0.051642708 3355681
1.6089755 0.34853297 0.051280551 1119242
1.609926 0.35161892 0.050451331 1315848
1.6106969 0.35212588 0.047438733 393997
1.6130317 0.35558411 0.046861634 1316110
1.6149588 0.35873619 0.046512827 5260109
1.6163001 0.3610692 0.046986982 3948102
1.6180444 0.36315694 0.046715602 1578521
1.620056 0.36536437 0.046032771 1315601
1.6220337 0.36832961 0.046124741 526858
1.6236305 0.37008393 0.044779405 460553
1.5984932 0.33833635 0.050517969 2499355
1.6000406 0.33963647 0.050052397 2302747
1.6013019 0.34174675 0.05065506 3749658
1.608094 0.35247403 0.046875171 657420
1.6097507 0.35421628 0.047269873 460037
1.6111326 0.35729408 0.04626637 657668
1.6126026 0.36003581 0.046014532 3682087
1.614002 0.36267626 0.046175763 4866119
1.5945003 0.33728319 0.05001723 1444866
1.5966072 0.33779353 0.050162129 2433555
1.5976791 0.34118241 0.050321274 2697995
1.5990711 0.34408417 0.047193579 1840921
1.6006693 0.34568083 0.047663622 1907216
1.6021439 0.3476643 0.046805672 1643808
1.6039214 0.35070109 0.045983545 1380882
1.6054108 0.35326022 0.046094947 789511
1.607173 0.35556954 0.045720987 394755
1.6083766 0.35793972 0.046034925 394501
1.609928 0.360098 0.046076648 789005
1.6122385 0.363085 0.045012459 1380114
1.5933294 0.33745855 0.050151937 1643010
1.5943613 0.3404386 0.048066311 1776647
1.5954663 0.34223831 0.047639005 1907729
1.5969237 0.34450948 0.047160797 1906722
1.59848 0.34662229 0.047155552 4274481
1.6001741 0.34927374 0.046238594 2433300
1.6023074 0.35228777 0.045493238 1118223
1.6032165 0.35361189 0.046048574 1052940
1.6053928 0.35637426 0.045798413 592390
1.5866213 0.33366966 0.047478311 1578783
1.588236 0.33639434 0.04697936 1054493
1.5902311 0.33829695 0.046428852 921355
1.5920581 0.34029531 0.047019057 1052936
1.5933293 0.34302056 0.046068542 986897
1.5945206 0.34536752 0.046270721 1249292
1.5978324 0.35060167 0.044644885 2564408
1.5993291 0.35292193 0.044488184 3092000
1.5831267 0.33187521 0.046903603 4801889
1.5841991 0.33450195 0.047048323 3157788
1.5855319 0.33674878 0.046442024 1249819
1.5876813 0.33915377 0.045772605 1184019
1.5897483 0.34194589 0.045163088 723981
1.5907098 0.34401381 0.045106463 329478
1.5915561 0.34591472 0.045518033 132864
1.5788691 0.33000374 0.045774274 1578774
1.5806113 0.33278868 0.046077304 2696746
1.5821164 0.33531094 0.045420937 3881513
1.5835476 0.33773038 0.045873098 987405
1.5859892 0.34010339 0.045894019 1512211
1.5873473 0.34281981 0.044711642 1117994
1.58882 0.34555238 0.044365399 723983
1.5900604 0.3474617 0.044495933 132608
1.5749339 0.32885879 0.045275621 526090
1.5768746 0.33179715 0.045318536 854792
1.5784651 0.33384949 0.045409553 986640
1.5797043 0.33633333 0.044318549 921352
1.5806712 0.33860987 0.044779949 987403
1.5636277 0.31617838 0.046387136 1380615
1.5647776 0.31763446 0.046656132 1052435
1.5669489 0.32013777 0.046328306 986647
1.5677327 0.32294011 0.045516491 789519
1.5691102 0.32539213 0.044858634 657931
1.5713744 0.32791859 0.04432565 657921
1.5725068 0.33011585 0.044773452 920326
1.5741994 0.33236602 0.044757001 1051662
1.576714 0.33518934 0.042116575 395008
1.5775896 0.3375386 0.043067746 921859
1.5589722 0.31381631 0.046201587 1446427
1.5608115 0.31631792 0.046541572 1315603
1.5625685 0.31902224 0.045929611 1118217
1.5645397 0.3211762 0.045618594 986634
1.5658319 0.32396883 0.045281827 855307
1.5674958 0.32632205 0.043831587 986378
1.5683652 0.32842726 0.043702066 854789
1.5709776 0.33127421 0.043930411 1183494
1.5736022 0.33627671 0.041030698 657667
1.5753584 0.33826548 0.04186105 592898
1.5557129 0.31329703 0.045218468 591879
1.556775 0.31503439 0.045602083 723211
1.5586988 0.31722385 0.045797884 1249285
1.5600817 0.3199428 0.044566274 1184003
1.5615568 0.3220953 0.043759167 854793
1.5637007 0.32463831 0.043421984 723467
1.5652316 0.32714134 0.043291986 789771
1.5667629 0.33015776 0.043218017 658437
1.5691088 0.33161771 0.041319728 394758
1.570228 0.33463341 0.040799916 526086
1.5718048 0.33745682 0.041197769 723479
1.551347 0.31183231 0.044225335 1117973
1.5531057 0.31365556 0.044654071 657673
1.5547607 0.31583998 0.04464376 394249
1.5559485 0.31796545 0.044765174 460802
1.5579287 0.3214764 0.042965114 657410
1.5475754 0.31034392 0.043721378 1248785
1.5492188 0.3120482 0.043915689 1446423
1.5507114 0.31444359 0.044180155 1512475
1.5526419 0.31740254 0.044098318 525835
1.5546503 0.3203159 0.040894568 263172
1.5550872 0.32187462 0.04195255 262912
1.5422074 0.30669916 0.043050468 1445659
1.5436453 0.30823976 0.043421447 1380119
1.5457966 0.31047297 0.043409348 1446162
1.5471179 0.31285325 0.042973101 1643531
1.5479342 0.31505936 0.043567121 1118481
1.553106 0.32232887 0.041718006 328192
1.5367292 0.30262545 0.042964935 1380884
1.5382013 0.30447125 0.042684317 1183504
1.5398198 0.30685121 0.042724371 1248788
1.5416877 0.30939931 0.042339623 1447441
1.5429578 0.31152883 0.041631162 1314833
1.5447359 0.31398985 0.042769194 1971203
1.5327364 0.30098784 0.042373538 2103853
1.5344386 0.30315137 0.042350531 1775126
1.5361511 0.30554074 0.041913152 1183759
1.5374367 0.30822837 0.041407168 593672
1.5398667 0.31008771 0.04189992 1183752
1.5274305 0.29729474 0.04152555 2697262
1.5290824 0.29963508 0.041601188 2432809
1.5304332 0.30149144 0.041726358 2169376
1.5318372 0.30409539 0.040920436 1840922
1.5340117 0.30598569 0.040626347 1447189
1.5348939 0.30811051 0.041185319 1052688
1.5250149 0.29764777 0.040981837 2960174
1.5266166 0.30015922 0.040838845 2893086
1.5282831 0.30269551 0.04016722 2235930
1.5210956 0.29633686 0.040463395 3946543
1.5229881 0.29881579 0.039694078 3617843
1.5242913 0.30129445 0.039732523 2630179
1.5173173 0.29474726 0.039473303 4276275
1.5191599 0.29804939 0.038640328 4013367
1.520771 0.2999689 0.038907714 3288887
1.5132785 0.29323506 0.038433857 4671562
1.5148464 0.29588604 0.037654884 4606028
1.5147616 0.29817051 0.037840493 4275767
1.5094445 0.29224783 0.037444361 4277060
1.5111687 0.29480308 0.037273474 5396033
1.5130328 0.29722092 0.037151285 4803657
1.633267 0.36790261 0.053648099 3158041
1.6346732 0.36808598 0.054088756 3223588
1.6361024 0.37155384 0.052459106 3025959
1.638111 0.37379068 0.052225754 2433823
1.639843 0.37675309 0.051944718 1841947
1.640734 0.37909114 0.051989064 2699020
1.6294885 0.36517596 0.052264914 2697264
1.631011 0.36743543 0.05305545 2960418
1.6326884 0.37059426 0.05294691 3223841
1.6345098 0.37334341 0.05255501 3026213
1.6357503 0.37406456 0.052623853 2894373
1.6377205 0.37824869 0.050633833 723725
1.6387041 0.38050076 0.050992891 1579547
1.6401798 0.38162926 0.050546512 790278
1.6257911 0.36354014 0.052431628 2039826
1.6276947 0.36650628 0.052596137 2500638
1.628561 0.36977926 0.052055463 2895127
1.6307019 0.3718414 0.051945612 3092262
1.6329199 0.37386709 0.051887676 3092002
1.6333491 0.3766591 0.048770353 1511703
1.6348048 0.37824047 0.049607262 1117713
1.6366382 0.38179871 0.047658488 789012
1.6373771 0.38378328 0.048380777 657937
1.620221 0.36022002 0.052431449 2040339
1.6218897 0.36254406 0.052406237 1973778
1.6232497 0.36521459 0.052249417 1052944
1.6249534 0.36655298 0.051770017 1249816
1.6274879 0.37065876 0.051381096 2434846
1.6282991 0.37242019 0.048995242 1907213
1.6296124 0.37505209 0.048205897 1381643
1.6311707 0.37735111 0.048105881 1381141
1.6331869 0.37964952 0.048312709 1118232
1.6348407 0.3817662 0.047907278 986646
1.6062895 0.34382921 0.053405099 2370331
1.613408 0.35369417 0.051627323 4210963
1.6150876 0.35644177 0.050661728 6646098
1.6161221 0.35914451 0.050530836 4211251
1.6179001 0.36022544 0.051624283 2039318
1.6202369 0.36503464 0.048231289 1054742
1.6239811 0.37211764 0.046838507 394758
1.6258103 0.37282407 0.047744796 986126
1.6271037 0.37630472 0.047299728 1315088
1.6285963 0.37834755 0.047636196 1249565
1.6038952 0.34451526 0.053332143 3026972
1.6063789 0.34581035 0.052828662 1515540
1.6074362 0.34922105 0.051553302 1316627
1.6102414 0.35255623 0.051119737 1315844
1.6110892 0.35507348 0.051272146 1643793
1.6130888 0.3564437 0.051379904 3023663
1.6148946 0.35935971 0.05068104 3090993
1.6160344 0.36237508 0.051094517 1973260
1.617011 0.36465704 0.047381148 1315106
1.6184204 0.36679518 0.047805235 1381141
1.6199954 0.36948946 0.047279641 724493
1.6217778 0.37205482 0.046780154 460809
1.6233269 0.37459058 0.046617493 395013
1.6251628 0.37692213 0.046996996 921093
1.600794 0.34397811 0.05274301 5194835
1.6019975 0.34656137 0.052726321 2894905
1.6043268 0.34928897 0.051162712 2894372
1.6057423 0.35132098 0.050218157 2894876
1.6071954 0.35332692 0.050227515 1710862
1.6084194 0.35585138 0.050479524 1249289
1.6118029 0.36088771 0.047303364 1446151
1.6135182 0.36414069 0.047294304 1577753
1.6151141 0.36560166 0.047653422 1644063
1.6164171 0.36847174 0.047615334 1184031
1.6186032 0.37078696 0.047181293 1314577
1.6197699 0.37503541 0.046297893 330521
1.6208427 0.3744505 0.046215281 329999
1.6225415 0.37748379 0.045228705 263680
1.5970075 0.34213483 0.050834171 2828568
1.5988134 0.3443076 0.050916128 5852458
1.5987502 0.3468231 0.051231258 4208936
1.601171 0.34921825 0.051066034 3553081
1.6035986 0.35215917 0.050597899 2895386
1.6045978 0.35510057 0.047152214 920583
1.6048213 0.3564159 0.047644131 329473
1.6078722 0.35998601 0.046317808 854795
1.6094302 0.36149627 0.046615176 1315859
1.6109462 0.36402047 0.046940736 1578257
1.6127992 0.36687827 0.047124311 1445405
1.5959755 0.34546351 0.049332969 2235663
1.5973275 0.34833008 0.049224071 3815190
1.5992376 0.35058156 0.048286252 3488582
1.6003375 0.35328436 0.047077887 1249293
1.60225 0.35528409 0.046783082 921110
1.6034675 0.35764831 0.046816699 986386
1.6057147 0.36044908 0.046176367 592651
1.6068649 0.36363232 0.046183161 1184533
1.6083856 0.36620986 0.045721225 1447701
1.5871369 0.33857453 0.05091875 2764311
1.5891951 0.33885258 0.049777918 2764310
1.5902302 0.34209347 0.048847429 2106890
1.5921124 0.3440907 0.048766725 790279
1.5936116 0.34653658 0.048175208 1117446
1.5949177 0.34909239 0.047611706 1644556
1.596709 0.35160342 0.04721605 4670521
1.5984384 0.3544603 0.046638422 3879225
1.6001838 0.35581511 0.046381943 2366012
1.6022102 0.3589831 0.046398573 1052438
1.6035681 0.36164078 0.045946293 593163
1.5852987 0.33809748 0.048056893 1512488
1.5863302 0.34095755 0.048702709 1447449
1.587729 0.34308743 0.047703855 1249557
1.589882 0.34547305 0.047224037 526085
1.5912369 0.34783393 0.046356015 197633
1.5927229 0.34989884 0.047051959 460801
1.5941756 0.35340661 0.045222573 788484
1.5960724 0.35455182 0.045508914 4994863
1.5799751 0.33507881 0.046814017 1709837
1.580909 0.3370567 0.047642641 1775385
1.5828862 0.33912784 0.047223203 1513237
1.5845653 0.34167355 0.047110848 1512467
1.5856283 0.34418568 0.045534365 921102
1.587626 0.34680712 0.045493238 592137
1.5889125 0.34873724 0.046028487 263427
1.5906276 0.35162401 0.045121364 197635
1.591756 0.35344535 0.045581989 328965
1.5770465 0.33565676 0.046305589 1907214
1.5786645 0.33742595 0.046500854 1644050
1.5803087 0.34010875 0.046179049 1382686
1.5821871 0.34262842 0.046877854 5064530
1.5852411 0.34778023 0.045097224 658689
1.571527 0.33107686 0.045623355 1051907
1.5735738 0.33366966 0.045626573 855303
1.5750412 0.33637956 0.045902781 1249289
1.5760478 0.33875608 0.045996539 1117710
1.5779083 0.3408047 0.044767074 988421
1.5597219 0.31758624 0.047610164 1184026
1.5611193 0.3194887 0.047629952 1184022
1.5624025 0.32259676 0.046287358 987145
1.5642227 0.32472488 0.046670079 1051917
1.5660665 0.32810947 0.044556558 1052440
1.5675132 0.3299641 0.044992745 854793
1.5695195 0.33266509 0.04523319 1118212
1.5709232 0.33499193 0.044919908 1250055
1.5728393 0.33741462 0.045376711 527110
1.5741732 0.34000921 0.043309383 526855
1.5761226 0.34137321 0.043734722 921863
1.5567864 0.31687582 0.047057271 789523
1.5577346 0.31834826 0.047280848 1052170
1.558771 0.32145527 0.046496749 1118985
1.5609248 0.32383502 0.046091795 2235688
1.5622786 0.32610974 0.04599458 2104124
1.564227 0.32881367 0.045021296 789261
1.5655912 0.33089983 0.044982076 986893
1.5674717 0.33315063 0.044836879 1315081
1.5687956 0.33604497 0.043251634 921102
1.5699519 0.33869678 0.042324841 986387
1.5717293 0.33981133 0.043089144 920851
1.5517354 0.31438571 0.046196103 788234
1.5539175 0.3171013 0.046425045 394248
1.5553102 0.32004827 0.045795977 460806
1.5568277 0.32215607 0.045491397 657670
1.5587535 0.32488811 0.045368731 3681065
1.5606545 0.32742488 0.045692384 5586784
1.5619154 0.33042285 0.044659197 2765604
1.5631931 0.33264932 0.044217467 1514498
1.5648644 0.33489126 0.042427719 723972
1.5665102 0.33671182 0.042366743 920835
1.567979 0.33892119 0.042726576 1314822
1.5460808 0.3119522 0.04627502 1117967
1.5477322 0.31366134 0.045961142 1249046
1.5497177 0.31603304 0.045467317 854802
1.5516647 0.31880575 0.045023382 592397
1.5526941 0.32088572 0.044694722 394765
1.5547327 0.32312247 0.044320405 262913
1.5556676 0.32603005 0.043883562 394752
1.5598265 0.33096239 0.043912351 5461835
1.5614246 0.3326762 0.042729557 4940584
1.5424839 0.31010151 0.045261502 1643816
1.5442901 0.31218886 0.045232713 1380629
1.5455008 0.31421584 0.045411229 1183496
1.5475227 0.31673402 0.044174254 986893
1.5488554 0.319381 0.043988168 658183
1.5501136 0.32219335 0.043085337 591633
1.5520856 0.32433367 0.042273879 328710
1.5529768 0.32659736 0.042203486 262912
1.5369439 0.30595553 0.044328332 920587
1.5386705 0.3085531 0.044124067 1117964
1.5401155 0.31048417 0.044441819 1314836
1.5417755 0.31263894 0.044433653 1249800
1.5437129 0.31600398 0.043355167 1184260
1.5450952 0.31687677 0.044063985 921350
1.5491214 0.32331812 0.042764843 787727
1.5494345 0.32567212 0.04214859 460546
1.5319109 0.30265337 0.043738723 1249819
1.5333207 0.30442297 0.044546664 1249044
1.5349982 0.30708149 0.04440558 1183508
1.5366669 0.30946308 0.043741107 526089
1.5379502 0.31139129 0.04312408 395009
1.5382687 0.3137207 0.043360293 394496
1.5425144 0.31699073 0.042788506 1249280
1.5279915 0.30163699 0.043410845 1315866
1.5293062 0.30309179 0.0440116 1381138
1.5308264 0.30527985 0.042772591 1446419
1.5324903 0.3081893 0.042304277 1644311
1.5345201 0.31060392 0.042244971 987405
1.5357449 0.31320506 0.042619169 328965
1.5220613 0.29716626 0.042730279 2236463
1.5239385 0.29911131 0.043092258 1643822
1.5255634 0.30172259 0.042759903 1381143
1.5271182 0.30413288 0.042326696 1249797
1.5287789 0.30588254 0.042769857 1381649
1.5307127 0.30901843 0.042854369 2038813
1.5324244 0.31125498 0.04186821 1579535
1.5185727 0.29534113 0.042433389 2695724
1.5201405 0.29778308 0.042496569 2367012
1.5217628 0.30030483 0.042209096 1972508
1.5231476 0.30271935 0.041598506 1446935
1.5246803 0.30447036 0.04123307 1053195
1.5146151 0.29414588 0.042021222 2893868
1.5161985 0.29636472 0.041674562 2959394
1.5177264 0.29863971 0.041615672 2169372
1.5192345 0.30159634 0.040509053 1973021
1.521103 0.30366257 0.040206142 1446679
1.5224644 0.30556548 0.040979035 1118481
1.5127035 0.29522133 0.040945359 3485218
1.5140388 0.29662704 0.041435964 3090459
1.5157812 0.29966351 0.039128549 2630436
1.5167497 0.30244356 0.039687224 1512473
1.5080447 0.29387438 0.039869733 4340021
1.5103745 0.29566446 0.039640792 4077100
1.5114421 0.29806083 0.038538761 3684133
1.5130461 0.30036229 0.038980074 1906455
1.5050297 0.29214698 0.039493687 4670785
1.5063329 0.29430851 0.039900608 4011807
1.6360028 0.37469688 0.053847179 2894389
1.6385628 0.37770069 0.053482875 1447452
1.6408659 0.38093245 0.052890286 3683078
1.6403822 0.38308999 0.053967699 4537358
1.6331304 0.37449232 0.052976176 2697764
1.634981 0.37683868 0.053338096 2829092
1.636286 0.37901506 0.052981064 1973266
1.6381205 0.3813448 0.052755281 1513481
1.6388366 0.38531697 0.052629039 1117982
1.6402988 0.38545936 0.051125333 1974023
1.6261761 0.36744401 0.053591177 2565399
1.6294184 0.37209651 0.052111432 2960676
1.6307555 0.37542105 0.052205786 2829603
1.6322483 0.37716368 0.052578852 2632218
1.6340895 0.37969571 0.051866874 1776401
1.6354029 0.38210666 0.051645324 657666
1.6388893 0.38539848 0.05067943 920599
1.618356 0.36128494 0.05361484 2171145
1.6205992 0.36358947 0.054004297 2236942
1.6242684 0.36780447 0.052834079 1118470
1.6251593 0.37061012 0.051543519 1183504
1.6268992 0.37371543 0.051978096 2302228
1.6291081 0.37590057 0.052059576 2829337
1.6302347 0.3789292 0.049956605 1446419
1.6318521 0.3808434 0.050196275 1446674
1.6330801 0.38392982 0.048741028 1249555
1.6351269 0.38580856 0.048707351 920581
1.6375639 0.39040172 0.047439262 854537
1.614488 0.36192447 0.054050073 3222553
1.6169089 0.36250085 0.053039715 2367757
1.6185806 0.36364496 0.05368112 2828309
1.620556 0.36775383 0.051936015 2500887
1.6219487 0.36972576 0.052291378 1644302
1.623332 0.37241822 0.051680967 1183239
1.6246334 0.37385046 0.052478775 1775633
1.6263502 0.37778544 0.049050793 1184516
1.6281458 0.37972265 0.049276456 1381395
1.6292124 0.38231435 0.048957512 1315620
1.6319656 0.38520414 0.048405156 1052691
1.6333674 0.38718924 0.048604771 921102
1.6350662 0.3902227 0.047618315 1183744
1.635972 0.39169964 0.04710947 855045
1.6373363 0.39499754 0.046807215 330245
1.6098031 0.35667568 0.052154832 2234386
1.6108655 0.35779762 0.052320234 2104846
1.6130656 0.36100036 0.052555129 2105359
1.6138341 0.36374563 0.053121135 4273446
1.6157978 0.36720347 0.051361844 5262600
1.617844 0.36888129 0.051654086 2631719
1.6206286 0.37409616 0.047636136 592137
1.6223879 0.37637779 0.047189102 262923
1.6238747 0.37807107 0.048109934 657922
1.6257442 0.38007307 0.048338398 1118731
1.6071689 0.35744518 0.052382521 1971990
1.6088614 0.35954374 0.052485339 2302233
1.6108013 0.36178941 0.051551037 2499862
1.6134095 0.36751586 0.049051389 1972501
1.6159207 0.36939579 0.049013123 1315362
1.617437 0.37166393 0.047945663 1052184
1.6181439 0.37448719 0.047799632 855057
1.6205195 0.37687343 0.047239169 526090
1.6215287 0.37998876 0.047145948 329218
1.6006966 0.35015619 0.051338606 3358838
1.6018634 0.3534559 0.051216774 3025712
1.6040372 0.35572982 0.051252954 2301457
1.6057247 0.35668981 0.051501505 1380875
1.6100487 0.36601871 0.048215263 1709586
1.611446 0.36801949 0.048304185 2893092
1.6131502 0.37082413 0.047878966 3550777
1.6148282 0.37335941 0.048302636 1248314
1.6163772 0.37494248 0.047438547 1052688
1.6174736 0.37734804 0.047007188 855309
1.5966266 0.35017186 0.051097982 5725221
1.5987449 0.35235316 0.050777607 7567479
1.5992703 0.35373896 0.051350825 3750217
1.6016284 0.35716704 0.048307411 986144
1.6041934 0.36228532 0.04671859 1117953
1.6060083 0.3651171 0.046670608 394254
1.607692 0.36654252 0.047074966 1184022
1.60892 0.36941665 0.047043614 1314569
1.6101621 0.37218243 0.046968035 3287329
1.5910324 0.34585503 0.05021029 658691
1.5923585 0.34858143 0.050190859 1380621
1.5942341 0.35046464 0.050303213 2104077
1.596306 0.35297066 0.05137872 6316104
1.5973277 0.35577619 0.047450773 6246492
1.5990118 0.35789198 0.048032634 1446683
1.5999377 0.36084539 0.047932439 1117724
1.6022421 0.36239499 0.046952479 986888
1.6038582 0.36534894 0.046474032 460556
1.6053816 0.36817464 0.046336345 263172
1.6065166 0.37011743 0.046621673 460802
1.5819649 0.33872867 0.052380793 8809560
1.5840122 0.33892745 0.052100711 8088394
1.5861425 0.34150749 0.05040925 4078383
1.587217 0.34382951 0.049951904 2302997
1.5892251 0.34667236 0.050124817 1908501
1.5901129 0.34878334 0.048750274 789259
1.5917768 0.35148025 0.048005454 657409
1.5933942 0.35378593 0.047618262 1380618
1.5953377 0.35676405 0.04691153 3942686
1.5965883 0.35908741 0.047725849 1906203
1.6005031 0.36450255 0.046644919 1447197
1.6018062 0.36572552 0.046136193 789784
1.6036032 0.36872631 0.045751207 591632
1.5810745 0.3408258 0.050101988 7168845
1.5834124 0.34247544 0.048894875 2434333
1.5849432 0.34495735 0.048887722 855304
1.5864925 0.34789008 0.048384301 658693
1.5882365 0.35018045 0.047387771 329475
1.5894498 0.35293913 0.047173969 591875
1.5911496 0.35519403 0.045977227 394760
1.5926504 0.35740376 0.046588533 1052692
1.5777248 0.33876365 0.048030727 3817543
1.5792347 0.34155124 0.04787647 5789528
1.580918 0.34406763 0.047733478 4670012
1.5820107 0.34613118 0.047826044 2105354
1.5839276 0.34900981 0.046991281 723737
1.5859574 0.3512741 0.046397023 592140
1.5876333 0.35403037 0.04587727 460802
1.5886525 0.35619864 0.045476966 395269
1.5904508 0.35799891 0.045901351 1052439
1.5745225 0.33825898 0.047538392 788994
1.5756714 0.34005779 0.047348075 1183758
1.5771866 0.34290218 0.046601765 3683628
1.5783161 0.34497088 0.046883158 4207684
1.579923 0.3486641 0.046678118 1183257
1.5820831 0.35086459 0.046443753 328218
1.5715297 0.33846217 0.046053343 658187
1.5732054 0.34124145 0.04611855 460805
1.574618 0.34380719 0.045641057 329218
1.5757397 0.34643626 0.045766585 788484
1.5577462 0.32280329 0.047659576 1913620
1.560542 0.32572305 0.047077477 5598357
1.5615803 0.32677156 0.047612786 3027497
1.5643003 0.33235544 0.045788586 1117969
1.5657966 0.3350172 0.045482516 1315086
1.5681989 0.33753693 0.045252204 1381387
1.5691823 0.33987081 0.045091689 1183771
1.5707513 0.34215632 0.044750445 789524
1.5718354 0.34404168 0.045382254 460308
1.5543876 0.32124659 0.047530651 394504
1.5560923 0.32370579 0.047449946 1315096
1.5573146 0.3259314 0.046864748 3025445
1.5591966 0.32805705 0.046575606 3946818
1.5605729 0.33114389 0.045882523 1116974
1.562127 0.3329615 0.045721829 920849
1.5636094 0.33577734 0.045031548 1315603
1.5654243 0.3385877 0.04421103 1184520
1.5667644 0.34101874 0.043927073 1117961
1.5684065 0.34378609 0.044341981 1315080
1.5467715 0.31519696 0.04758352 1183242
1.5485995 0.31777662 0.046889305 1116945
1.5500231 0.3182328 0.04653132 854282
1.5511317 0.32236132 0.046228707 460298
1.5531824 0.32439518 0.046172082 394502
1.5549691 0.3267585 0.045629442 591363
1.5568721 0.3293412 0.044913173 1183236
1.5581137 0.33244687 0.044552386 1249042
1.5599107 0.33449519 0.044184089 1578257
1.5614754 0.33724362 0.044202745 1315346
1.5633945 0.34048712 0.043337643 790532
