# .PCD v0.7 - Point Cloud Data file format
VERSION 0.7
FIELDS x y z rgba
SIZE 4 4 4 4
TYPE F F F U
COUNT 1 1 1 1
WIDTH 1186
HEIGHT 1
VIEWPOINT 0 0 0 1 0 0 0
POINTS 1186
DATA ascii
1.4909633 0.35499737 0.035111587 1053472
1.4942112 0.35658932 0.033260722 1777186
1.4972771 0.35772327 0.032074314 2897991
1.4993795 0.35908362 0.031409848 2899288
1.5018516 0.36040756 0.031193204 3031138
1.5044692 0.36151117 0.030748244 2768484
1.5071832 0.36277917 0.029576637 1582925
1.5095545 0.36430979 0.028640348 527901
1.5122271 0.36552197 0.028018035 1646893
1.5148034 0.36669451 0.027908821 2042682
1.5165939 0.36804518 0.027935456 2239291
1.4803035 0.35086948 0.034883812 4999250
1.4820056 0.35276943 0.035221551 4737366
1.4851342 0.35390547 0.035117138 2895940
1.4878545 0.35534775 0.032764751 2173241
1.4904386 0.3567737 0.031811822 790557
1.4928617 0.35811278 0.031175852 2371134
1.4954009 0.35903403 0.031089578 2767441
1.4979007 0.36039561 0.031078268 2965083
1.5003669 0.36193943 0.030532405 2965354
1.4729602 0.35058749 0.034838181 1053218
1.4758774 0.35149196 0.034788217 592403
1.4786178 0.35234413 0.034181315 2633015
1.4810367 0.3538605 0.031417567 4872061
1.4830415 0.35522255 0.031247944 2833245
1.4860241 0.35669631 0.030587982 1120815
1.4886655 0.35818461 0.030495606 461585
1.4912766 0.35899779 0.03076937 1580837
1.4933039 0.36011747 0.030788228 2635601
1.4622432 0.34682024 0.035495859 4477270
1.4633882 0.34640193 0.035802055 5859699
1.4665692 0.34889472 0.03464869 6121320
1.4694126 0.35036594 0.034560014 5528930
1.4717593 0.35179788 0.034531932 1711664
1.4744966 0.35275462 0.031402789 2107707
1.4770458 0.35415649 0.031318165 3687513
1.4794675 0.35573405 0.031204302 3951727
1.482048 0.3569496 0.030805547 2373468
1.4847859 0.35845497 0.030220095 1055804
1.487295 0.36013487 0.030112151 197892
1.454548 0.34557399 0.035547175 1581368
1.4578041 0.34660369 0.035096828 592663
1.460317 0.34802228 0.035120569 1646116
1.4629691 0.34935191 0.03408413 4213840
1.4653537 0.35039598 0.03273239 5201771
1.4680448 0.35181361 0.031335812 2764871
1.4704136 0.35322216 0.031003974 659224
1.4729036 0.35448104 0.030671369 1054234
1.4755218 0.35582188 0.030692879 3292746
1.4782745 0.35737565 0.030882176 3621200
1.4469031 0.34260505 0.035898294 5859948
1.4481978 0.34444103 0.035998564 5661538
1.4509186 0.34564221 0.035447948 6318196
1.452914 0.34639668 0.035451006 4278369
1.4563134 0.34833804 0.033879999 1054240
1.458693 0.3493869 0.032212742 2570056
1.4612502 0.3506045 0.03190219 4546680
1.4636241 0.35221577 0.031375024 5399679
1.4663882 0.35310784 0.030788805 2963804
1.4689482 0.35480189 0.029952113 198418
1.4709647 0.35575074 0.030461095 395017
1.4239606 0.33397949 0.040419187 2041116
1.4254141 0.33395505 0.040502295 4738116
1.4287312 0.33599415 0.039520357 6646883
1.4314641 0.33797568 0.039232429 3687995
1.4341899 0.3392348 0.038833048 2174003
1.4357041 0.34026518 0.039509114 1382441
1.4387412 0.34111756 0.035259392 329750
1.4414269 0.34307876 0.035486691 987671
1.4443812 0.34424379 0.035359055 4016461
1.4472203 0.34546322 0.033789787 6845305
1.4493196 0.34713086 0.032668103 6909836
1.45207 0.3484163 0.031562988 1119782
1.454549 0.34956953 0.031465564 856857
1.4573654 0.35085008 0.031389069 3295063
1.4600381 0.35238448 0.031476717 4612986
1.4631469 0.35414094 0.030979179 7305373
1.4659836 0.35543782 0.029882628 1912406
1.4145319 0.33101341 0.04140345 2436925
1.4176782 0.33289528 0.040715065 1909538
1.4190639 0.332822 0.040527996 856595
1.422313 0.33482942 0.039642897 922137
1.4267403 0.33637372 0.039433818 6975335
1.4273558 0.33830297 0.038558986 4870729
1.4296931 0.33909848 0.03728392 4805223
1.4327487 0.34073788 0.035743143 2634811
1.4353209 0.3422749 0.035489928 1646380
1.4379816 0.34295151 0.035458129 395287
1.4403453 0.34464493 0.033114746 2107448
1.4429327 0.34578079 0.032625653 4413553
1.4455242 0.34706673 0.032273877 4479346
1.4480101 0.34855878 0.031421974 3425122
1.4504632 0.3500492 0.030879382 396318
1.4530104 0.35116664 0.030764777 395787
1.455435 0.35202873 0.030710649 2109502
1.4092669 0.33019459 0.040951084 5398351
1.4124641 0.3320958 0.040098291 4871293
1.4156144 0.33437726 0.039762106 2567742
1.4184247 0.33562985 0.039290864 1514007
1.4207793 0.33693406 0.038684234 658702
1.4242334 0.33806604 0.038449399 1185564
1.4258093 0.3394306 0.035915263 4278082
1.4287108 0.34081212 0.035201412 4673891
1.4307419 0.34183958 0.03430194 2043460
1.4334674 0.34371358 0.03350224 1383973
1.4363049 0.34479755 0.03210729 922395
1.4389064 0.34600854 0.031805068 2766919
1.4414803 0.34742844 0.031862706 4283255
1.4443371 0.34907871 0.031741563 7636900
1.4468637 0.35024771 0.031005129 4872063
1.4035847 0.32983387 0.039632291 592658
1.4069552 0.331119 0.040180217 3094838
1.4093581 0.33303568 0.039549027 5529455
1.4114181 0.33451083 0.039651763 6581625
1.4139513 0.33531907 0.038140122 3619671
1.417161 0.3374953 0.035346512 1712432
1.4195813 0.33864889 0.035472624 527382
1.4223326 0.3395142 0.035104912 1317409
1.4248163 0.34102258 0.033459272 5596289
1.4270371 0.34219557 0.032731101 3952761
1.4295719 0.34357631 0.032094926 2109783
1.4321744 0.34499666 0.031420641 462109
1.4347287 0.34640932 0.030903358 198153
1.4368938 0.34719095 0.031080879 1450021
1.3927245 0.3266066 0.041023739 5789292
1.3958131 0.32861066 0.040179685 3817043
1.3979139 0.32907453 0.039912738 2436916
1.4003319 0.33081245 0.039853144 1252130
1.4035343 0.33162612 0.039948937 527122
1.4057957 0.33341157 0.038427148 922387
1.4086542 0.33422264 0.037265081 5528151
1.4105535 0.33552405 0.035796132 6646152
1.4125569 0.33768499 0.035221919 3818330
1.415246 0.33854374 0.034749437 1647662
1.4183018 0.33989364 0.033232722 1186086
1.4205085 0.34109297 0.032614194 2766661
1.4230829 0.34245023 0.032382641 5268101
1.4257458 0.34379247 0.032028217 3362430
1.4284163 0.34541038 0.031255245 2045799
1.4309585 0.34660864 0.030460496 331568
1.4325343 0.34731019 0.030107219 66573
1.3883882 0.32685712 0.040869541 1909792
1.3907249 0.32808074 0.04101241 4672840
1.3940854 0.32954612 0.040407464 5198967
1.3965235 0.33034566 0.040056497 3030342
1.3985757 0.33167219 0.036560509 1713969
1.4014335 0.33374065 0.036281038 330008
1.4037913 0.33481738 0.035912227 395532
1.4063141 0.3360334 0.035131272 3555146
1.4088608 0.3373864 0.034053244 5595518
1.4111582 0.33861446 0.03303406 2175316
1.4140149 0.34010622 0.032176264 593952
1.4167124 0.34121865 0.031677458 329483
1.4193239 0.34277278 0.031814545 2503229
1.4216146 0.34401417 0.031563338 5665174
1.3779305 0.32367128 0.040316429 3554388
1.381705 0.32546639 0.040040914 1581613
1.3844175 0.32725394 0.040256049 528151
1.3870716 0.32843208 0.040670466 922136
1.3924444 0.33089057 0.036893111 6646136
1.3945709 0.33207822 0.036247704 4081246
1.3971423 0.33345437 0.035922125 1713202
1.4000608 0.33473048 0.034734558 395795
1.4022615 0.33630544 0.033595096 2174265
1.4047787 0.33755389 0.032943215 4544112
1.407304 0.33889961 0.032798693 4479106
1.4103251 0.34024826 0.03209769 1848413
1.4127226 0.34158155 0.031148318 660528
1.4147494 0.34276652 0.030850824 66059
1.4171532 0.34410045 0.03104078 132870
1.3722872 0.32282239 0.040655613 4672841
1.3752118 0.32464516 0.040305141 6974593
1.3780797 0.32619265 0.039969549 4475990
1.3803067 0.32719868 0.039856177 1911607
1.3857398 0.33016151 0.035472415 2108228
1.3877633 0.33119285 0.035640117 1975856
1.3904051 0.332344 0.035065539 4871789
1.3929393 0.33370909 0.034208134 3095642
1.3956326 0.3348538 0.033229005 725795
1.3982793 0.33644789 0.032415468 329742
1.4006552 0.3376866 0.032097798 1317668
1.4030428 0.33932507 0.032313135 4608616
1.3606639 0.31958944 0.041475087 2766918
1.3632294 0.32031831 0.041018415 1911349
1.3663219 0.32180437 0.040923756 593438
1.3685657 0.32369983 0.040617801 725017
1.3714458 0.32519236 0.040338513 2436138
1.3738229 0.32614115 0.038754243 6711158
1.37649 0.3269321 0.036922198 5264236
1.37862 0.32818604 0.036170084 1976884
1.3815249 0.33004352 0.03535853 988706
1.3839066 0.33105877 0.034991074 1911362
1.3865604 0.33259207 0.03373573 3558247
1.3890744 0.33410475 0.033338118 4413821
1.3915185 0.33548552 0.032819565 2506351
1.3943681 0.33662382 0.032278236 923965
1.3964992 0.33808142 0.031729791 131849
1.3986651 0.3388924 0.031181093 132100
1.3523724 0.3170265 0.041582081 1317404
1.3546721 0.3179988 0.042196967 5923156
1.3565866 0.31964606 0.041509263 6514809
1.3594643 0.32131365 0.041143183 4542318
1.3625079 0.32266062 0.040750369 2043191
1.3676513 0.32498848 0.036369499 263689
1.370185 0.32683733 0.036107589 3226181
1.3723861 0.32751936 0.03616095 5464447
1.3747891 0.32887426 0.03553747 4082284
1.3775418 0.33029076 0.034672488 923169
1.3799747 0.3313241 0.033998448 527639
1.3824084 0.3327727 0.032935072 1581615
1.3850694 0.33425269 0.032721363 3557737
1.3874528 0.33567369 0.032758355 5267348
1.342744 0.3143478 0.042416289 2436667
1.3450302 0.31640437 0.04154237 2041654
1.3476158 0.31690654 0.041146506 922408
1.3502883 0.31863636 0.041018181 527383
1.3525875 0.32027107 0.040983636 1646626
1.3560631 0.32262769 0.040526137 5462885
1.3573657 0.32259363 0.038383607 6581893
1.3603109 0.32376197 0.037080575 2306626
1.3632511 0.32520917 0.036300804 1120805
1.3654159 0.32663023 0.035614748 1976900
1.368238 0.3276718 0.035351407 4280941
1.3709171 0.32903755 0.034490261 5861276
1.3732207 0.33049741 0.033377279 2769517
1.3759152 0.33196762 0.03261349 1121854
1.3785213 0.33279034 0.032002877 197902
1.3807132 0.33442375 0.031770181 395786
1.3366979 0.31322661 0.042659454 4739652
1.3381649 0.3145223 0.042253006 5331297
1.3406175 0.31593594 0.041867115 3949399
1.3435227 0.31778675 0.04111544 2371129
1.3466858 0.31911761 0.040732414 1119782
1.3480103 0.32027084 0.040609747 395802
1.3521109 0.32102591 0.036739402 3356210
1.3540258 0.32279491 0.036917813 6910070
1.3564185 0.32393503 0.037071839 6318726
1.3588911 0.32529131 0.035334062 1318958
1.3616681 0.32654428 0.034676794 593435
1.3642509 0.32814693 0.033792045 1779253
1.366614 0.32946089 0.033145107 3557469
1.3690685 0.33082575 0.032766774 4413048
1.3717628 0.33234322 0.032502193 2441325
1.3742836 0.33295208 0.031850334 1585242
1.3763313 0.3348549 0.0312493 264486
1.3274857 0.31150147 0.042031612 1844533
1.3294955 0.31304973 0.04198559 790559
1.3322618 0.31344125 0.041855667 527124
1.334693 0.31510004 0.041694749 1844003
1.3372647 0.31689849 0.041604023 4805213
1.3399596 0.31794804 0.038021453 3160143
1.3420677 0.31885311 0.038185839 2107705
1.3448571 0.32081243 0.036714412 1581865
1.3473028 0.32164854 0.036122616 1318960
1.3499205 0.32289898 0.036029335 2108729
1.3524587 0.32413438 0.035417978 5071493
1.3551371 0.32550186 0.034292761 4150141
1.3576744 0.32708681 0.033574499 1384768
1.3602911 0.32831362 0.032925289 329751
1.3628383 0.32960585 0.032344632 791060
1.364655 0.33107477 0.03183597 2833234
1.3179202 0.3083854 0.04307745 3027497
1.3206676 0.31014478 0.042585526 6184552
1.3227432 0.31116807 0.042569015 5066347
1.325366 0.31257182 0.042400081 2502974
1.328071 0.31427333 0.042072508 1317414
1.3303766 0.31494188 0.04156879 395542
1.3323365 0.31654039 0.041452207 526611
1.3360367 0.31780663 0.037639279 5660262
1.3382847 0.31919909 0.037858952 5331056
1.3410521 0.32070956 0.037675168 2173239
1.3438114 0.32148632 0.035951983 857119
1.3461039 0.32313916 0.035164345 1516086
1.3485491 0.32449317 0.034210432 3491933
1.3509226 0.32573661 0.033513833 4742516
1.3535627 0.32705083 0.03272716 2375786
1.3563216 0.32844743 0.032382879 1518932
1.3587269 0.3298887 0.031641688 264738
1.3613536 0.33052921 0.03117333 197637
1.3119811 0.30775437 0.042316388 658985
1.3142434 0.30919102 0.042153068 461335
1.3162646 0.31045154 0.042390887 1514014
1.3185202 0.31146652 0.042713065 4737614
1.321355 0.31282768 0.040741522 6842744
1.323401 0.31361589 0.03864038 2239045
1.3266847 0.3156476 0.037038889 1582393
1.3290503 0.3169542 0.036922634 1648188
1.33152 0.31810915 0.036939282 1910843
1.3342142 0.31907579 0.036478795 3426151
1.3364861 0.32054755 0.03519702 3756153
1.3391478 0.32204005 0.034366388 1385534
1.3419701 0.32324722 0.033586804 330001
1.3445635 0.32462093 0.033225589 527375
1.3469961 0.32602659 0.032705214 2174522
1.3489594 0.32768211 0.03243763 4939647
1.3013682 0.30473065 0.043534767 4277053
1.3046187 0.30605838 0.043513063 4934751
1.3069686 0.30792144 0.043250438 2436925
1.3101116 0.30848026 0.042673294 1317418
1.3126106 0.31042001 0.042439539 461084
1.3174158 0.31294069 0.038589854 5922150
1.319629 0.31438097 0.038606208 6711941
1.3224436 0.31590649 0.038095411 2963535
1.3250024 0.3166317 0.037014157 1120807
1.3275123 0.31814629 0.036290366 1318191
1.3304758 0.3195487 0.035069358 3229287
1.3325547 0.32106504 0.034701835 4412528
1.3350848 0.32217196 0.034112994 3230066
1.3378136 0.32361546 0.03301682 1847385
1.3403747 0.32503405 0.032352384 198945
1.3426998 0.325964 0.031510066 66311
1.3443675 0.32737273 0.031797692 395784
1.2979499 0.30470869 0.042973276 1118998
1.3003614 0.30754596 0.042777546 3619641
1.3030225 0.30783331 0.042393055 5921899
1.3050694 0.30890605 0.039354105 3291466
1.3083363 0.31071046 0.038217645 989220
1.3105961 0.31183448 0.037834171 330514
1.3134184 0.31324959 0.037734166 922392
1.3154471 0.31469584 0.037520304 2701388
1.3181387 0.3160831 0.036456086 3953533
1.3208702 0.31702569 0.035406865 1780304
1.3235533 0.31838781 0.034933705 198419
1.3258628 0.3196522 0.033934064 395786
1.3285177 0.32110694 0.033388663 2306112
1.3309011 0.32262182 0.033010568 3624309
1.3339273 0.32382616 0.032734375 2243684
1.2838646 0.29996046 0.044113088 3752266
1.2861735 0.30185467 0.044175956 5199466
1.2882574 0.302816 0.043773677 3224659
1.2910919 0.30412039 0.042853776 1713202
1.2940141 0.30542761 0.042703576 593181
1.2966073 0.30693799 0.042499363 461072
1.2996726 0.30820847 0.039554529 6579825
1.3015194 0.30946168 0.0391738 6251381
1.3042614 0.31110603 0.039022494 2963533
1.3067597 0.3117567 0.038452063 1384237
1.3093354 0.31344438 0.037012491 1120552
1.3119795 0.31470749 0.036829792 2505303
1.3142385 0.3162019 0.035391677 3623536
1.316826 0.31710985 0.034668889 2900326
1.3192382 0.31867391 0.033794526 2045274
1.3216405 0.31960475 0.032768033 858680
1.3246739 0.32139903 0.032133166 66307
1.3268814 0.32212657 0.032285061 856853
1.277799 0.2991007 0.04389419 395553
1.2795926 0.30101117 0.044188436 658716
1.2824016 0.30168489 0.043572795 3028020
1.2849445 0.30342385 0.043608058 5593448
1.2876464 0.30511001 0.043214943 3490135
1.2916523 0.30673024 0.042579938 1909293
1.2953111 0.30790219 0.03842685 461580
1.2974232 0.3096239 0.038185392 2436922
1.2999218 0.31108549 0.037840966 3688545
1.3023105 0.31233576 0.036143608 2570076
1.3050122 0.31319094 0.035213921 330005
1.3077421 0.314751 0.034846496 395536
1.3102381 0.31634647 0.034230094 1976632
1.3127991 0.31756014 0.033224586 2637147
1.3155833 0.31881794 0.032796014 2177113
1.3178399 0.32008234 0.032869119 1585235
1.3210055 0.32220221 0.031910516 792893
1.3226132 0.32235745 0.031515103 66584
1.2657062 0.29515132 0.045578685 5199730
1.2679931 0.29690298 0.045444723 3818073
1.2707171 0.29798996 0.044988167 2173753
1.2731527 0.29993439 0.044294324 1976114
1.2757008 0.30058074 0.043582138 1316903
1.27792 0.30201182 0.042728614 395543
1.280466 0.30314359 0.041749682 2369328
1.2830641 0.30431718 0.040248852 5856618
1.2856061 0.30574501 0.039615076 4344416
1.2881767 0.30717993 0.039186716 1581866
1.2911818 0.30846667 0.038230602 659477
1.2936937 0.30971941 0.037188869 1582393
1.2960813 0.31125191 0.036524698 2768478
1.298633 0.31235531 0.036038879 3032428
1.3011564 0.31372005 0.034818336 2110812
1.3036618 0.3151463 0.033936668 989489
1.3061368 0.31633472 0.033086307 131847
1.3088456 0.31765774 0.032510605 856599
1.3113563 0.31916404 0.033000316 2899800
1.2562351 0.29214606 0.046210598 6121080
1.2588282 0.29419068 0.04558244 6383745
1.261289 0.2957527 0.045556206 4148060
1.2638118 0.29670364 0.044909742 4279387
1.2665788 0.29781267 0.044239771 5067118
1.2692456 0.29941183 0.042968068 2765900
1.2718428 0.30067009 0.042392801 1976119
1.273851 0.30146983 0.042217594 2041396
1.2765651 0.30364355 0.039945144 395795
1.2791641 0.3046318 0.039290071 1909283
1.2815561 0.30607054 0.039326448 4278351
1.28373 0.30703038 0.038076881 4213603
1.2862791 0.3085959 0.036070932 527903
1.2894329 0.31007713 0.035664268 329484
1.2920744 0.31134039 0.035344671 1845043
1.2944697 0.31248838 0.034580361 2570582
1.297323 0.31376126 0.033425309 2111059
1.2998205 0.31506231 0.033258263 1716050
1.3022835 0.31662101 0.032578234 1583435
1.3044448 0.31760952 0.032133099 132632
1.307032 0.31936547 0.031682227 263688
1.2501178 0.29142994 0.045657869 1580064
1.2523881 0.29284668 0.04582933 4080715
1.2550215 0.29499808 0.045591157 6120311
1.2575488 0.2957809 0.044228766 6778498
1.2601511 0.29700959 0.043307025 5528950
1.2626561 0.29858363 0.042550165 4279130
1.2651625 0.29972094 0.04155495 5133426
1.2672609 0.30102536 0.040445108 1976379
1.2698611 0.30236503 0.039523508 1647406
1.2725819 0.30373624 0.038987715 1383466
1.2752312 0.30497342 0.038596544 725277
1.277658 0.30634162 0.037168421 2306895
1.2803179 0.30767429 0.036575858 2703204
1.2829258 0.30884418 0.035967018 2176090
1.2854143 0.31024417 0.035250004 989233
1.2877934 0.31158659 0.034106206 132108
1.2905409 0.31298307 0.033100255 527373
1.2924896 0.31498861 0.032678176 2175038
1.2480713 0.29326659 0.044802722 922656
1.2509881 0.29492801 0.044404555 2304818
1.253234 0.29558572 0.043108445 5198934
1.2560416 0.29713169 0.042630307 7041151
1.2582269 0.29841542 0.040944729 5463666
1.2611657 0.29961008 0.040618282 4411483
1.2637647 0.30102548 0.040374212 5199211
1.2661825 0.30246288 0.040036041 2831692
1.2685213 0.30368453 0.038010865 1120040
1.271112 0.30517808 0.036173284 329744
1.2737068 0.30625737 0.03620043 1779259
1.2761216 0.30776462 0.035557259 2702170
1.278659 0.30896837 0.034431748 1978709
1.2809244 0.31076252 0.03360166 1651540
1.284113 0.31127608 0.033390202 1056309
1.2861297 0.31341726 0.032588456 198676
1.2886882 0.31456628 0.032057337 197895
1.2426239 0.29245669 0.043210085 2041146
1.2446363 0.29354647 0.043849517 1317422
1.246895 0.29455715 0.042288091 856606
1.2491642 0.29629856 0.042053059 1975339
1.2517817 0.29738805 0.040809918 6120303
1.2544827 0.29864386 0.040626612 7305098
1.2570149 0.30020142 0.039987769 5003120
1.2591027 0.30133286 0.037773341 2569811
1.2616538 0.30262497 0.036755107 1911624
1.2643073 0.30418342 0.036400039 1977162
1.2670249 0.30512381 0.035768095 1844803
1.2695227 0.30663753 0.035142448 396058
1.2718996 0.30796209 0.034392674 395530
1.2745206 0.30910203 0.033309512 1911613
1.2766608 0.31066665 0.033494297 1913683
1.2382461 0.29237825 0.041660126 2961196
1.240327 0.29378894 0.042978421 2830651
1.2426186 0.2945722 0.040557422 2238776
1.2451608 0.29630476 0.040452752 1120035
1.2477149 0.29751116 0.040147427 2304303
1.2500924 0.29904726 0.039233174 2635078
1.2527826 0.30053395 0.037265401 2373719
1.2553303 0.30144778 0.037155665 2241620
1.2579786 0.30285507 0.036968999 2438738
1.2605091 0.30432919 0.035774063 1780547
1.2629415 0.30524969 0.034883562 1187891
1.2657506 0.30635026 0.033452615 1648188
1.2683191 0.30823329 0.032797124 660522
1.2706816 0.30988756 0.032429624 132618
1.2367746 0.29402837 0.042249028 2960678
1.2385153 0.29503161 0.0410618 3027246
1.2413393 0.29655385 0.039377674 2238772
1.2435151 0.29774758 0.038755257 1515313
1.2461468 0.29914773 0.037242215 2635600
1.2488459 0.30032122 0.036987811 2965598
1.2515123 0.30169037 0.036640793 3228770
1.2538581 0.30292431 0.035281584 1781317
1.2565869 0.3040798 0.034586757 1648704
1.2595431 0.30579916 0.034591638 1781571
1.2623014 0.30731449 0.03376504 859695
1.2646645 0.3086217 0.032847259 1450546
1.2660941 0.30956289 0.032428037 1385794
1.2377489 0.29676303 0.037861753 5396831
1.2397562 0.29791591 0.037536435 2304820
1.2422204 0.29928681 0.036580194 2042168
1.2447312 0.30052012 0.03621405 2897996
1.2472596 0.30189219 0.035342839 3425366
1.250021 0.30311438 0.034530491 2834522
1.2525148 0.30462572 0.034468103 3229282
1.2362156 0.29865834 0.036293324 3160135
1.2380277 0.29961884 0.035204332 1054761
1.2406307 0.30091259 0.034908641 989216
1.2433242 0.30170929 0.034396395 2239801
1.2313623 0.29865485 0.034614697 5067353
1.2339399 0.29979482 0.033624034 4279645
1.2363153 0.30074185 0.033290926 1451833
1.2387452 0.3016775 0.033129133 1383977
1.2312647 0.30003306 0.033276293 8226454
1.2325029 0.30106038 0.033101834 7569291
1.2353113 0.30269662 0.032715689 2242126
1.2414945 0.31015217 0.021701712 3223592
1.2357755 0.30955863 0.020952519 4539709
1.2388327 0.31103215 0.021100957 3947576
1.2406963 0.31210956 0.020881098 3552558
1.2430937 0.31368989 0.020879824 3092517
1.2299491 0.30837071 0.020708382 5987416
1.2319307 0.31045038 0.020351034 5461075
1.2341362 0.31084171 0.020761888 4803144
1.2368945 0.31259793 0.020756483 4276284
1.2392747 0.31367642 0.01865923 4144697
1.2410052 0.31516185 0.018731996 3750452
1.2225703 0.30748099 0.020504374 8552831
1.2247233 0.30899465 0.020650644 7763313
1.2275532 0.30983883 0.020733554 6711137
1.230293 0.31146288 0.019931417 5790037
1.2324924 0.31276011 0.018472966 5395280
1.2354327 0.31400356 0.017831508 4868937
1.2374183 0.31480774 0.018550668 4539456
1.2394477 0.31659418 0.018234488 4013625
1.2210507 0.30881476 0.020595144 8619138
1.2230767 0.30988792 0.019088861 8487297
1.2256416 0.31122884 0.017408431 8356227
1.2281848 0.31240204 0.017332423 7238258
1.2312629 0.31423816 0.016657598 6580328
1.2337394 0.31527734 0.01620722 5988190
1.2217947 0.31171542 0.01686807 9211792
1.2244638 0.31313831 0.016215485 9212051
1.2271683 0.31446108 0.015953258 8488844
1.2297473 0.3150174 0.016073698 7304314
1.2206532 0.31331101 0.015719347 10264737
1.2234168 0.31493241 0.014738197 9146516
1.2253326 0.31533346 0.012277488 7041397
1.2267885 0.31637114 0.011908181 6515052
1.221324 0.31591785 0.011893172 7897483
1.223758 0.31732854 0.012003029 7305345
1.2262971 0.3179493 0.011819448 6515309
1.2200317 0.31767023 0.011150645 9015967
1.2227054 0.31879872 0.010865692 8489884
1.6366783 0.39121062 0.031995375 2172711
1.6404096 0.39350322 0.032047756 2501168
1.6432152 0.39470267 0.032284524 1974834
1.6458192 0.39533851 0.031687003 1383465
1.6318898 0.39071703 0.031364214 988435
1.6338648 0.39253402 0.032299936 1580320
1.6369606 0.39352888 0.031503741 2435371
1.6391652 0.39493269 0.029416084 2173756
1.6413897 0.39638254 0.029368892 2107706
1.6437223 0.39757398 0.028267596 1055276
1.6464931 0.39893997 0.027538981 856855
1.6484882 0.40005443 0.026403185 1975581
1.6220784 0.38833794 0.032116063 1514530
1.6245474 0.39068747 0.031982083 396051
1.6274222 0.39108399 0.031754825 461587
1.6305988 0.39237601 0.031807326 856084
1.6328459 0.39380971 0.029320635 1777696
1.635152 0.39512765 0.028892282 2305074
1.6375176 0.39641887 0.028481282 2370872
1.6401554 0.3977747 0.027372621 2239800
1.6428378 0.39909551 0.026519459 1581102
1.6453514 0.40012389 0.025757551 988699
1.6475852 0.40203404 0.025130704 2107167
1.6491692 0.40253004 0.024061583 2961956
1.6157072 0.38768148 0.032282669 460810
1.6185737 0.38881963 0.032569502 461326
1.6214508 0.39031777 0.03132249 857120
1.62341 0.39151442 0.029058002 1317667
1.6254933 0.39293596 0.028898094 658966
1.6284443 0.39399582 0.028568674 263434
1.6311938 0.39530519 0.027988836 1514523
1.6334177 0.39646479 0.027563512 2305069
1.6363178 0.39762679 0.027238853 2699312
1.641777 0.40045974 0.026147936 1515562
1.6442227 0.40153861 0.024843644 593938
1.6460721 0.40214872 0.023724999 1185295
1.6042275 0.3832669 0.033342142 1580067
1.6067147 0.38573286 0.0329233 725009
1.6091217 0.38637057 0.032325681 527378
1.6117133 0.38761702 0.032206781 461073
1.6146955 0.38879108 0.032372698 461584
1.6170548 0.39043334 0.02955668 2566444
1.6193902 0.39155659 0.029262308 1777702
1.6218294 0.39284566 0.028304469 856855
1.6244951 0.39424542 0.027444135 659221
1.6271601 0.39534599 0.026908599 329740
1.6291759 0.39642763 0.026575435 395531
1.6320233 0.39788893 0.026438896 1777692
1.5976479 0.38287163 0.033748206 461578
1.5997525 0.38316002 0.033684943 855829
1.6026721 0.38496849 0.033424541 592919
1.6050909 0.38681933 0.033480007 724760
1.6075031 0.38772258 0.028859891 856342
1.610314 0.38956374 0.02870737 263432
1.6128341 0.39046675 0.028600793 789775
1.6152207 0.39165446 0.028101556 1777437
1.6179487 0.3928692 0.027552146 1777442
1.6206819 0.39447466 0.027401615 659220
1.6229291 0.39539602 0.027004618 725014
1.6252723 0.39642471 0.026514325 461836
1.5864359 0.37897915 0.03352287 1448748
1.5888367 0.38072214 0.033195104 921881
1.5899659 0.38155147 0.033501033 658712
1.593585 0.38223153 0.033385709 461328
1.5960838 0.38367277 0.033539671 527375
1.6009884 0.38687915 0.029438872 2632503
1.6034443 0.38803738 0.029114779 1646639
1.6060477 0.38942724 0.028285231 856863
1.6086438 0.39051107 0.027465969 263951
1.6111656 0.39196268 0.026998434 395530
1.6136528 0.39279601 0.026979085 592906
1.6162896 0.39407215 0.026979011 658447
1.5813888 0.37846857 0.033737045 790292
1.5840676 0.38022968 0.034054298 659218
1.587288 0.38142017 0.034013171 593170
1.591444 0.38434172 0.029563084 460817
1.5946752 0.38581753 0.029081326 395018
1.5969111 0.38684434 0.028688107 1316885
1.5993645 0.38796216 0.028254565 2632751
1.60217 0.38919294 0.02777053 1054235
1.6048772 0.39055273 0.027363911 856857
1.6075292 0.39192009 0.026838895 461580
1.6089592 0.39290661 0.026331712 395787
1.5752048 0.37825158 0.032629307 725278
1.577503 0.37905034 0.03297995 527381
1.5799404 0.38025966 0.033665363 461327
1.5825521 0.38176417 0.030181535 921875
1.5853891 0.3829807 0.029750798 1185829
1.5874646 0.38432974 0.029089823 1186594
1.5903668 0.38575622 0.028047275 461586
1.5929884 0.38709837 0.027647223 395529
1.5953472 0.38835314 0.02754128 790028
1.597858 0.389373 0.027521126 1316373
1.5998225 0.39037448 0.027274922 790034
1.5687745 0.37756118 0.032742891 527122
1.5705978 0.37820795 0.032685209 856087
1.5737963 0.37936592 0.032485303 1185314
1.5763614 0.38047791 0.02941747 461070
1.578864 0.38221005 0.029172007 987920
1.5811367 0.38330179 0.028963108 2303788
1.583795 0.38448313 0.028776456 1251103
1.586804 0.3856647 0.028090809 790549
1.5890827 0.38703465 0.027516607 395790
1.5911975 0.3882677 0.026911687 395785
1.5588207 0.37447053 0.033610325 658192
1.5616517 0.37583876 0.033513937 723988
1.5649829 0.37708643 0.03315315 658453
1.5672647 0.37702766 0.032516029 461330
1.5692332 0.38104516 0.030070607 461068
1.5711712 0.38095459 0.028958131 1119000
1.5746527 0.38206524 0.028286774 527124
1.577178 0.38333911 0.0283386 724750
1.5794841 0.38455737 0.028362814 1185043
1.5822331 0.38611212 0.028251365 659212
1.6511108 0.42157054 0.0020127892 5529176
1.6537052 0.42267665 0.0015948787 8293005
1.5498564 0.37225741 0.033428218 461328
1.5530533 0.37345496 0.033295367 461071
1.556258 0.37472501 0.033499148 658192
1.5625299 0.37868965 0.03011677 461835
1.5656263 0.37936148 0.029549535 527372
1.5679264 0.38115367 0.027844004 790805
1.5704235 0.38231212 0.027282048 1120286
1.5730445 0.38358808 0.027255785 725013
1.5751224 0.38437432 0.027442824 395788
1.6485115 0.42168471 0.00098523684 3095074
1.6499051 0.42321861 0.00011961255 7041383
1.6524901 0.42441493 0.0001834156 7239798
1.5409501 0.36906281 0.03387833 592918
1.5430357 0.37144756 0.034278478 526867
1.5460292 0.37154451 0.033616725 527378
1.548328 0.37237439 0.033606213 527123
1.5508257 0.37455815 0.033877488 264720
1.5564014 0.37757719 0.029154807 922645
1.5589713 0.37849405 0.028875612 725008
1.5612774 0.37993714 0.028038144 790289
1.5641463 0.38088313 0.027792361 724752
1.5667276 0.38220859 0.027665783 593165
1.5695366 0.38415143 0.026928488 988181
1.5712634 0.38439924 0.026471537 1383453
1.6464196 0.42368042 -0.0010717465 5331253
1.647686 0.42410216 -0.00075100549 5856577
1.5350616 0.36933959 0.033939276 330000
1.5367254 0.3697913 0.034092791 592660
1.5392385 0.3703416 0.033984184 658453
1.5418141 0.37095997 0.03376108 592144
1.5441061 0.3734329 0.029774722 526350
1.5467608 0.37563002 0.029837538 658450
1.5497841 0.3760649 0.028578058 790291
1.5522023 0.37754467 0.028333694 790805
1.55471 0.37879702 0.028162409 658960
1.5576396 0.37945747 0.028033633 724238
1.5596898 0.38079697 0.027962457 657933
1.5270624 0.36696056 0.033803616 527125
1.5299947 0.36854407 0.033617999 461588
1.5330687 0.36904907 0.033697288 395794
1.5376822 0.37281018 0.030121207 526605
1.5407071 0.37382889 0.029496469 790031
1.5429983 0.37536678 0.028832529 790548
1.5454618 0.37639198 0.02823497 856085
1.5483843 0.37733909 0.028084524 658707
1.5507982 0.37862 0.027872693 527119
1.5187004 0.3643899 0.033695161 1053470
1.521383 0.3661204 0.034165099 658197
1.5244545 0.36678466 0.033997782 526867
1.5255568 0.36803439 0.034456242 461848
1.5286504 0.37017983 0.03080168 789520
1.5314665 0.37180167 0.030695084 526865
1.5341096 0.37251261 0.028716799 987928
1.5362551 0.37407461 0.028634265 856341
1.5391996 0.37487617 0.028590601 922131
1.5416573 0.37596133 0.028445002 922135
1.5019966 0.35830757 0.036222924 3159107
1.5046902 0.35973507 0.036100991 3158851
1.5069017 0.36115238 0.036102023 2961987
1.5096561 0.36227387 0.035187397 2237752
1.5118819 0.3642444 0.034436699 1382703
1.5150326 0.36439154 0.033469796 1449249
1.5168223 0.36619845 0.033456765 1119776
1.5196154 0.36758986 0.031465575 724247
1.5219206 0.36934328 0.031194635 658443
1.5250443 0.37014475 0.029861219 921625
1.527161 0.37163329 0.028846871 922649
1.5300151 0.37275082 0.028657008 790551
1.532624 0.37371501 0.028637901 855829
1.5346875 0.3747206 0.028504092 658449
1.495787 0.35772395 0.036113452 2698546
1.4976368 0.35881242 0.036620479 3027261
1.5005213 0.35956973 0.036562294 3158596
1.5025916 0.36093721 0.036533948 3224389
1.5054991 0.3619279 0.034389254 3028300
1.5077084 0.36430398 0.032662217 2568777
1.5102619 0.36535001 0.031706925 923439
1.5133616 0.36664233 0.031223565 1185821
1.5155168 0.36790246 0.030798484 1514786
1.5181152 0.36923128 0.029274702 1053982
1.520751 0.37040699 0.028909776 1053722
1.5234102 0.37130576 0.028913829 988188
1.5259585 0.37264517 0.028867107 922135
1.5277842 0.37408116 0.028801404 790561
1.4914566 0.35741326 0.03588913 1381917
1.4940351 0.35877129 0.036438104 2369065
1.4968435 0.36005044 0.032760594 3225153
1.498979 0.36176983 0.033219595 3160136
1.5012926 0.36265075 0.032459378 3096154
1.5039259 0.36378896 0.031829853 2833502
1.5064337 0.36505204 0.030853074 2372438
1.5085249 0.36635065 0.029901672 857908
1.5114686 0.36801118 0.028934222 1383467
1.5141083 0.36934453 0.0286601 1450026
1.5167663 0.37025744 0.028786171 922394
1.5181931 0.37170473 0.028831165 460810
1.4829476 0.35504732 0.035829972 1776669
1.484081 0.35595661 0.03552812 1185052
1.4871686 0.35736281 0.035323236 855578
1.4899005 0.35899344 0.035956908 1381914
1.4920803 0.36040872 0.03233869 2173498
1.494777 0.3612985 0.032047782 2963531
1.4972706 0.36279523 0.031814177 2899550
1.4997927 0.3641777 0.031505167 3228522
1.5026586 0.36510709 0.031091481 3228529
1.5052909 0.36669201 0.030276585 2241378
1.5078768 0.36803848 0.029386148 528681
1.5103056 0.36924902 0.028486609 1186082
1.5119035 0.36985624 0.028305072 1647667
1.4752042 0.35404214 0.035590503 394765
1.4778709 0.35515714 0.03560606 789775
1.4805814 0.35633382 0.035414316 723987
1.4834327 0.35789618 0.03552435 394771
1.4852525 0.35880542 0.03175531 1250333
1.4883497 0.36078015 0.031654686 988184
1.4906989 0.36176375 0.031771593 1844269
1.4936 0.36279646 0.031593461 2635863
1.4956856 0.36424962 0.031519927 2899294
1.4670563 0.35145271 0.035221919 1910562
1.469013 0.35273865 0.035310972 922138
1.4709133 0.35413921 0.035408091 724247
1.4735229 0.35469893 0.035622615 460559
1.4765155 0.35741174 0.032773934 855824
1.4791157 0.35802063 0.032140061 1382942
1.4815514 0.35945672 0.031331118 1318962
1.4841876 0.36079407 0.030958977 923431
1.4868531 0.36151671 0.030937891 593426
1.4889592 0.36267686 0.031231325 1186336
1.461663 0.35172865 0.035624806 724240
1.4647212 0.35260263 0.035630148 658448
1.4673975 0.35403189 0.035630636 329489
1.4700131 0.3558661 0.032992925 461327
1.4724336 0.35688421 0.031729367 1185564
1.4749303 0.35802495 0.031380709 3423309
1.4775803 0.35937434 0.03128922 3423578
1.4803264 0.36066273 0.030850779 2372174
1.48251 0.36199242 0.030558903 2042690
1.4535232 0.34874302 0.035266966 725040
1.4559543 0.35049778 0.035521761 460559
1.4588176 0.35170454 0.035767328 395274
1.4607203 0.35332915 0.033050831 1053723
1.4630975 0.35435468 0.032485295 3093837
1.4657146 0.35545257 0.031756062 1909816
1.4683003 0.35692912 0.03092207 329747
1.470793 0.35819843 0.030930016 461324
1.4731482 0.35938424 0.03101366 1844268
1.4331582 0.34090081 0.039219707 1974067
1.4363161 0.34316245 0.039218243 724249
1.4414011 0.34522074 0.03614103 921365
1.4448326 0.34685907 0.03557314 1448468
1.4468783 0.3477695 0.036041077 987672
1.4494766 0.349374 0.035651844 724755
1.4513547 0.35037017 0.034739718 658707
1.4542689 0.35192373 0.033791658 526604
1.4565474 0.35320887 0.032267895 1845039
1.4590877 0.35446009 0.031781308 4346979
1.4618648 0.35576981 0.031530511 5397876
1.4646703 0.3569839 0.030894667 4015460
1.4670914 0.35840434 0.030519437 264725
1.425254 0.33992723 0.039755251 1185049
1.4272794 0.34018183 0.039865941 2239262
1.4296869 0.34202722 0.039369933 725008
1.4325179 0.34282395 0.039283503 724753
1.4347829 0.34448299 0.039049607 790033
1.4370317 0.3460719 0.036345147 526356
1.4396511 0.34644169 0.036304072 460555
1.4425863 0.34830943 0.035153169 790294
1.4449629 0.34947622 0.034149397 593169
1.4474925 0.35088211 0.032923244 988443
1.4502805 0.35237288 0.031949956 461329
1.4526994 0.35345665 0.031435624 527117
1.455404 0.35458165 0.031384185 2503745
1.4571908 0.35638395 0.031280443 3095624
1.4179134 0.33775419 0.039108127 1381916
1.4199712 0.33948836 0.039904676 395278
1.4230241 0.3396304 0.039499935 395530
1.4253752 0.34191126 0.039660946 395283
1.4280651 0.34273002 0.036059789 1579559
1.4308069 0.34462702 0.035995912 658961
1.4334612 0.34569821 0.036126189 526611
1.4356974 0.34676892 0.034407128 526607
1.4383994 0.34848645 0.033379037 1580835
1.4408889 0.34948519 0.032470923 3952222
1.4433498 0.35113457 0.032157227 5398641
1.4459652 0.3522881 0.031493258 6055560
1.4488566 0.35349026 0.030932758 659491
1.4512141 0.35472739 0.030891079 198152
1.4093125 0.33641776 0.039810661 1974318
1.4114929 0.33696195 0.039780539 2041143
1.4138417 0.33766627 0.039999869 1316642
1.4163626 0.3393586 0.039626494 724241
1.4194845 0.34084737 0.036004912 395284
1.4211662 0.34241197 0.036601041 460553
1.4245117 0.34290588 0.036529109 526605
1.4267702 0.34443337 0.034706727 922402
1.4289936 0.34601679 0.034189384 659218
1.4318706 0.34705195 0.033425033 527375
1.4342791 0.34847134 0.032248899 527118
1.4368975 0.34969065 0.031904757 2108725
1.4396303 0.35120094 0.032073226 4017250
1.442023 0.35224399 0.031897184 2635599
1.4004891 0.33311054 0.040334325 725272
1.4023672 0.33413309 0.040398397 264209
1.404924 0.33622918 0.039856344 592651
1.4073896 0.33627132 0.03970373 856597
1.409364 0.3382138 0.039915942 395798
1.4121811 0.33964434 0.03623363 922151
1.4152074 0.34080783 0.03582909 790040
1.4173788 0.34213302 0.035745993 460816
1.4199764 0.3439205 0.034435261 460805
1.422773 0.34473515 0.033866424 2172467
1.4253154 0.34621823 0.032901268 2439516
1.4276861 0.34758005 0.032054733 2044763
1.4304378 0.34860405 0.031500049 594476
1.4329281 0.34992194 0.031067591 197897
1.4347123 0.35135096 0.030862324 527375
1.3907604 0.33053216 0.041027647 2173476
1.3925427 0.33213237 0.040825743 1778468
1.3956796 0.33256772 0.040590983 1515300
1.3984219 0.33429751 0.040550098 922134
1.4022359 0.33682978 0.036629282 263692
1.4062219 0.33815992 0.036014881 987410
1.4084488 0.33982092 0.035699569 1316636
1.4108034 0.34119898 0.035801277 461327
1.4132655 0.34228396 0.03431727 527120
1.416137 0.34376657 0.033184912 526862
1.4185553 0.34480605 0.032799657 2041647
1.4210713 0.34621945 0.0322151 5859723
1.4238144 0.34736258 0.032152463 4412029
1.4264915 0.34910628 0.03139348 2176341
1.4284096 0.3503167 0.030746967 1582663
1.384581 0.32955623 0.040759735 329746
1.3861358 0.33082497 0.041193489 395280
1.3890307 0.33163384 0.040985186 790811
1.3920258 0.33370101 0.041244987 331024
1.3944896 0.33472794 0.03695957 922675
1.3964871 0.33612916 0.03677069 527381
1.3990921 0.33686924 0.036672272 593170
1.40139 0.33865523 0.035833959 460809
1.4044131 0.33965144 0.035218209 2172462
1.4068015 0.34117353 0.033899289 2700369
1.4093025 0.34225371 0.032922637 1781585
1.4119246 0.34392053 0.032169987 791600
1.4144182 0.34521043 0.031736959 197899
1.4173765 0.34619907 0.031599883 1185819
1.4189097 0.34739855 0.031851526 2899006
1.3765996 0.32752591 0.040173858 3950163
1.3801972 0.32960847 0.040001839 1383197
1.3826849 0.3309488 0.040687807 527125
1.3897469 0.334764 0.036842715 1052952
1.3925021 0.33614439 0.036483176 527121
1.3947502 0.33754563 0.035737719 461329
1.3979918 0.33834571 0.035316754 395273
1.4004092 0.3402828 0.03310949 1778479
1.4027721 0.3415083 0.032925792 5528948
1.4052454 0.34259382 0.032762047 6582169
1.4082142 0.34418058 0.032607805 2176341
1.4105049 0.34533796 0.031504482 1517372
1.4128958 0.34602371 0.030614942 132625
1.3686389 0.32597727 0.041050058 527123
1.3702679 0.32717696 0.040743466 856082
1.3734503 0.32847291 0.040534779 1646114
1.3766406 0.32991773 0.040001076 1185052
1.3781555 0.33098963 0.039968554 461329
1.3810966 0.33331728 0.03662267 724242
1.3832726 0.33406594 0.036613356 526606
1.3859987 0.33481801 0.036257874 461067
1.388881 0.33593762 0.035569962 922133
1.3908807 0.33768278 0.033582348 1649483
1.3935673 0.33903602 0.032960933 989232
1.3964034 0.34029704 0.032449115 263694
1.3986425 0.34170637 0.031882346 593423
1.4010154 0.34265071 0.031763975 4147294
1.3595071 0.32391381 0.040833443 3356996
1.3610423 0.32445696 0.040978074 1777961
1.3641055 0.32567778 0.040970951 790557
1.3670235 0.32716587 0.041129503 395795
1.3698738 0.32925981 0.037256677 592908
1.3711683 0.33027691 0.037838634 987924
1.3741138 0.33148247 0.036836069 1317149
1.3770047 0.33253229 0.036021367 593433
1.3792402 0.3341291 0.035554145 461071
1.3822424 0.33509225 0.03453517 2043198
1.3845103 0.33682194 0.033429094 4149095
1.3871778 0.33771598 0.033195317 5069184
1.3896278 0.33908162 0.033055544 2833761
1.3923179 0.34025764 0.032107718 1715281
1.3947443 0.34169248 0.031658955 132627
1.3966464 0.34218979 0.03150994 197382
1.3523356 0.322938 0.041555256 592913
1.3545107 0.32351846 0.041223779 1580576
1.3572761 0.32499006 0.041228812 1448481
1.3604614 0.32639343 0.040994924 461585
1.3622707 0.32718405 0.039063957 1053722
1.3652636 0.32903942 0.037345473 526606
1.3678157 0.33010179 0.036766693 2237743
1.3704244 0.33155197 0.036309924 2437965
1.3728038 0.33230513 0.035318166 2374763
1.3751196 0.33384866 0.034601633 792626
1.3779895 0.33576575 0.033216599 264203
1.3805021 0.3369734 0.032698121 856599
1.3831393 0.33764324 0.032611478 3228253
1.3846667 0.33939055 0.032513138 4609399
1.3439211 0.32043552 0.040941902 1449003
1.3459823 0.32165471 0.041405313 790556
1.3486445 0.32205516 0.041533154 329490
1.3503724 0.32331473 0.041943524 329743
1.3544486 0.3250007 0.037688434 3884351
1.3558235 0.32683831 0.037768152 856353
1.3582208 0.32758501 0.03739072 790810
1.3609152 0.32889369 0.036894206 527120
1.3635572 0.33036533 0.036012881 1515311
1.3661073 0.33186543 0.034945667 5068912
1.3687265 0.33275852 0.034233049 5266303
1.3712113 0.33422056 0.033369094 2766937
1.3738738 0.33556601 0.032593943 1386571
1.3765194 0.33669662 0.031988915 198680
1.3789288 0.33799002 0.031865906 131845
1.3389544 0.31975937 0.041499063 2632502
1.3418399 0.32114744 0.041687708 856094
1.3441886 0.3218872 0.041499671 790554
1.3494811 0.32591566 0.037375558 461320
1.3520559 0.32636568 0.037228029 1778212
1.3541687 0.3273856 0.036543459 1187122
1.3568438 0.32901821 0.035246827 1318716
1.3593744 0.33026379 0.034106802 329748
1.3618089 0.33184543 0.033948019 593427
1.3648013 0.3330065 0.033124954 4411761
1.3670979 0.33464593 0.032486178 7963047
1.3699632 0.33582652 0.032322671 5201288
1.3222433 0.31309718 0.043208368 5462123
1.3251599 0.31482261 0.042643119 1844272
1.3272233 0.31658137 0.042212468 987676
1.32972 0.31735435 0.041906983 526868
1.3321837 0.31920716 0.041584276 461070
1.3357353 0.31976175 0.040816955 1711651
1.3378245 0.32188722 0.03853951 1711659
1.3399693 0.32304955 0.038307514 593177
1.3427711 0.32399985 0.037521247 592918
1.3454788 0.32540858 0.036914881 527380
1.3481448 0.32652709 0.035806637 4938089
1.3505542 0.32806796 0.034715082 6582928
1.3531241 0.32935229 0.034309205 2965604
1.3556422 0.33086422 0.033637755 1582917
1.3579981 0.33213159 0.032960396 462111
1.3605534 0.33307263 0.031848658 197894
1.3626126 0.33436212 0.031938273 1383716
1.3184279 0.3139888 0.043117695 2435115
1.3210757 0.31507295 0.043032493 2106412
1.3234361 0.31614894 0.043039646 790555
1.3262401 0.31804794 0.042748887 658451
1.3314095 0.32170066 0.038121019 460813
1.3335673 0.32162812 0.038061384 1449514
1.3360559 0.32247642 0.038445853 1252131
1.3392059 0.3248935 0.035729337 395795
1.3412004 0.32603413 0.035253044 198154
1.3438019 0.32704362 0.034574289 659736
1.3466247 0.32812405 0.03421716 3621977
1.3489658 0.32967561 0.03349077 6581647
1.3516539 0.33098111 0.033448324 5069187
1.3545244 0.33231214 0.032974515 1847381
1.35648 0.33344164 0.032314792 1252924
1.3097671 0.31123319 0.042464081 1250853
1.3115839 0.31318319 0.042911984 526358
1.3142722 0.31346121 0.042955462 395022
1.316756 0.31542984 0.043239675 526095
1.3199382 0.31728339 0.039030913 2699314
1.3215848 0.31798413 0.03871173 1975089
1.3243166 0.31923071 0.0382111 592919
1.3268861 0.32077223 0.037465185 724761
1.3297343 0.32169557 0.037181806 3752795
1.3321972 0.323172 0.036179464 5531279
1.3345633 0.32470399 0.035139598 2439004
1.337226 0.32566869 0.034516592 1846352
1.3395246 0.32715222 0.034023188 462369
1.3423911 0.32832664 0.032574046 197895
1.3447261 0.33003557 0.032269079 1647146
1.3471079 0.33103329 0.032591332 5661069
1.3032318 0.31076628 0.042834885 3027778
1.3053006 0.31169561 0.042744495 1579826
1.3078536 0.31261706 0.042823728 855835
1.3099496 0.314331 0.04318871 723481
1.3155999 0.31731096 0.038701952 1514012
1.3180926 0.31800544 0.03895681 1185309
1.3211219 0.31922692 0.038204785 658974
1.3232566 0.32043335 0.037121501 461332
1.3255577 0.32218894 0.035666607 989480
1.3279492 0.32345322 0.03474706 2371651
1.330745 0.32477438 0.03457972 4015201
1.3331945 0.32625297 0.033172477 3689333
1.3359716 0.3271063 0.032476638 1584983
1.3383609 0.32874829 0.032262713 924215
1.3407403 0.3294872 0.031881869 66569
1.2935934 0.30816028 0.0424986 526871
1.2956815 0.30903465 0.042580027 394768
1.2984093 0.31014359 0.042537957 789776
1.30114 0.31161201 0.042106818 1514018
1.3029001 0.31233063 0.039549921 1910339
1.30588 0.31402802 0.038529586 1054757
1.3088089 0.31600231 0.038002443 461069
1.3113544 0.31702483 0.038182437 921877
1.3136717 0.31811085 0.037624877 3817814
1.31654 0.31946766 0.03602818 3295862
1.3188274 0.32107908 0.035318524 2044505
1.3215119 0.32228553 0.034632172 527906
1.324131 0.3232238 0.033905115 132358
1.326532 0.32498136 0.033337865 1515816
1.329043 0.32610741 0.032356791 5136002
1.3310611 0.32713771 0.032447115 6319508
1.2820475 0.30482832 0.044303756 922135
1.284284 0.30532649 0.044366647 2304049
1.2866423 0.30641869 0.043917399 1843252
1.2898524 0.30764416 0.042737197 1316904
1.2915915 0.30958843 0.042668916 723994
1.2949427 0.31041503 0.042786714 460560
1.2974128 0.31238091 0.039353665 1777440
1.299273 0.31347334 0.039538901 1119512
1.3023585 0.31444332 0.039125066 922651
1.3051409 0.31579489 0.038715672 395791
1.3074096 0.31715 0.037213609 658965
1.30975 0.31834906 0.036481641 3359840
1.31216 0.31967276 0.035092074 6582929
1.3149048 0.32101756 0.034629341 5793681
1.3171909 0.32241845 0.033413537 2176860
1.3200661 0.32385412 0.032987133 1188417
1.322765 0.32503402 0.032154653 66574
1.3248268 0.32572538 0.032050136 132359
1.271648 0.30107775 0.044712093 1975343
1.2748462 0.30311814 0.044666577 723733
1.277804 0.30418065 0.044451974 394767
1.2802134 0.3052718 0.043811064 526860
1.2825791 0.30674842 0.042914927 1053464
1.2857764 0.30855387 0.042714853 789781
1.2881575 0.30887437 0.042477507 592411
1.2903421 0.31073534 0.038629252 790292
1.2927597 0.31218985 0.038941942 395273
1.2953664 0.3131606 0.03863604 2239283
1.2979678 0.31512123 0.037384201 3032426
1.3007318 0.31616133 0.036475819 2637416
1.3032229 0.3173601 0.035496157 528164
1.3058906 0.31840059 0.034692138 197895
1.3081487 0.32011196 0.034112718 922905
1.3105563 0.32115564 0.03297583 4279905
1.3133482 0.32226855 0.033009622 6845849
1.2629923 0.29932263 0.045652468 1909294
1.2655452 0.30048499 0.045465909 2238003
1.2684931 0.30192387 0.045066398 1251106
1.2711301 0.30337462 0.043847989 921881
1.2735441 0.30442801 0.043373656 921623
1.2763056 0.30570528 0.043126989 395020
1.2793297 0.30670103 0.041612241 1778469
1.2809803 0.3085852 0.040344495 1711651
1.2838743 0.30990297 0.039547876 856605
1.2865667 0.31075999 0.039245151 725012
1.2891585 0.31197545 0.038473662 526861
1.291449 0.31353006 0.036548372 2043198
1.2940893 0.31460854 0.036007103 5399941
1.2965516 0.31634393 0.035553169 5464203
1.2990777 0.31784332 0.034416091 2242912
1.3017372 0.31874469 0.033906326 1583180
1.3045951 0.31966934 0.033064734 132367
1.306476 0.32194594 0.031812835 198151
1.309218 0.32336903 0.032404985 2569030
1.254003 0.2963098 0.045794342 5133415
1.2566408 0.29806793 0.045663469 3488063
1.2592156 0.29896697 0.04570419 2303799
1.2621378 0.30125514 0.045837495 592918
1.2641268 0.30211303 0.043424696 1579810
1.2671337 0.30301818 0.043311287 1251109
1.2697048 0.30447429 0.043474063 592660
1.2713056 0.30541536 0.039458241 1120035
1.274443 0.30718011 0.03949672 395531
1.2775517 0.30844128 0.039865855 592650
1.2796444 0.30970624 0.038489234 1976892
1.2820206 0.31134173 0.036939774 2176603
1.284506 0.31270364 0.036167745 1121337
1.2872376 0.31394514 0.035622984 197898
1.2898921 0.31509769 0.035291564 856598
1.2926939 0.3167915 0.034908488 4280170
1.295173 0.31756505 0.033309262 5596548
1.2975162 0.31876051 0.033555578 4149371
1.3003981 0.320418 0.032789122 1650516
1.3031536 0.32149848 0.031702746 331036
1.3042278 0.32300648 0.031726647 132360
1.2487057 0.29562271 0.04510412 856352
1.2501574 0.29748756 0.045822229 1053209
1.2531648 0.29782823 0.045803823 2434862
1.2551384 0.29961115 0.044354629 2566703
1.2580118 0.3006587 0.043503735 2172205
1.2606676 0.30207723 0.042563129 1251105
1.2630405 0.30331472 0.040560443 1976113
1.2653713 0.30503803 0.040531095 724758
1.2681731 0.30593008 0.040152624 724756
1.2707094 0.30741465 0.039751358 527120
1.2734305 0.30864492 0.038078859 1581876
1.2759001 0.30990922 0.037097502 4872055
1.2784071 0.31151736 0.03656299 5332096
1.2811368 0.31213817 0.035988647 2176091
1.2829901 0.31380534 0.034785103 1583432
1.2859219 0.31527489 0.033796687 330007
1.2886128 0.31720245 0.032140937 198408
1.2909564 0.31773666 0.03265905 1713452
1.2436943 0.29592887 0.044679996 1514541
1.2466245 0.29710653 0.044973325 724506
1.2489398 0.29858288 0.042361308 724754
1.2510992 0.29962707 0.0432452 1513761
1.2539039 0.30139732 0.041903224 1844010
1.2563243 0.30233136 0.040920015 1646376
1.2588646 0.30362785 0.040771496 725015
1.2617325 0.30457717 0.040781341 527376
1.2686111 0.30892214 0.035968315 461851
1.271503 0.31036794 0.035882019 856859
1.2741519 0.31177887 0.03550275 3753051
1.2768641 0.31271875 0.034193743 5135225
1.2790929 0.31442115 0.033534151 3820911
1.282293 0.31562468 0.033010893 1123130
1.2845414 0.31689504 0.032455567 396825
1.2868739 0.31798741 0.032139737 66568
1.2401085 0.29676494 0.043381855 2830650
1.2422836 0.2969768 0.044289473 1909556
1.2448061 0.29899803 0.042052191 922149
1.2474527 0.30004609 0.041845817 922393
1.2497731 0.3012591 0.040845789 2041132
1.2525108 0.30236217 0.04104086 1053721
1.2555432 0.30451682 0.037625343 5398655
1.2572812 0.30554426 0.036977265 5266551
1.2598215 0.30660301 0.036855843 2767191
1.2627146 0.30750579 0.036464278 1714760
1.2651211 0.30881387 0.035791688 2109006
1.2674807 0.31064159 0.035257343 1054767
1.2701596 0.31205726 0.034144763 132359
1.2727486 0.31274045 0.0334973 1187106
1.2749605 0.31393689 0.03362466 5069431
1.237653 0.29738477 0.042591371 3026991
