# .PCD v0.7 - Point Cloud Data file format
VERSION 0.7
FIELDS x y z rgba
SIZE 4 4 4 4
TYPE F F F U
COUNT 1 1 1 1
WIDTH 1174
HEIGHT 1
VIEWPOINT 0 0 0 1 0 0 0
POINTS 1174
DATA ascii
1.5513502 0.36331144 0.049914449 3947815
1.5534126 0.36415246 0.049034186 3553556
1.5428938 0.35584307 0.052319519 2892558
1.5447659 0.35733008 0.051507831 4274711
1.5462388 0.35931268 0.050110519 3814682
1.5474983 0.36144084 0.049079262 4012830
1.5501662 0.36318922 0.047405154 4539413
1.5402321 0.3565844 0.049966119 6642970
1.5425508 0.35756686 0.049804121 4800538
1.5442933 0.35974154 0.047516152 4866321
1.5454649 0.36148325 0.046779417 4274966
1.5474981 0.36248469 0.045477964 4011550
1.5385623 0.35639563 0.048449077 9471303
1.5405099 0.3575753 0.047453932 8615990
1.541935 0.35980883 0.046337217 4207636
1.5435722 0.36126539 0.044227615 4798997
1.5359945 0.35614961 0.046111055 12958054
1.5382559 0.35785958 0.045328096 9009980
1.5394369 0.36004108 0.044221595 5653784
1.5412858 0.36220214 0.042555109 5391388
1.5433913 0.36293992 0.041919358 5456411
1.5320984 0.35071552 0.046092734 9733219
1.5328826 0.35373485 0.045235381 11641199
1.5345874 0.35555804 0.044732854 11838568
1.5359981 0.3576321 0.043604739 9009212
1.5375843 0.36145297 0.041369274 6574633
1.5391752 0.36221659 0.040468119 7429679
1.5273311 0.34622934 0.04657419 9733738
1.5277926 0.34874564 0.046345018 9667435
1.5294703 0.3514246 0.044905156 12891778
1.5307219 0.35339487 0.043836921 13746559
1.5324271 0.35563612 0.042778209 10785624
1.5338035 0.35815307 0.040667623 10784866
1.5353173 0.3605203 0.0401498 9205325
1.5231311 0.34415221 0.045941412 9864302
1.5244792 0.34668428 0.046058536 9864810
1.5259926 0.34885097 0.043226026 13877639
1.5273787 0.3516022 0.042969428 12957052
1.5289184 0.35407832 0.041632622 11772777
1.5304334 0.35640115 0.040275916 11244913
1.5179553 0.34042031 0.045525812 10390634
1.5197635 0.3426457 0.045830719 9995632
1.5210027 0.34546468 0.044999458 10127209
1.522278 0.34698808 0.042872377 13614974
1.5235883 0.34983483 0.042610832 13352312
1.5251856 0.35153136 0.04148794 11773037
1.5140448 0.3376016 0.045501322 10522484
1.5157404 0.34024304 0.045504622 10325103
1.5175438 0.34277481 0.043148905 12167032
1.5184988 0.34505457 0.042591162 13812869
1.5201489 0.34709847 0.04232543 13944954
1.5119252 0.33806676 0.045409173 10456949
1.5133458 0.34068048 0.042603016 12299385
1.5153376 0.34300876 0.04204002 13155199
1.5165118 0.34498724 0.041151054 12561790
1.5098658 0.33848119 0.042145163 11707249
1.5115473 0.34096363 0.041476451 13418113
1.5064256 0.33666608 0.041816138 12431989
1.5077921 0.33915091 0.04055097 12102008
1.6536171 0.42860255 0.069552131 2434070
1.6556224 0.43041968 0.069448456 1184774
1.6569877 0.43306375 0.067194059 1118726
1.6574576 0.43545794 0.066218659 1052933
1.6503558 0.42705089 0.06860771 2434581
1.6517872 0.42878303 0.068508297 2105362
1.6536052 0.4311451 0.066446625 1974032
1.6543872 0.43331137 0.065830871 1645072
1.655885 0.43491068 0.065637551 1513485
1.6471243 0.42477182 0.066954769 1711116
1.6485361 0.42701274 0.0670546 1842444
1.6496189 0.42839062 0.065920681 1645069
1.6508502 0.4311763 0.065069422 1973779
1.652269 0.43340322 0.065561198 1973524
1.6433358 0.42248285 0.065606244 922120
1.6445253 0.42483309 0.066273719 1513227
1.6460079 0.42678756 0.065298766 1578766
1.6471348 0.42900479 0.064285941 1841682
1.6483593 0.43112332 0.064270683 2105106
1.6385505 0.41898182 0.066371337 2039564
1.6410722 0.4222182 0.065951914 1250059
1.6422745 0.42478323 0.064646468 1052424
1.6435577 0.42729902 0.06347423 1644303
1.645323 0.42914188 0.062921539 1842701
1.6682084 0.46655121 0.041540667 8289623
1.6689643 0.46870536 0.04230918 9539961
1.6350019 0.41528901 0.06651675 4144461
1.6356162 0.41841963 0.0664832 3026478
1.6380841 0.42111105 0.064765349 1316109
1.6384811 0.42261249 0.063354783 1250316
1.640173 0.42482114 0.062721066 1118474
1.6414932 0.42726853 0.062573984 1118472
1.6659274 0.46650714 0.040233321 3223569
1.6307764 0.41355115 0.066517606 3421214
1.6327876 0.41591352 0.066471733 4933956
1.633647 0.41841337 0.063888103 3947583
1.6351109 0.42095849 0.063195735 2039327
1.6364566 0.42287281 0.06244994 1644823
1.6384262 0.4248375 0.061540619 1513481
1.6254091 0.40979087 0.066625401 789513
1.6271836 0.41163725 0.066552654 986888
1.6283339 0.41370398 0.064019978 986885
1.6299615 0.41596961 0.063539721 3222297
1.6316075 0.41849053 0.062916912 4866877
1.6327177 0.42094883 0.061740525 3618338
1.6216841 0.40849188 0.065621212 1909275
1.6234138 0.40965435 0.066143021 1316368
1.6247001 0.41209304 0.062570147 723973
1.626443 0.414168 0.062656954 657668
1.6279321 0.41659734 0.062464453 986374
1.6297994 0.41910732 0.061956853 1316105
1.6188921 0.40479445 0.064948961 2697247
1.6196835 0.40750408 0.064829543 2434845
1.6210859 0.40930721 0.062590584 1447951
1.6227627 0.4118742 0.062296398 987147
1.6241798 0.41428131 0.062120259 855816
1.6146641 0.40244654 0.064658783 1907980
1.616274 0.40537873 0.063596159 3354662
1.6177711 0.40748078 0.062660411 2302496
1.6194137 0.40982896 0.062190033 1578780
1.6201657 0.41185349 0.061212279 2172442
1.610966 0.40092191 0.063746229 1447694
1.6127871 0.40331662 0.063124269 1776652
1.6140753 0.40543109 0.062129796 2630684
1.6156633 0.40769643 0.06137903 3880480
1.6173055 0.41022572 0.061253078 4934192
1.6052425 0.39444563 0.064285807 2039569
1.6061678 0.39631429 0.064246692 1184519
1.6072276 0.39862782 0.064225614 1052681
1.6092424 0.40108314 0.06143339 1250060
1.6104162 0.40362388 0.061391994 1315596
1.6117332 0.40549839 0.060338855 1249801
1.6130508 0.40858874 0.060337655 1578760
1.6010908 0.3922945 0.063493297 5328972
1.6024795 0.39459521 0.064009219 2499873
1.6040418 0.39697507 0.062191084 1513228
1.6053249 0.39917549 0.061184712 1381645
1.6069392 0.40132287 0.0607398 789768
1.6083872 0.4039247 0.060094923 789767
1.5987093 0.39204121 0.063192613 4341807
1.6004233 0.39465168 0.061604314 4276797
1.6016122 0.39693359 0.060815655 2236959
1.6032441 0.39946488 0.060161166 1315854
1.6050695 0.40203354 0.060204975 1645319
1.5915999 0.38681707 0.064823344 1250057
1.5932405 0.38898084 0.062570289 1052171
1.5954006 0.38998359 0.062571846 1381386
1.5967017 0.39275017 0.06090425 3354400
1.5982549 0.39504397 0.060459018 4867645
1.5993763 0.39684573 0.059767768 3157796
1.5880567 0.38441861 0.063787766 1710612
1.5896002 0.38614517 0.064343601 1382166
1.5918164 0.3880696 0.061785355 1447437
1.5933471 0.39074931 0.059761316 789252
1.5945429 0.39295006 0.059958115 1117959
1.5963392 0.39504462 0.058135077 1184263
1.5965757 0.39738974 0.058490239 1052934
1.5833127 0.37898171 0.063540399 2105105
1.584976 0.38171884 0.062364697 1908244
1.5862228 0.38402617 0.062709272 1645069
1.5882324 0.38625818 0.061306223 1382154
1.5899658 0.38848674 0.059157588 1315596
1.5908792 0.39074004 0.058691777 921095
1.5924904 0.39288157 0.057641998 1315852
1.5931028 0.39517751 0.057400674 1184270
1.5786297 0.37483138 0.063822754 1841936
1.5798041 0.37714568 0.064217158 2105359
1.5815902 0.37932441 0.062820472 2105106
1.5828228 0.38161504 0.061527237 1973779
1.5841265 0.38424373 0.059876822 1250316
1.5858154 0.38639593 0.05835861 789512
1.5873908 0.38865516 0.057928406 855304
1.5888259 0.39107841 0.057047598 1249801
1.5899063 0.39319664 0.056335263 1776143
1.576552 0.37510735 0.063589141 1776400
1.5780702 0.37849596 0.061367542 2104843
1.5795212 0.37984785 0.060565777 1907469
1.5808274 0.38199207 0.059494086 1447183
1.5824399 0.38431156 0.058444768 1315598
1.5840108 0.38671568 0.057978638 1315854
1.5862122 0.38835996 0.056354515 1907986
1.5863211 0.39049512 0.056121022 1710608
1.5724583 0.37359372 0.061874591 1250065
1.5742819 0.37479845 0.062262945 1710354
1.5753696 0.37768456 0.059750699 1578764
1.5773249 0.37977627 0.059000395 1447182
1.5788317 0.38181806 0.058111623 1841932
1.5794744 0.38413957 0.058109269 2368270
1.5694854 0.37144664 0.060597539 1578263
1.5705514 0.37326238 0.060429707 1118219
1.5724597 0.37546512 0.058858998 1249550
1.5735041 0.37767416 0.0580962 1381389
1.5754648 0.38031554 0.05694022 1644812
1.5659604 0.36853111 0.059702367 3026969
1.5671803 0.37104005 0.059864029 1644556
1.5691106 0.37311858 0.058493614 1183753
1.5701181 0.37587279 0.057020858 855304
1.5715761 0.3780348 0.056200251 789510
1.5735345 0.37999305 0.055516765 723974
1.5622144 0.36621761 0.059781522 3355945
1.5635803 0.3692517 0.059124224 2500114
1.5649345 0.37135655 0.057247363 2170897
1.5665143 0.37372941 0.056487344 1381133
1.5680076 0.37573934 0.055979565 1250058
1.5693226 0.37765858 0.05530896 1645063
1.5584682 0.36503512 0.059035316 3422244
1.5599768 0.3672666 0.058114216 3289629
1.5614191 0.36949545 0.056404881 2829081
1.5627538 0.37166682 0.055825755 1973523
1.5641282 0.37350363 0.055035956 1973517
1.56584 0.37531096 0.054435417 1644296
1.5536046 0.36143523 0.05898755 1644572
1.5547129 0.36324921 0.058104403 3618867
1.5562365 0.36485556 0.057388015 3487524
1.5577503 0.36755052 0.055679522 3816486
1.5592327 0.36940879 0.05484245 3289381
1.5607294 0.37148151 0.054284737 3158042
1.5513723 0.36055648 0.057430185 2960422
1.5531155 0.36312869 0.056616053 3553060
1.5542502 0.36541897 0.054392606 3355176
1.5556049 0.36750531 0.054394372 3420968
1.5570455 0.36960006 0.053628623 4276523
1.5477564 0.35901734 0.056599513 2302488
1.5491815 0.35991842 0.057271466 3158050
1.5503982 0.36308217 0.054376855 4013357
1.5518953 0.36526251 0.053515784 3815729
1.5535512 0.3673096 0.052587733 4605489
1.5438747 0.35696533 0.055010699 1971989
1.5453939 0.35855573 0.055495471 2828822
1.5470123 0.36137187 0.053455688 3618344
1.5483638 0.36323509 0.052690499 3683890
1.5494556 0.36524802 0.05208353 5066550
1.5416943 0.35659415 0.054374695 2630418
1.5429906 0.35919043 0.052427284 2894363
1.5445614 0.36111748 0.052094877 3223084
1.5464637 0.36278298 0.051032946 4013104
1.5383865 0.35547125 0.053856969 2168852
1.5395825 0.35706851 0.05200018 3946264
1.5407734 0.35892165 0.051388197 2959396
1.5425718 0.36159542 0.049867459 3355172
1.5449723 0.36208022 0.049486205 3553298
1.5358279 0.35565034 0.051953107 3879952
1.5374706 0.35686028 0.050273664 3945748
1.5391505 0.35918286 0.049206413 2959396
1.5407846 0.36108238 0.048869647 3618838
1.5323751 0.35458803 0.050978206 3024401
1.5341202 0.35570303 0.049945995 5722148
1.5350019 0.35720506 0.048555493 4537885
1.5368917 0.35882062 0.04730469 4339740
1.5299667 0.35455137 0.049144909 11970877
1.5318569 0.35568735 0.04778029 9273662
1.5327593 0.35716715 0.046462595 5720345
1.5345087 0.35945827 0.045223475 4405014
1.5364311 0.36034599 0.04403355 5194278
1.5279679 0.3537524 0.046077654 10456932
1.5296681 0.35549706 0.045912847 9931086
1.5307163 0.35736382 0.044298708 7364391
1.5322272 0.35985246 0.043789469 4733467
1.5336584 0.36129588 0.041360639 6114336
1.5229349 0.3487528 0.046009563 9930858
1.5245545 0.35098603 0.045854852 9798246
1.5256469 0.35316905 0.044823572 13483393
1.5272516 0.35569152 0.043443881 10325066
1.5290227 0.35941547 0.042916 4864534
1.5302488 0.3604176 0.040972672 7034921
1.5321839 0.36132616 0.04017207 8153145
1.517489 0.34333837 0.046080276 9864801
1.5190613 0.34636682 0.045811966 9864554
1.5206559 0.34853163 0.045550756 11312244
1.5223051 0.35151196 0.043686941 13746308
1.5234189 0.3534776 0.042817973 11508838
1.5249685 0.35549873 0.041779585 11245916
1.5142093 0.34259579 0.04576844 10127211
1.515618 0.34446853 0.04590185 9930345
1.5170937 0.34723973 0.044423006 11772532
1.5186353 0.34915236 0.043135934 13549183
1.5200601 0.35109791 0.042389438 13418104
1.5212439 0.35359669 0.040880375 12035702
1.5098534 0.33832791 0.045610137 10654068
1.5111876 0.34046543 0.045456663 10456433
1.5118747 0.34241933 0.045566507 10193006
1.5136582 0.34478799 0.042689987 14206602
1.5149807 0.34710315 0.042696774 13680765
1.5164021 0.34956035 0.041854151 12628336
1.5056112 0.3356016 0.044847257 10719093
1.5069964 0.33775765 0.045379005 10653296
1.5083904 0.34012547 0.044646859 10719344
1.5099488 0.34262431 0.042309061 14404490
1.5112906 0.34516296 0.042200863 13352317
1.5125706 0.34766269 0.040062651 11902841
1.5034521 0.33616471 0.045060284 10653299
1.5050859 0.33864361 0.043235607 10916200
1.5065426 0.34083581 0.042026162 13154940
1.5075704 0.34317103 0.041355684 13154685
1.5014584 0.33617046 0.042564854 11706480
1.5028943 0.33873591 0.04136084 12233847
1.5041366 0.3408179 0.040105537 12233083
1.4977843 0.33420613 0.042272776 12299895
1.4993765 0.3365829 0.04056672 12431232
1.6543926 0.43226287 0.070256628 1579533
1.6551533 0.43453887 0.069631353 1447948
1.6567867 0.43734625 0.067363992 1513481
1.6569561 0.43932146 0.066628069 921350
1.65031 0.43043795 0.06942828 2565911
1.6517019 0.43285555 0.069319524 2105620
1.6531529 0.43483007 0.066861384 1908239
1.6544127 0.43726984 0.066610381 1447439
1.6550353 0.43969774 0.066458449 1907986
1.6469688 0.42827353 0.067981094 2499861
1.6476496 0.43062341 0.067904457 1973776
1.6491599 0.43301424 0.066599466 1644816
1.6508092 0.43542197 0.065838568 1776403
1.6527255 0.43711337 0.065582104 1578515
1.6431293 0.42636067 0.067027569 1250058
1.6445239 0.42865267 0.067225851 1381642
1.6459172 0.43085417 0.065760739 1644812
1.6471062 0.43321261 0.06500525 1907984
1.6479958 0.43564761 0.064682953 2236939
1.638844 0.42313638 0.06625209 1381649
1.6407661 0.42668599 0.066344932 723973
1.6422071 0.4291929 0.06466797 855302
1.6435215 0.43103239 0.064459488 1118217
1.644696 0.43328002 0.063978687 1447178
1.667827 0.47086248 0.041897982 8223842
1.6355622 0.4216601 0.066372603 1315345
1.6369314 0.42454135 0.066151135 1645074
1.6383834 0.42721856 0.064067647 1118730
1.6399766 0.4290567 0.0634702 855559
1.6413978 0.43091244 0.063137546 987398
1.6640973 0.46859407 0.04112836 1316112
1.6659696 0.47053194 0.040542349 4801821
1.630233 0.41750047 0.066859022 2170645
1.6321125 0.42005929 0.066708222 1512718
1.6335068 0.4225249 0.064382806 1447184
1.6350353 0.42471758 0.063776679 1447440
1.6366315 0.42701632 0.062954009 1447697
1.6377535 0.42925185 0.063184187 1316112
1.6256863 0.41320542 0.066436037 921098
1.6272124 0.41613919 0.066701278 1118730
1.6285962 0.41862559 0.065019608 1842184
1.6299243 0.42087594 0.063553408 2104595
1.6315625 0.42267057 0.063419357 1776144
1.6333234 0.42478785 0.062701002 1184268
1.622272 0.41164884 0.066615887 1513489
1.6236403 0.41389015 0.066216335 1118476
1.6249529 0.41584224 0.064194091 723974
1.6262503 0.41834554 0.063056305 921094
1.6277215 0.42084333 0.062697738 1315338
1.6293163 0.42336252 0.06209708 1447688
1.6183783 0.41009566 0.066182129 2566177
1.620159 0.41111127 0.065462425 1776915
1.6208155 0.4138127 0.063292235 1250573
1.6228756 0.41625199 0.062666535 790281
1.6240516 0.41845521 0.062072158 789767
1.6253684 0.42066929 0.0622015 1118215
1.6146079 0.40728977 0.064973801 4012324
1.6162932 0.40942585 0.064200163 3289641
1.6175891 0.41183817 0.063027687 1776669
1.6192844 0.41460052 0.062360883 1579802
1.6205223 0.41689581 0.062040895 1316884
1.6096525 0.40373853 0.064465165 789255
1.610729 0.40633622 0.064865679 1117958
1.6125588 0.40732533 0.063336335 2433043
1.6139065 0.40975192 0.062979273 3156765
1.6157864 0.41216594 0.061879009 3749415
1.617433 0.41412607 0.061430238 4737607
1.6030802 0.3978844 0.066733122 1316108
1.6065819 0.40053794 0.064152956 1447436
1.607594 0.40331203 0.064068407 987144
1.6092898 0.40576816 0.062292255 855301
1.6104319 0.4076772 0.061990969 986376
1.6121041 0.41038802 0.060244426 1052676
1.6132616 0.41187748 0.061386168 2235910
1.5990831 0.39504868 0.066283248 1315095
1.6011286 0.39647621 0.066163279 1315340
1.6024866 0.39884666 0.064584307 1447950
1.6040395 0.40114492 0.0639432 1974031
1.6050081 0.40329438 0.061380692 1184782
1.6068575 0.40532336 0.061068088 658182
1.6081531 0.40769744 0.060629442 723973
1.6090519 0.41042563 0.060148664 592390
1.5958825 0.39190078 0.065920889 1776657
1.5975751 0.3941237 0.065734774 1118474
1.5991112 0.39676979 0.064427011 986631
1.6004844 0.39904091 0.06146393 1447693
1.6015711 0.4010199 0.061440699 1513233
1.6031691 0.40344942 0.061032981 1710867
1.6055815 0.40613124 0.059990644 1844237
1.5927061 0.38944247 0.065011084 1118730
1.5938532 0.39203718 0.064892054 1053191
1.5950823 0.3948901 0.063202105 1118471
1.5968913 0.39717734 0.06138508 1644303
1.5982969 0.39911321 0.061088458 1381645
1.5998864 0.40089557 0.060203508 1053192
1.5883766 0.38789102 0.064346433 1514254
1.5903445 0.38990325 0.063799091 1447693
1.5915864 0.39238307 0.062594667 1250317
1.5931433 0.39481151 0.060384557 1052423
1.5946043 0.39683282 0.060552806 1249543
1.5957475 0.39923468 0.059042193 1250566
1.5836775 0.38354373 0.064130805 1711120
1.5848994 0.38577276 0.064453736 1645582
1.5866098 0.38795784 0.063505985 1513996
1.5881817 0.38995507 0.061799511 1513486
1.5894251 0.39287719 0.059386112 1381644
1.5909384 0.39493516 0.059287205 855560
1.5923275 0.39711297 0.058083355 1184523
1.5932589 0.39900377 0.0584241 1381386
1.5789001 0.37936339 0.065003559 2105617
1.5804126 0.38132954 0.064994067 1974039
1.5816036 0.38347721 0.063379541 1974034
1.5821838 0.38568869 0.062503666 2105105
1.584209 0.38842213 0.060655102 1250314
1.5855484 0.39065513 0.058630176 658181
1.5873188 0.3929306 0.058366954 1052680
1.5886288 0.39534351 0.057805315 1381642
1.5905757 0.39657786 0.057120889 2368783
1.5751233 0.37718284 0.063827641 1842194
1.5757216 0.37854001 0.064499192 1973518
1.5778025 0.38134202 0.062904455 2039306
1.5792677 0.3838402 0.060671344 1513229
1.5806639 0.38631561 0.05989787 1315853
1.5822943 0.38854083 0.058973454 1184270
1.5841668 0.39079103 0.058014527 987146
1.5853026 0.3934496 0.056404784 1579275
1.5869389 0.3950178 0.056212045 1381639
1.5712192 0.37565607 0.062915944 1052680
1.5729146 0.37713304 0.063302919 1315851
1.5740467 0.37951684 0.061417855 1315335
1.5756251 0.38192835 0.060349688 1315594
1.5773162 0.38405347 0.059633911 1381132
1.5788045 0.38639739 0.05906336 1776141
1.5801914 0.38944283 0.057963848 3552043
1.5816598 0.39208621 0.056396648 3026470
1.5680882 0.37326223 0.061878704 1512462
1.5692029 0.3750841 0.061777137 1315336
1.5709548 0.37778169 0.060914062 789765
1.5725101 0.37975326 0.059304334 986631
1.5733049 0.38202238 0.059056647 920838
1.5748894 0.38411999 0.057889998 1512966
1.5631818 0.37175286 0.062124856 1710348
1.5656447 0.37251765 0.061454631 1644556
1.5671411 0.37535027 0.061318144 1973266
1.5686255 0.37780803 0.057943642 790278
1.5698999 0.38002491 0.057919458 460803
1.5713797 0.3820954 0.057182416 526339
1.5730193 0.38406092 0.057097092 723460
1.5603912 0.36931768 0.061158292 1776402
1.562362 0.37074751 0.060602389 1512969
1.5635046 0.37314585 0.05952397 1644556
1.5647724 0.37563002 0.057877585 1512974
1.566515 0.37765828 0.057528734 1381645
1.5680389 0.37980637 0.057060666 1184522
1.5689605 0.38237745 0.056555077 1447945
1.5573782 0.36724672 0.060253166 2433815
1.558539 0.3685185 0.060848624 1907997
1.5598769 0.37158075 0.058492258 1841934
1.5613682 0.37360397 0.057395339 1381389
1.5627158 0.37533918 0.056818224 1710092
1.5648493 0.37655905 0.055727117 2104841
1.5530776 0.36553818 0.059748054 3421981
1.5548167 0.36640251 0.05942826 2960669
1.5564015 0.36910895 0.057700589 2697235
1.557821 0.37139592 0.056730576 1578512
1.5588808 0.37354273 0.056112967 1447178
1.5604383 0.3749921 0.055357702 1710600
1.5498966 0.36218759 0.058798835 3684649
1.551262 0.36480933 0.058685377 3421729
1.5530485 0.36675173 0.05790551 3223830
1.5540439 0.3694672 0.055594124 2631452
1.5555439 0.37138391 0.054936111 2170900
1.5570028 0.37350065 0.0544855 1842442
1.5462435 0.36076558 0.058243752 3553062
1.5473583 0.36334449 0.058059424 3619108
1.549015 0.36488691 0.056108996 4605999
1.5506302 0.36742875 0.054820679 2960677
1.5520947 0.36947113 0.054506183 3026205
1.5535568 0.37169272 0.054128543 2105355
1.5428885 0.3586221 0.056542739 3223331
1.5436633 0.36023146 0.057132594 2828836
1.5454623 0.36230707 0.056012094 3486760
1.5468557 0.36516023 0.05424507 3947314
1.5486621 0.36715356 0.053738125 3618087
1.5404372 0.35833389 0.056511924 2894366
1.541749 0.36080235 0.055000171 3487015
1.5429623 0.36335999 0.053304464 3091758
1.5447265 0.36504859 0.052964345 4079154
1.5459244 0.36736214 0.053366274 5461296
1.5367382 0.35669014 0.055244088 2564890
1.5382233 0.35872057 0.054127544 3091995
1.5397506 0.36111724 0.052635528 3354672
1.5409442 0.36322504 0.052150354 4868921
1.543063 0.36453563 0.051839039 5790013
1.5329646 0.35487992 0.054383941 2498581
1.534633 0.35630858 0.05410888 3157267
1.5359161 0.35874099 0.052175149 3025702
1.5375491 0.36117592 0.050909065 4012850
1.5380774 0.36338967 0.051475748 5987386
1.5308307 0.35453883 0.052787542 4472851
1.5324587 0.35689986 0.051337391 3025436
1.5336831 0.35923842 0.050142311 2828587
1.5354804 0.36077541 0.049983226 3683885
1.5272727 0.35318518 0.052445583 2760716
1.5285854 0.35517651 0.050396785 4406296
1.5301442 0.3566905 0.049846806 3419665
1.5319004 0.35891935 0.048338011 3091231
1.5247347 0.35379261 0.049807414 6050066
1.5264454 0.35500446 0.04888659 5195291
1.5284092 0.35720101 0.047365472 4537107
1.5290623 0.35854647 0.046313621 3945245
1.5211612 0.35234642 0.04894188 5390860
1.5229074 0.3535932 0.047499537 9865286
1.5243227 0.35472751 0.046991818 8023346
1.5257969 0.35715199 0.045441568 5128470
1.5272413 0.35898209 0.044049859 4470810
1.5287738 0.3602874 0.04277122 4667930
1.5195551 0.35150853 0.046590202 8745549
1.5210558 0.35291418 0.0458958 12562534
1.5220184 0.35570046 0.044545874 7890982
1.5238321 0.35706371 0.0444621 5127698
1.5251859 0.35974875 0.041797563 5785635
1.52739 0.3608067 0.040857442 6969893
1.5147351 0.34678629 0.046214581 10259060
1.5158165 0.34934056 0.045852013 10061672
1.5170704 0.35139236 0.04545752 12957051
1.5186659 0.35355511 0.043229498 11509083
1.520393 0.35551494 0.042823903 8547897
1.5213535 0.35840699 0.041074201 6705705
1.522873 0.35982516 0.040115058 7561528
1.5108223 0.34437814 0.045773685 10127211
1.5121707 0.34673917 0.045729831 10193517
1.5133289 0.34933701 0.043550946 14602121
1.5149524 0.35127246 0.043214701 12627825
1.5165269 0.3534629 0.042059913 11509344
1.5061094 0.34019044 0.04551819 10521967
1.5071864 0.34261206 0.045572475 10390126
1.5088217 0.34469226 0.045756325 10193002
1.5098825 0.34693021 0.042520367 14733707
1.511218 0.34916919 0.042448498 12693620
1.5128167 0.35152659 0.040639147 11838068
1.5019734 0.33800268 0.045467317 10653556
1.5033389 0.34005752 0.045356289 10456437
1.5048733 0.34291813 0.044238001 12891015
1.5063434 0.34504274 0.04215537 13483135
1.5076989 0.3470903 0.041857108 13286268
1.5092183 0.34940904 0.040264763 11837559
1.498329 0.33620521 0.045104206 10653552
1.4997044 0.33788916 0.044877149 10719088
1.5011233 0.34046218 0.042887539 11047531
1.5029447 0.34312171 0.041728266 13878663
1.5041518 0.34492213 0.040621854 12430715
1.4945828 0.33413431 0.045153469 10785139
1.4963595 0.33574268 0.043657117 11047535
1.4973633 0.33843404 0.042690687 11574641
1.4992089 0.34093797 0.041008033 12365434
1.4925696 0.33406356 0.042554922 12101491
1.494087 0.33588645 0.041932262 12893310
1.4952981 0.3386994 0.040207669 12694399
1.4903302 0.3346917 0.041380674 12364924
1.6535647 0.43681487 0.070829324 1776909
1.6536528 0.43926051 0.071221389 1645321
1.6571374 0.44531232 0.067733586 1446927
1.6508665 0.43508261 0.069673918 2434582
1.6517221 0.43679804 0.069987074 2303253
1.6531202 0.43963286 0.067214392 1645074
1.6541145 0.44181031 0.067051858 1513232
1.6558533 0.44345558 0.066474304 1053194
1.6467903 0.43242151 0.068148911 1776655
1.6479743 0.43492192 0.068551436 1776655
1.6493025 0.43716672 0.06718611 1776655
1.6509944 0.43969014 0.066267878 1710355
1.6524026 0.44228309 0.066334568 2105363
1.6427088 0.43036267 0.068435952 855298
1.6444775 0.4329311 0.067729205 1513224
1.645931 0.43535841 0.066683292 1776398
1.6472059 0.43778765 0.065573603 1776143
1.648288 0.43972698 0.065552674 1907982
1.6400168 0.42839253 0.067602649 790024
1.6406837 0.43088165 0.067638919 723973
1.6425492 0.43319905 0.065718971 986885
1.6436013 0.43521687 0.064763144 1249801
1.6448071 0.43771955 0.064988412 1578509
1.6343164 0.4250623 0.067530259 2368533
1.6346935 0.42719659 0.067597784 2763544
1.6377088 0.42852515 0.0670835 1579790
1.6387717 0.43095058 0.064599633 790025
1.6398995 0.43337396 0.064215451 789769
1.6412135 0.43566152 0.064441249 657926
1.6304219 0.42257217 0.067355238 1841932
1.6326649 0.42388231 0.067697488 2433818
1.6332895 0.42698729 0.064704128 1776402
1.6350082 0.4291122 0.064343758 1776407
1.6364825 0.43118715 0.063982502 1644820
1.6368971 0.43373451 0.063557662 2171927
1.6267244 0.42043462 0.066861726 1842192
1.6286361 0.42205918 0.066220537 1579275
1.6300032 0.42482021 0.064429134 1775889
1.6313945 0.42689267 0.064110726 2301978
1.6332724 0.4279615 0.063243136 3551785
1.6232821 0.41725436 0.066227078 1184525
1.6245087 0.41990587 0.066361502 1512976
1.6263783 0.4225921 0.063631594 1644558
1.627548 0.42480287 0.063537724 1841936
1.6285495 0.42718682 0.062788129 2236943
1.6185597 0.41277882 0.066402696 2960429
1.6198452 0.41577879 0.066138402 1973781
1.6207292 0.41831219 0.064175084 1184778
1.6227465 0.42048886 0.06297534 921096
1.6239187 0.42262688 0.062885001 1183756
1.6256425 0.42455351 0.062514164 1249804
1.6148596 0.41156739 0.065824777 4999233
1.6163148 0.41354176 0.065152295 3684931
1.6174592 0.41598618 0.063741945 2105629
1.6190767 0.41833237 0.062709689 1447698
1.6206024 0.42076376 0.062462159 986891
1.6087184 0.40689924 0.066956103 1117962
1.6110395 0.40965006 0.065637343 1841675
1.6127 0.41156295 0.063579381 3814948
1.6141737 0.41390371 0.063073471 5393475
1.6153017 0.41618505 0.062425397 4868158
1.6170243 0.41831958 0.06177821 3882035
1.6029427 0.39971957 0.067689985 1776653
1.6043472 0.40218085 0.067794271 1382417
1.6060357 0.40536502 0.068120621 1052682
1.6071744 0.40707558 0.065063514 986890
1.6093341 0.4098016 0.062686175 723716
1.6101044 0.41188341 0.0628075 1315336
1.6117878 0.4140121 0.061775245 2827545
1.61334 0.4158408 0.061623633 3617564
1.598124 0.39609647 0.06783697 1381905
1.599643 0.3983759 0.067795992 2632236
1.6012752 0.40070936 0.067127317 2632484
1.6019878 0.40278482 0.064876601 3749680
1.6038707 0.40524769 0.06487041 2303002
1.6052707 0.40759903 0.061840504 790024
1.6066421 0.41001701 0.061727636 526597
1.6083708 0.41228586 0.060182169 724230
1.6094954 0.41431609 0.060426548 723716
1.5957117 0.39616039 0.066895954 1513487
1.5974965 0.39869425 0.065722018 2828320
1.5995095 0.40061006 0.0648586 4341048
1.599633 0.40282536 0.062453479 3158059
1.6015154 0.4050276 0.062042259 2105371
1.6033747 0.40776381 0.061336517 1447698
1.6049345 0.41068989 0.0603441 1974800
1.5926566 0.39426771 0.065629356 1315594
1.5937314 0.39623585 0.065632597 1513485
1.5954758 0.39881289 0.063803643 1907467
1.5965048 0.40130991 0.062065929 2434334
1.598254 0.40336177 0.061576024 4276029
1.5994465 0.40536448 0.061282553 6381902
1.6007233 0.40794176 0.060209379 4803117
1.5898399 0.39234084 0.064426243 1250829
1.5900327 0.39394858 0.064507164 1513488
1.5918543 0.39660394 0.06317012 1447437
1.5931256 0.39916179 0.061162479 1315595
1.5943531 0.40090555 0.061208755 1842194
1.595688 0.40262091 0.060142867 2499342
1.5840914 0.38776749 0.064037107 1645845
1.5836631 0.38930556 0.064239249 1646096
1.5858821 0.39213085 0.062842786 1776655
1.5879431 0.39421588 0.062355883 2105362
1.5895591 0.39671433 0.060172886 1250060
1.5906801 0.39910057 0.059877291 1052936
1.5919393 0.40128997 0.058614135 1316105
1.5782948 0.38366789 0.064937577 2959893
1.5796849 0.38591725 0.064933732 3222810
1.5814458 0.38773906 0.063494593 2105359
1.5832272 0.39018422 0.062747329 1842451
1.5845482 0.39247698 0.061415583 1776401
1.5859865 0.39482605 0.059179351 1447437
1.5872873 0.39721039 0.058930747 1315853
1.5886904 0.39930859 0.058343798 1842445
1.5902035 0.40085378 0.0576609 2171663
1.5748177 0.38081166 0.0655111 1974036
1.5766277 0.38311327 0.065047711 3024925
1.5776281 0.38559356 0.063326389 4011055
1.5794528 0.38818499 0.061329134 2368537
1.5808759 0.3902829 0.060384989 1447949
1.5821005 0.39269444 0.059434555 1316109
1.5835943 0.39528328 0.058534369 1184269
1.5851941 0.39743623 0.057138577 1907728
1.586585 0.40001208 0.057260379 2631700
1.5718031 0.3796517 0.064590342 1184260
1.5725033 0.38150114 0.064024121 1315846
1.5740798 0.38355997 0.062044322 1578510
1.5755916 0.38593659 0.060786285 2367770
1.5768943 0.38833198 0.059915766 3288871
1.5784395 0.39027941 0.059159204 2499620
1.5799141 0.39278674 0.058365077 1709849
1.5815957 0.39518708 0.056125179 2697237
1.5822108 0.39730808 0.056864209 2302738
1.5680902 0.37736899 0.063064873 1382150
1.5693315 0.37922788 0.063126549 921862
1.5705779 0.38146275 0.061639756 723461
1.5721571 0.384195 0.060128435 855045
1.5734228 0.38601047 0.059686683 1578253
1.5749302 0.38853657 0.058599696 2959383
1.5764254 0.39188132 0.057004265 4669737
1.5783243 0.39409846 0.055733882 5262905
1.5628095 0.3730076 0.063414045 1973522
1.5644379 0.37478909 0.063097388 2236694
1.5654969 0.37755993 0.06252902 2039315
1.5674832 0.37936556 0.060819857 1513486
1.5687509 0.38198951 0.058897242 460804
1.5698045 0.38407955 0.058692522 395011
1.571192 0.38643876 0.05785697 591876
1.5590216 0.37122124 0.063502781 1907215
1.5610893 0.372307 0.06345363 1973266
1.5617869 0.37519497 0.061406553 2039311
1.5633457 0.37744427 0.059633404 1973776
1.5648935 0.37980264 0.058898814 1315853
1.5663813 0.38209304 0.0579862 1052683
1.5676633 0.38420033 0.057605974 987146
1.5567203 0.37011284 0.062073663 1841682
1.558224 0.3740887 0.060028717 2039309
1.5596511 0.3754918 0.058949232 1776145
1.5613456 0.37765461 0.058642425 1512720
1.5630622 0.3795439 0.057764642 2434065
1.5532312 0.36880985 0.061033353 1447188
1.5549352 0.37106043 0.05910597 1446926
1.5563149 0.37342706 0.058478199 1578512
1.5574565 0.37552941 0.057611667 1644305
1.5591251 0.37758526 0.056972831 2434319
1.5500935 0.36661434 0.060115337 2434834
1.5511431 0.36853051 0.05933743 1710603
1.552604 0.37170008 0.057397597 1184013
1.5540369 0.37332845 0.056698173 1249549
1.5552827 0.37553474 0.055981204 1250057
1.5440053 0.36348537 0.059998631 3487263
1.5459929 0.36450857 0.059809148 3026459
1.5473961 0.36701807 0.058218025 2894614
1.5488769 0.36944625 0.056224056 2039318
1.5503205 0.3712329 0.055989742 1512973
1.5521965 0.37367514 0.055500351 1052936
1.5534844 0.37533793 0.055155732 658692
1.5410851 0.3605867 0.058747746 3948585
1.542336 0.36248252 0.059193201 3685156
1.5439265 0.36452135 0.057726324 3421212
1.5455118 0.36689487 0.055792071 3092006
1.546901 0.36933488 0.055324391 1775889
1.5481699 0.37120718 0.055236727 2039562
1.5385652 0.36023706 0.057896197 3355179
1.5401945 0.36224359 0.057174392 3816230
1.5418832 0.36540797 0.054840475 1973017
1.5433024 0.36733511 0.054546878 2696988
1.5447216 0.36916873 0.054731682 2499858
1.535404 0.35834959 0.056886427 3223589
1.5365436 0.36080709 0.056959629 3552552
1.5383784 0.36323074 0.054040581 2762278
1.5395477 0.36507913 0.053714231 3749675
1.541007 0.36693943 0.053753629 4671019
1.5314595 0.35669249 0.056277014 2828581
1.5330878 0.35840642 0.055583254 3092258
1.5344613 0.3608267 0.053747505 3157547
1.5361944 0.36336818 0.052962497 3947315
1.537434 0.36511469 0.052965701 5921849
1.5260406 0.35238066 0.055932082 1905939
1.5281004 0.35477954 0.055265926 2433568
1.5295842 0.35634479 0.054643072 3158043
1.5309896 0.35890362 0.05312404 3289132
1.5324786 0.36107677 0.052177683 3684150
1.5336211 0.36283568 0.051607795 5197885
1.5218306 0.35139328 0.055783883 1839900
1.5243348 0.35227689 0.055378318 1840147
1.5259219 0.35399705 0.053800993 3880979
1.5272288 0.35677636 0.052149437 2894115
1.5286734 0.35872227 0.051558748 3486261
1.5301754 0.36049864 0.050953753 4013116
1.5188431 0.34946918 0.055533245 2694945
1.5206324 0.35067904 0.05450739 2432020
1.5224524 0.3525264 0.053306311 3945746
1.523582 0.35491422 0.051357411 3091226
1.5251621 0.35685411 0.05071035 3157037
1.5267937 0.35828283 0.05035609 3223091
1.5183192 0.35062468 0.053184263 2695433
1.5198972 0.35298267 0.050804116 4472087
1.521469 0.35431752 0.049848996 4077076
1.5234058 0.35707775 0.048519179 3091745
1.5160115 0.35207656 0.05023814 5919256
1.5177354 0.35308591 0.049047589 5589783
1.5196961 0.35499144 0.047736965 5195295
1.5209398 0.35652071 0.046021976 4076057
1.5225587 0.35825539 0.044738024 4274710
1.5137949 0.35206488 0.047954462 8681014
1.5155493 0.35272691 0.04720927 8352057
1.5171323 0.35501248 0.045989841 5588755
1.5184689 0.35716057 0.044053569 4536089
1.5202802 0.35953984 0.042626023 4340257
1.5119822 0.35093457 0.046192572 11509857
1.5134795 0.35358164 0.044623822 8285224
1.5142485 0.35643905 0.044144601 4602650
1.516731 0.3581844 0.041703925 5324828
1.5175357 0.35977113 0.040350869 6443822
1.520617 0.36105087 0.040079288 5720361
1.506681 0.34667528 0.045596242 10390637
1.5083466 0.34915811 0.045144163 11509359
1.5100849 0.35138381 0.044206932 12825192
1.5109446 0.35286829 0.04316137 9995841
1.5113797 0.35688859 0.041734248 4470281
1.5138997 0.35768434 0.040495478 6903337
1.5024111 0.34227037 0.045402348 10522482
1.502874 0.34481803 0.045315579 10456436
1.504933 0.34655508 0.044900201 10521968
1.506114 0.34936178 0.043010518 14141058
1.5077147 0.35110116 0.042624243 11706720
1.4981197 0.33988255 0.045323528 10587759
1.4996978 0.34196451 0.045343041 10522480
1.5008762 0.3442488 0.043086573 12364155
1.5026081 0.34684926 0.042363122 13878144
1.5041571 0.34931898 0.041990951 12693614
1.4934094 0.33575237 0.044899702 10785139
1.4949663 0.3380895 0.04514958 10719349
1.4965897 0.3403486 0.044631578 10719598
1.4976113 0.34309033 0.042364717 13943942
1.4988132 0.34503195 0.041900501 14536329
1.5003082 0.34697011 0.041235968 12957306
1.4902498 0.33355263 0.045294449 10982262
1.4908137 0.33611646 0.044817127 11047795
1.4924484 0.33804685 0.043847121 11179119
1.494137 0.34024569 0.042757027 11376492
1.4952816 0.34289357 0.041044876 13944453
1.4874197 0.33415601 0.043942958 11376756
1.4888262 0.33592442 0.042658776 12035446
1.490416 0.33873835 0.041251436 12496505
1.4837532 0.33187857 0.042722747 12167032
1.4853693 0.3339867 0.041986257 12628347
1.4866955 0.33651614 0.040920019 12891777
1.4815333 0.33181447 0.041734479 13089924
1.653375 0.44140846 0.07140673 1447948
1.6536794 0.44356725 0.071555629 1053449
1.6504548 0.43861255 0.070463136 2500121
1.6513999 0.44107214 0.070817687 2368791
1.652488 0.44357848 0.067897394 1776405
1.6542808 0.44604835 0.067189306 1316108
1.6553552 0.44773829 0.067029543 1184778
1.646482 0.43723965 0.069459349 2105358
1.647892 0.43874988 0.069131069 1382412
1.6492457 0.44156575 0.06739448 1776401
1.650745 0.44405994 0.067124389 1710354
1.6526545 0.44579938 0.066184491 2631954
1.6432593 0.43499359 0.068649471 1447430
1.6442903 0.43676889 0.068130665 1644809
1.6458175 0.43972147 0.06694442 1776144
1.6473837 0.44173822 0.066086113 1776402
1.6489006 0.4437966 0.066112384 2631442
1.6397977 0.43266156 0.068025596 592388
1.6408249 0.43500999 0.067900196 855301
1.6420372 0.43734467 0.066293307 1184006
1.6434973 0.43981013 0.065479204 1446922
1.6447151 0.44239944 0.065002866 2434056
1.6344233 0.4288325 0.068157621 2500130
1.6354853 0.43080714 0.068229496 2171160
1.6377499 0.4332889 0.06683632 1052938
1.6384581 0.43535277 0.065224037 723976
1.639773 0.43764406 0.064628899 789511
1.6421049 0.43900529 0.064023212 1183751
1.6304412 0.4262529 0.068115562 4407086
1.6322109 0.42828587 0.067430176 3289645
1.6333458 0.43049932 0.065212347 1776666
1.6347959 0.43327096 0.064761594 1579287
1.6365136 0.43558398 0.064355306 1316113
1.6373174 0.43770531 0.064313151 1382158
1.6273394 0.42424431 0.067363217 2170640
1.6285915 0.42666343 0.065722197 3222305
1.629678 0.42904177 0.065341197 4341048
1.6315265 0.43105096 0.064707473 2631207
1.6323628 0.4332031 0.064355366 3091488
1.6221907 0.42018712 0.066756666 1249548
1.6237026 0.42248046 0.066971272 986633
1.6251081 0.42415029 0.065208726 1184269
1.6263044 0.42663634 0.064753316 1841169
1.6277547 0.42908916 0.063340507 1644554
1.6195368 0.42001012 0.066146575 1447437
1.6210876 0.42260852 0.064494625 987143
1.6227165 0.42460418 0.063700758 723718
1.6238406 0.42695007 0.0635444 526597
1.6256772 0.42819163 0.063055553 592134
1.6143818 0.41541803 0.066059537 3486756
1.6164464 0.41822636 0.06546732 1184271
1.6174245 0.42014489 0.064134389 1184268
1.6189597 0.42249861 0.063412994 1184268
1.6205474 0.42488876 0.063035496 789769
1.6081685 0.40923923 0.068294823 922122
1.6097556 0.41153228 0.067603871 1118733
1.6112242 0.41385466 0.065764412 1907467
1.6127008 0.41620469 0.064040318 4143664
1.6138109 0.41830373 0.063657194 2368025
1.6156095 0.42031774 0.062804729 1249805
1.6029626 0.40405697 0.068428889 1579539
1.6048931 0.40692657 0.067718677 1184780
1.6063924 0.40890607 0.066472031 987403
1.6075321 0.41178048 0.065789312 921096
1.6088022 0.41349635 0.063661776 723717
1.610175 0.415941 0.062737323 1578253
1.6117517 0.4182359 0.062161453 1381130
1.612103 0.42035946 0.061871454 1118468
1.5992317 0.40225995 0.06860245 3159091
1.6008373 0.40495059 0.068147451 2105372
1.6024024 0.40707049 0.066044807 1908247
1.6036583 0.40948343 0.065319277 1842707
1.6051594 0.41182163 0.062384471 723975
1.6068245 0.41397026 0.062152885 592389
1.6079979 0.4161807 0.061803304 789254
1.6094325 0.41808018 0.061088704 1052421
1.594516 0.39828938 0.067317337 3290398
1.5965164 0.40046588 0.067630395 6053464
1.5976729 0.40273306 0.065971136 4999742
1.5989907 0.405303 0.065286443 3421216
1.6002259 0.40746626 0.063084207 1776666
1.6015568 0.40950143 0.062460721 1316112
1.6032019 0.41195884 0.061808906 1118734
1.6048908 0.41421223 0.061074972 1184522
1.5919188 0.39786708 0.066700362 1711376
1.5937285 0.40036979 0.065402456 2762519
1.59501 0.40314415 0.064019307 4604466
1.596674 0.40516362 0.062723272 5722695
1.5979215 0.40734789 0.062343597 3157790
1.5992413 0.41015655 0.061319694 2105878
1.6008036 0.41176471 0.060428664 3026735
1.5890434 0.39655578 0.064851157 1382676
1.5898868 0.39827251 0.065153062 1119249
1.5915102 0.4010846 0.063452974 987146
1.5929141 0.40312177 0.062245093 2499096
1.5946448 0.40552178 0.061607026 3485476
1.5865839 0.39642331 0.063870035 2040344
1.5885592 0.39892852 0.062603876 1974289
1.5897079 0.40123937 0.060939789 855560
1.5905471 0.40314582 0.060829706 723718
1.5921963 0.40533811 0.059968591 855557
1.5801094 0.38960555 0.064937696 1974044
1.5815537 0.39258847 0.06432268 2171161
1.5833004 0.3941668 0.063347131 2171159
1.5846125 0.39657801 0.062127657 2302740
1.5856657 0.3987495 0.060318097 1907985
1.5871584 0.40127379 0.059604958 1381647
1.5883461 0.40337801 0.058468439 2105620
1.5744078 0.3841491 0.064762227 3617552
1.5764651 0.38757926 0.06454251 4341046
1.5775695 0.38995871 0.064621456 2105627
1.5792575 0.39211711 0.062095076 2434325
1.5804381 0.39457372 0.060890079 2039314
1.5817746 0.39685449 0.05981423 1907729
1.583661 0.39927685 0.059060924 1644560
1.5849607 0.40183958 0.058212258 2368274
1.5719136 0.38266996 0.06469626 1381895
1.5728563 0.38580287 0.06343475 1710598
1.574114 0.38777736 0.062975205 2104591
1.5756656 0.39030814 0.061477065 3025949
1.5770434 0.39247015 0.060206443 2960675
1.5783223 0.39495218 0.059316844 1710102
1.5801971 0.39696747 0.058171421 1381137
1.5814698 0.39946777 0.057379313 2368273
1.5671349 0.37937909 0.06466721 1448459
1.567836 0.38167632 0.064330406 1053449
1.5695224 0.38312516 0.063468657 855556
1.5704731 0.38561884 0.062190428 723973
1.572077 0.38817587 0.060657412 1315336
1.5737064 0.39037877 0.059631974 3024924
1.5749036 0.39276987 0.058784626 2958885
1.5760989 0.39519644 0.057257876 1973005
1.5781296 0.39695123 0.056356184 2566155
1.5628297 0.37681225 0.063769624 2171157
1.564189 0.37926063 0.064024709 1974035
1.5656371 0.38120219 0.062809236 1776656
1.5673739 0.38417068 0.061286248 1118729
1.5685709 0.38631767 0.05949387 460802
1.5698657 0.38813823 0.0589111 526083
1.5712291 0.39091772 0.058288366 723204
1.5731264 0.39388949 0.056375332 1052421
1.5743177 0.39584202 0.056354277 1908233
1.5574843 0.37231377 0.064209402 2302740
1.559342 0.37460065 0.064960219 2237203
1.5609174 0.37742084 0.063323088 2171405
1.5621508 0.37926885 0.061545886 1907982
1.5631965 0.38173544 0.060147196 1316107
1.5650182 0.3837955 0.059424296 921609
1.5663919 0.38606253 0.058473729 723976
1.5676051 0.38866207 0.058129154 789766
1.5694044 0.39083278 0.057373881 723459
1.5554079 0.37286296 0.063774616 1644558
1.5567486 0.37549841 0.060952008 1907981
1.5582185 0.37725779 0.061286509 1710861
1.5597433 0.37973657 0.059827767 1381390
1.5614374 0.38177225 0.058961794 1381133
1.5628409 0.3843832 0.058423117 1578768
1.5642903 0.38633758 0.058080927 1250313
1.5526161 0.37081501 0.061905913 1315346
1.552717 0.372159 0.062546834 986894
1.5548757 0.3753632 0.060285941 1184263
1.5562521 0.37771052 0.058878809 1249549
1.5575594 0.37947735 0.058584809 1512972
1.5591813 0.38124898 0.058416799 2171657
1.5479466 0.36894688 0.061226584 1841426
1.5497943 0.37088349 0.06080845 1710350
1.5508728 0.37347871 0.059010163 1316617
1.5525651 0.37537041 0.058563761 657925
1.5538191 0.37732881 0.057454087 723461
1.5552473 0.3794212 0.056800351 789254
1.544065 0.3665024 0.060931958 1842194
1.5461172 0.36857817 0.059828557 1973264
1.547334 0.37108794 0.058909446 2105615
1.5487901 0.37327832 0.057379052 1316110
1.5503092 0.3754223 0.056791708 1118986
1.5519379 0.37785554 0.056179531 723974
1.54115 0.36454856 0.060550235 2433809
1.5424666 0.36678365 0.059368968 1775883
1.5439996 0.36931878 0.058144778 1710100
1.5453904 0.37144652 0.056767978 1710095
1.547181 0.37323228 0.05685845 2236691
1.5380385 0.36278632 0.059300914 3816241
1.5387203 0.36472034 0.058849104 2762774
1.5404387 0.36683276 0.056815512 1512459
1.5417453 0.36925498 0.056051873 1315343
1.5429368 0.37084246 0.055739574 1578763
1.5338229 0.36052132 0.058116414 2895143
1.5352777 0.36251888 0.058424175 3816742
1.5366316 0.36437464 0.05640208 2828571
1.5383325 0.36740449 0.055093765 1907219
1.5396348 0.36915788 0.055173457 1578763
1.5301673 0.35853335 0.057687506 2828835
1.5316232 0.36009812 0.057629772 3487271
1.5329241 0.36279425 0.056009829 3289632
1.5343128 0.36523619 0.054205671 2828324
1.5361586 0.36678362 0.053983092 3552547
1.5263977 0.35625389 0.056793422 2894371
1.5280991 0.35816887 0.056677848 3618603
1.5295248 0.36094633 0.054852284 3223335
1.5311222 0.36314592 0.0537524 3091498
1.5323565 0.36494893 0.05316247 4539698
1.5212798 0.35235006 0.057156354 1775140
1.5226963 0.35384929 0.05661688 2367520
1.5243649 0.35616431 0.056093708 3421221
1.5258245 0.35873252 0.053769171 3420715
1.5272059 0.36088163 0.053203821 3420465
1.5290239 0.36322805 0.052203104 5000758
1.5177925 0.35021794 0.055722833 1906456
1.5192189 0.35172909 0.056281261 1840922
1.5205917 0.35409975 0.055227786 3289630
1.5220307 0.35636571 0.053340033 3223591
1.5236685 0.35876289 0.052557088 3881276
1.5254552 0.36015308 0.052318513 4408131
1.51596 0.35042724 0.054970361 2169366
1.5171734 0.35223806 0.05450467 3223317
1.5187181 0.35451886 0.052712284 3157534
1.5200471 0.35700732 0.051597111 3552567
1.5215819 0.35805014 0.05145292 4276035
1.5117848 0.34820306 0.055105224 2629144
1.513787 0.35048339 0.053632051 3024655
1.5150056 0.35246176 0.051400058 3946258
1.5165503 0.35455877 0.051261991 3157285
1.5181133 0.35639244 0.049937248 2960425
1.5084152 0.34681511 0.054813951 2826777
1.5099206 0.34862953 0.054141931 2825745
1.5109534 0.35080466 0.051597156 4669459
1.5127486 0.35248122 0.049970284 4209178
1.5143785 0.35492441 0.048703842 3288104
1.5155311 0.35605273 0.046306774 3617061
1.5077729 0.3497403 0.050908409 3024396
1.5090644 0.3512271 0.049173377 5919004
1.5105673 0.35277504 0.047992468 4932123
1.5122814 0.35419667 0.046170153 5063446
1.5140316 0.35556525 0.046096079 3814431
1.5058975 0.34903884 0.05011861 3682333
1.5068688 0.35134184 0.047037274 8615465
1.5083164 0.35279173 0.045761757 6575381
1.5096549 0.35530436 0.044184133 4668192
1.5111365 0.35726848 0.042632423 4734233
1.503347 0.34900346 0.046179838 10390871
1.5047903 0.35118097 0.045303576 10325563
1.5063083 0.35259324 0.044043139 7561250
1.5076592 0.35584545 0.042511009 4996636
1.5091957 0.35751471 0.040800422 5391136
1.4986656 0.34435949 0.045486785 10588271
1.4997318 0.34688962 0.045700736 11114345
1.5009537 0.34924328 0.044070125 13746532
1.5027764 0.35076809 0.043571539 10127163
1.5039258 0.35448599 0.042336881 4996113
1.5053368 0.35592553 0.040427357 6903594
1.4947455 0.34189904 0.045337737 10719598
1.4957877 0.34463191 0.045353666 10455913
1.4975269 0.34691745 0.043316238 14733189
1.4988451 0.34898409 0.042563558 11508569
1.5002718 0.35192126 0.040515088 10653013
1.501798 0.35367745 0.040293664 8744765
1.4889297 0.33737737 0.045204669 11048062
1.4909272 0.34021041 0.045057066 10916475
1.4920976 0.3427197 0.043857493 11179629
1.4938946 0.34479576 0.042569295 14667401
1.4950995 0.34700692 0.041653648 13154168
1.4860269 0.3354564 0.044936687 10982264
1.4871316 0.33822745 0.044737011 11048055
1.4886098 0.34084952 0.042713888 11442029
1.49043 0.34309897 0.041901246 14338951
1.4917449 0.34509766 0.040620074 13614976
1.4824736 0.3335529 0.044758148 11179642
1.4834445 0.33606657 0.043737456 11376755
1.485509 0.33816868 0.042680316 11442027
1.4864374 0.34038639 0.04087057 12957560
1.4790235 0.33159715 0.044234298 11442808
1.4799583 0.33401659 0.04282897 12298872
1.4817412 0.33647171 0.041900508 12826233
1.4832752 0.33860916 0.040346019 12957574
1.4756541 0.32990697 0.043913066 11639930
1.476898 0.33164802 0.042046465 13089664
1.4778578 0.33441883 0.041379608 13419141
1.4726807 0.32970133 0.041670769 13154689
1.6528546 0.44582433 0.071680374 1382158
1.6492736 0.44377562 0.071243897 2566167
1.6512651 0.44477251 0.071598724 2302999
1.6529503 0.44835815 0.068284966 1579276
1.6542063 0.44987318 0.068068281 1381897
1.6470848 0.44104674 0.070227161 2236946
1.6478672 0.44349825 0.069149017 1579533
1.6494703 0.44595635 0.067967705 1842194
1.6507792 0.44802746 0.067599505 1907987
1.651872 0.44986078 0.067609772 1579280
1.6431906 0.43853989 0.069340892 2039307
1.6438289 0.44100904 0.068718374 2170893
1.6457276 0.44362164 0.067493811 1776144
1.6473892 0.44579953 0.066914245 1973524
1.6481395 0.44809017 0.06648396 2697487
1.6400425 0.43627134 0.068435356 1315600
1.6407208 0.43904787 0.068053499 1250056
1.641853 0.44161662 0.066682339 1381385
1.6435114 0.44368172 0.066196404 1644301
1.6446303 0.44600096 0.065816939 2565898
1.6352222 0.43479717 0.06805151 2237724
1.637508 0.43702903 0.067521691 1315850
1.6383744 0.43963847 0.065985084 855303
1.639848 0.44171429 0.065143675 789254
1.6410697 0.44406593 0.064781189 1118471
1.6305146 0.43004352 0.068584338 3947315
1.632314 0.43257803 0.068615302 4013378
1.6334243 0.43572164 0.065820917 1842970
1.6346934 0.43726978 0.065185323 1315858
1.6365762 0.43981096 0.064649716 1118989
1.6382146 0.44193056 0.063698158 1447434
1.627098 0.42840925 0.068191588 2038539
1.6281564 0.43073532 0.066660225 3354396
1.6297419 0.43293008 0.065331735 3683629
1.6312238 0.43509766 0.065012351 4012858
1.632333 0.4371891 0.064702526 3749937
1.6343157 0.43917423 0.06374231 3224351
1.6237531 0.42612413 0.06739796 854791
1.6250058 0.42867535 0.065560594 920838
1.6260384 0.43090442 0.065103576 1381131
1.6276723 0.43403366 0.064416148 3550752
1.6298296 0.43679538 0.063579254 6707777
1.6184049 0.42204627 0.067324638 2039573
1.6197577 0.42445618 0.067454249 1908243
1.6212775 0.42670989 0.064843945 658439
1.6226994 0.42896822 0.064460382 526340
1.6238149 0.43111503 0.063272573 657923
1.6112964 0.41535869 0.068645678 1249548
1.6124101 0.41731066 0.0694464 1512716
1.614388 0.42037189 0.06708321 1776400
1.6161244 0.42202815 0.065974325 1842191
1.6176362 0.42457777 0.064623252 1513487
1.6190641 0.42677146 0.064026721 1052940
1.6206405 0.42937949 0.063497066 1119241
1.6068285 0.4105525 0.068322927 790532
1.6087745 0.41324162 0.068090715 986888
1.6090242 0.41536319 0.068109713 1118729
1.6109377 0.41838348 0.066192739 1512970
1.6127566 0.42017353 0.065064229 1447687
1.6138638 0.42218813 0.064375624 1447180
1.6155906 0.42408523 0.063820742 1578766
1.6167654 0.42715928 0.063697197 986896
1.6038535 0.40867221 0.068285517 1382422
1.6045187 0.41160667 0.067890368 987916
1.6060545 0.41359276 0.066677064 1052682
1.6075897 0.4147844 0.066181898 1183752
1.608847 0.41798449 0.063973337 1447180
1.6102568 0.4200103 0.063487858 1315595
