# .PCD v0.7 - Point Cloud Data file format
VERSION 0.7
FIELDS x y z rgba
SIZE 4 4 4 4
TYPE F F F U
COUNT 1 1 1 1
WIDTH 1186
HEIGHT 1
VIEWPOINT 0 0 0 1 0 0 0
POINTS 1186
DATA ascii
1.3338954 0.36558753 0.098606497 396054
1.3398869 0.372805 0.095541678 1187120
1.3416245 0.37464929 0.095643669 2304846
1.3448668 0.37740737 0.094765455 2699857
1.3459483 0.37940812 0.094679907 2766674
1.3483038 0.38128638 0.095399454 1119796
1.3500357 0.38359761 0.095488667 132114
1.352188 0.38590866 0.095547482 263696
1.3540734 0.3882938 0.093837887 396317
1.3560838 0.39026242 0.093338192 1712442
1.3579292 0.39274967 0.093137413 1843255
1.3602288 0.3948018 0.093075514 988195
1.3620782 0.39698946 0.092720106 856348
1.3641059 0.39878422 0.092898831 1448487
1.3657095 0.40123117 0.092811003 2369841
1.3681874 0.40360725 0.092711531 5262691
1.370002 0.40572667 0.092525959 6447473
1.3722382 0.40778369 0.092464209 3883870
1.3747391 0.41023487 0.092016324 3224656
1.3767424 0.4127382 0.089246273 2765631
1.3782551 0.41391337 0.089704871 2041668
1.3798158 0.41597825 0.090106636 1057348
1.381843 0.41868031 0.088963404 1450821
1.3840582 0.42147034 0.087587476 3689083
1.3858771 0.42331266 0.087581195 3886207
1.3883754 0.42516738 0.087550893 1515590
1.3902003 0.42712855 0.088079572 658978
1.392482 0.42916 0.087954186 1909303
1.3941541 0.43189657 0.087768324 922162
1.3962419 0.43355691 0.088393331 197673
1.3062303 0.33922625 0.099822715 856607
1.3125026 0.34525532 0.098729521 1054249
1.3166709 0.34993714 0.098866701 1581621
1.3180063 0.35230821 0.099500164 1844797
1.3204153 0.35462415 0.099691302 1845568
1.3232963 0.35698736 0.099621639 1778744
1.3265496 0.36110514 0.098773763 725032
1.3287413 0.36301047 0.097942889 593442
1.3302433 0.36520028 0.097552732 527648
1.3371911 0.3716476 0.094353512 1185829
1.33815 0.37412095 0.094971657 1581352
1.340086 0.37625247 0.095218964 4014682
1.3424253 0.37857288 0.094346777 4671844
1.3447638 0.38018847 0.094915576 2765649
1.3462756 0.38296604 0.093307227 2238534
1.3484881 0.38504189 0.09240672 1579829
1.3503346 0.38717896 0.092523828 724261
1.3519399 0.38917941 0.092712104 856357
1.3544347 0.39123559 0.092512161 1382961
1.3564301 0.39325607 0.092551865 2107974
1.3584679 0.39586788 0.092560202 3687768
1.3597264 0.39745206 0.092840776 1054506
1.3625159 0.40057045 0.092184678 658199
1.3679092 0.40660644 0.088466659 264756
1.369797 0.40958565 0.088231429 1319492
1.3720155 0.41106224 0.087760821 265519
1.3740261 0.41341418 0.088125572 724761
1.3762239 0.41528195 0.088819191 2172470
1.3777075 0.4178952 0.088382915 1316918
1.3797879 0.41975158 0.088788539 989748
1.3825066 0.42239851 0.08792457 3161965
1.3844979 0.42459345 0.086997531 2899047
1.3864208 0.42674398 0.08740744 3029092
1.3009523 0.33642763 0.098803073 659222
1.3022705 0.33816737 0.099719018 790812
1.3041241 0.34069997 0.099204928 922403
1.3060379 0.34274137 0.098748133 988198
1.3082871 0.34445077 0.09827204 988456
1.3106596 0.34642321 0.097601578 1185835
1.3122013 0.34885365 0.098087385 1515570
1.3144963 0.35090911 0.098536909 1713209
1.3229362 0.36044198 0.095209405 461083
1.3240247 0.36184472 0.095884874 461086
1.3266728 0.36395836 0.094775498 1119527
1.3285941 0.36656088 0.094353721 1448234
1.3303678 0.36884338 0.09382841 1185582
1.3324487 0.37091768 0.093421966 1778225
1.3340625 0.37302858 0.093272179 2436413
1.3360269 0.37507218 0.09302105 1119524
1.3383862 0.37752968 0.092217743 1712429
1.3405749 0.37948757 0.091683999 3093053
1.3422345 0.38173294 0.091810048 5000541
1.3444264 0.3838833 0.091590852 6118769
1.346189 0.38618374 0.091486394 2895949
1.3483241 0.38841695 0.091503233 1250863
1.3502257 0.39057797 0.091245122 855073
1.3527566 0.39266998 0.092074066 1910848
1.3627124 0.40398312 0.087309837 658208
1.3644111 0.40629226 0.087679774 396068
1.3659345 0.40853667 0.087775812 726594
1.3682829 0.41024542 0.087675154 1845841
1.3706927 0.41244644 0.087602183 1581894
1.3722693 0.41499847 0.087397471 330522
1.295949 0.33566236 0.098361313 527896
1.2986865 0.33652443 0.098928556 659224
1.3001835 0.33962771 0.099046066 922402
1.3019755 0.34124827 0.098931119 988197
1.3037534 0.34304231 0.09895651 1054247
1.3059397 0.34602007 0.096462488 1580853
1.3085551 0.34810734 0.097077712 1515573
1.3090413 0.3493197 0.094502211 1712958
1.3188195 0.35947722 0.093427993 2500666
1.3204732 0.36120018 0.093920738 1053218
1.3224661 0.36341044 0.093191937 790047
1.3242197 0.36513358 0.09359923 1315878
1.3265579 0.36753023 0.093042433 1382697
1.3285277 0.36989236 0.093033865 2698809
1.3304553 0.37239707 0.093006968 3554900
1.3325243 0.37459379 0.092517778 3687258
1.3343861 0.37682992 0.091766179 2436420
1.3361738 0.37898564 0.090962991 593183
1.3382111 0.38108116 0.091089144 790294
1.3400669 0.38307995 0.091039062 2303528
1.3423615 0.38531786 0.090893082 4343117
1.3442152 0.38779408 0.09043014 1909550
1.3467783 0.38998944 0.090803444 461070
1.3482826 0.39229918 0.087831229 2371902
1.3501428 0.3939721 0.087732077 3096162
1.3522758 0.39639181 0.087274075 5266056
1.3544679 0.39860457 0.086833201 4017527
1.3564268 0.40068644 0.086773939 4674691
1.3584547 0.40338618 0.086479492 1975884
1.360454 0.4054839 0.086609498 329767
1.3626423 0.40732002 0.086803064 462122
1.3644253 0.4093067 0.086884663 1122637
1.3660728 0.41098177 0.087507054 3952764
1.290012 0.33232918 0.096494436 264210
1.2924995 0.33399788 0.097424403 396053
1.2942634 0.33678186 0.097914249 725019
1.2986283 0.34120643 0.094447225 1974578
1.300171 0.34228203 0.094339609 1514545
1.3026042 0.34496102 0.094785012 1711924
1.3035079 0.34666705 0.09495087 1844025
1.3070023 0.34981489 0.093711257 2173509
1.3088204 0.35160044 0.093109995 2042183
1.3105093 0.35421219 0.093053982 2239559
1.3125379 0.35589609 0.09280771 2567494
1.3146079 0.35857201 0.092372656 2764354
1.3166027 0.36013198 0.09269169 1842478
1.3185229 0.36266041 0.092689857 395285
1.3204871 0.36486188 0.092590481 855579
1.3225377 0.36703882 0.091754109 1316135
1.324091 0.36898261 0.091899745 1908526
1.3287733 0.37331811 0.090906054 4080210
1.3299481 0.3760877 0.090496898 4146791
1.3328117 0.37826368 0.089647576 2830420
1.3345993 0.38029829 0.090457112 1120044
1.3364155 0.3824856 0.08878924 1055539
1.3379371 0.38455638 0.088274032 2832481
1.3399404 0.38699794 0.087409571 4674427
1.3430319 0.38866353 0.087243505 1056080
1.3449283 0.3909629 0.087287247 329761
1.3466537 0.39351138 0.086523913 1449003
1.3485253 0.39560556 0.086640358 2305604
1.3503687 0.39793271 0.08680921 5529476
1.352726 0.40014198 0.086590581 6318231
1.3548019 0.40188259 0.086132601 4739965
1.3563108 0.40464485 0.085378423 4014962
1.3582499 0.40671384 0.085212812 1251393
1.2863951 0.33126414 0.095782936 264210
1.2882973 0.33227518 0.096408352 264208
1.2922637 0.33788076 0.093721785 987938
1.2945063 0.3400327 0.093849607 1514541
1.2966216 0.34187716 0.094051942 1843510
1.2987221 0.3441487 0.093543142 2041406
1.3007886 0.3463797 0.093024895 2436678
1.3027453 0.34866062 0.092458889 2765901
1.3047159 0.35041749 0.092307389 2897488
1.3068142 0.35304326 0.091945648 2897231
1.3085572 0.35526866 0.091803327 3028559
1.3104796 0.35748935 0.0912752 3159115
1.3125551 0.35970774 0.090898111 2237240
1.3143897 0.36180195 0.09132579 658723
1.3162091 0.36427036 0.09030094 330275
1.3182646 0.36648044 0.090291932 593179
1.3217022 0.36878729 0.090792626 1184547
1.3218207 0.37076265 0.090215117 1381416
1.325263 0.37545711 0.08817482 857917
1.3332283 0.38160551 0.086682118 396326
1.3345269 0.38400474 0.086652786 1845317
1.3369522 0.38625976 0.086380586 2833502
1.3386068 0.38843337 0.086279526 4083832
1.3406773 0.39017144 0.086196505 3754104
1.3428175 0.3924576 0.08575929 660281
1.3447123 0.3950915 0.085734941 527654
1.346727 0.39723912 0.086160287 2240054
1.2785184 0.32705855 0.094617397 725024
1.2804201 0.32820025 0.095048159 527643
1.2831669 0.32948098 0.09484975 396313
1.2841504 0.33110401 0.095377803 264211
1.2861843 0.33497 0.092953563 593177
1.2892677 0.33695805 0.09309686 1119520
1.2906921 0.33865857 0.093082502 1580338
1.292814 0.34121171 0.09282583 2238528
1.2945577 0.34360951 0.092568472 2567751
1.2969596 0.34578049 0.092760056 2765901
1.2991064 0.3479071 0.092577338 2634058
1.3005112 0.35010239 0.091805451 3160659
1.302918 0.35205382 0.091422796 3094610
1.3048151 0.35447779 0.090984344 3423059
1.3062541 0.35662335 0.090861976 3356237
1.3086041 0.35900974 0.08983463 2500408
1.3105633 0.36067766 0.090613276 1645356
1.3131907 0.36343861 0.090715364 857388
1.3252258 0.3766602 0.086256847 1777977
1.3270098 0.37853163 0.085973397 1843770
1.3285906 0.38116467 0.085550129 658985
1.3309015 0.38289231 0.08570385 658980
1.3328148 0.38498101 0.085632205 1581628
1.3341651 0.38695857 0.085910648 3228254
1.338846 0.39169186 0.085631363 5071254
1.3403074 0.39359686 0.085416988 4281234
1.2742331 0.32548097 0.093202695 724766
1.2767283 0.32621548 0.093647212 790559
1.2813455 0.33235741 0.090985581 263695
1.2830038 0.33424279 0.091301695 461334
1.2848746 0.33622348 0.09138459 987934
1.2867155 0.33796471 0.091622427 1711659
1.2886901 0.34036463 0.091599226 2239039
1.290853 0.34220904 0.091580309 2633802
1.2923576 0.34419385 0.092055097 2963539
1.2973278 0.34908894 0.091343522 2897483
1.3002295 0.35357881 0.089609265 4145753
1.3023221 0.35615885 0.089394957 2763579
1.3045402 0.3574177 0.089175582 2697267
1.3063358 0.35909647 0.089416444 1775136
1.3130056 0.3663162 0.085074842 5465239
1.3146715 0.3684831 0.085483007 5333651
1.3165922 0.3709586 0.085072212 5003920
1.3188372 0.37278208 0.084181674 330543
1.3208945 0.37583783 0.084428594 724510
1.3228517 0.37765083 0.084903434 1514031
1.324962 0.37988037 0.085598931 922929
1.3289647 0.38384077 0.08516264 1119539
1.2687128 0.32235277 0.091693878 658970
1.2708482 0.32439667 0.09241949 724768
1.2724347 0.32532021 0.09324047 790564
1.2762491 0.33125931 0.090102635 526623
1.2788959 0.33306172 0.090341687 461335
1.2809486 0.33441859 0.090314955 658457
1.2832196 0.33685744 0.090988606 1185061
1.3009343 0.35672885 0.085109472 1563
1.30241 0.35910791 0.085147642 725811
1.3053129 0.36173263 0.084798284 1186597
1.3067768 0.36423382 0.084678441 3555411
1.3091352 0.36568058 0.084478363 4017518
1.3109748 0.36800024 0.084572703 4938630
1.3130553 0.3705163 0.084311083 5070222
1.3151832 0.37247688 0.083990052 5201035
1.3171691 0.37472874 0.083875731 2107475
1.3191376 0.37704444 0.083102979 132892
1.3204776 0.37822083 0.083120011 922404
1.2635399 0.32025632 0.090422392 527380
1.2651705 0.32122934 0.091103643 527640
1.2672048 0.32309428 0.091838561 658971
1.268815 0.32539728 0.088796146 987433
1.2710936 0.32808807 0.089319989 987681
1.2728682 0.33003703 0.089344189 790045
1.2753732 0.33203566 0.089602292 658458
1.2772467 0.33340532 0.089625016 526874
1.2935169 0.35274017 0.083674252 1646659
1.2947063 0.35423249 0.08358638 1645359
1.2971454 0.35612419 0.084376067 725550
1.2996008 0.3583312 0.084358126 1385289
1.300993 0.36101922 0.084029943 1055812
1.3032825 0.36295709 0.084113747 593706
1.3052064 0.36467847 0.083312258 1778740
1.3069904 0.36746377 0.083913311 4542829
1.3086879 0.36941504 0.084555551 5661325
1.3114702 0.371838 0.08404623 5595551
1.2590299 0.31805265 0.089658216 461587
1.2615961 0.31990126 0.09073931 461589
1.2631338 0.32316092 0.088110179 856349
1.2652938 0.32494184 0.088244975 1250853
1.2669753 0.32695198 0.088544056 1185061
1.2692503 0.32889116 0.088755593 921887
1.2718184 0.33069929 0.088478357 658455
1.2782321 0.33951607 0.084393293 1780305
1.2854942 0.34653616 0.083598435 1514534
1.2870855 0.34928975 0.083452329 2503755
1.2890552 0.35093743 0.08354421 2634579
1.2912083 0.35337201 0.083500713 1711156
1.2933902 0.35554305 0.083616778 461343
1.2948096 0.35771564 0.083930098 1845583
1.2973418 0.35933515 0.083988935 4804991
1.2990742 0.36223054 0.08304055 4541044
1.3014588 0.36415344 0.082559794 1054776
1.3028752 0.36696571 0.082339004 1054764
1.3050385 0.36849082 0.082711294 2964029
1.2534397 0.3167021 0.088788882 461071
1.255584 0.31683275 0.088822842 461585
1.257947 0.32003051 0.086441338 1185056
1.2589408 0.32202247 0.087024555 1185057
1.2611916 0.32374892 0.087444559 1382438
1.2631881 0.32582694 0.087522708 1513769
1.2650201 0.3274585 0.087794989 1382179
1.2691171 0.33293781 0.084279828 988970
1.2712038 0.33534354 0.084498979 2436945
1.2730532 0.33747667 0.084653616 2568794
1.2755322 0.33920592 0.08455433 3491440
1.2773349 0.34154922 0.084313229 4083832
1.2792308 0.34381965 0.083474852 3622766
1.2815382 0.34558666 0.082752109 528440
1.2833693 0.34767693 0.08242742 329756
1.2852228 0.35011286 0.082594112 2632512
1.2870913 0.35269111 0.082876742 2632253
1.2891946 0.3545765 0.083129793 1184809
1.2909673 0.35627177 0.083543874 528421
1.2938859 0.36114734 0.082153827 4213614
1.2988787 0.36492249 0.082187399 3884399
1.2493424 0.31574988 0.087314427 592659
1.2511705 0.31633726 0.086806104 724503
1.2531779 0.31892505 0.086058497 856092
1.2553703 0.32106203 0.086325794 987935
1.2572547 0.32293513 0.086619437 1382180
1.2600741 0.32508633 0.086388387 2039604
1.2655702 0.33231467 0.08379516 857125
1.267446 0.33403468 0.084284686 2502730
1.2694135 0.33553699 0.084694609 3029340
1.2714065 0.33844846 0.084820554 2042962
1.2738917 0.34089598 0.084464766 2702427
1.2761114 0.34311005 0.084121808 4149371
1.2776908 0.34537995 0.083090477 4609414
1.2797737 0.34730855 0.082478948 2438499
1.2813745 0.34949231 0.08245106 396327
1.2836401 0.35186964 0.082034774 263696
1.2452722 0.31472781 0.085181244 855573
1.2474163 0.31584185 0.085246295 855831
1.2492599 0.31822851 0.085084535 724760
1.2515979 0.31969771 0.085031889 1053470
1.2531297 0.32184386 0.085716039 1250851
1.2557167 0.32553637 0.08231204 526617
1.2571183 0.32738212 0.08309444 461591
1.2591012 0.32897437 0.082697518 527639
1.2617224 0.3309426 0.082480535 395795
1.2629297 0.33315134 0.082643211 527386
1.2650776 0.33543575 0.081752934 1316906
1.2415054 0.31399128 0.084197521 1052695
1.2434758 0.3150022 0.08407928 921109
1.2454309 0.31709456 0.083528787 855831
1.2475259 0.31843901 0.08381065 987418
1.2516779 0.32473418 0.081750244 526876
1.253561 0.32589027 0.081877917 527130
1.2556753 0.32776272 0.082018733 790304
1.2578036 0.32985058 0.08249706 1382957
1.2599456 0.33238554 0.081942141 988705
1.2608249 0.3344126 0.082202777 527381
1.2632749 0.33546725 0.081499279 527125
1.2371922 0.31404534 0.082799405 1249560
1.2395476 0.31439143 0.082450368 1183768
1.241806 0.31608722 0.082016952 1184023
1.2456583 0.32096168 0.079866201 856614
1.2477435 0.32328323 0.080542184 658204
1.2498311 0.32461625 0.080846891 592410
1.2516239 0.32662886 0.081374221 592152
1.2333134 0.31322834 0.08128655 1841431
1.2356594 0.3135725 0.080945596 1643799
1.237867 0.31521732 0.080725253 1446935
1.2397454 0.31748229 0.07885915 1184801
1.241992 0.32022038 0.079188928 1580594
1.2438661 0.32211882 0.079381838 1514032
1.2459965 0.32358414 0.079849035 986913
1.2287787 0.30832216 0.078707218 4210978
1.2295628 0.31086853 0.078891307 3354913
1.2318032 0.3126412 0.079218328 2104603
1.233974 0.31485823 0.078876972 1381401
1.2359264 0.31693909 0.077993333 1317162
1.2378461 0.31908646 0.078281343 1778230
1.2402194 0.32091558 0.078561649 2435644
1.2417967 0.32268381 0.078921236 1842222
1.2221744 0.30462211 0.07770817 5988177
1.2245677 0.30693933 0.07795538 4540969
1.226239 0.30966699 0.078256942 3026720
1.2278399 0.3119213 0.077768296 1513243
1.2301502 0.31390959 0.0773362 1381660
1.2320273 0.31584901 0.077124886 1514284
1.2341185 0.31776515 0.077491574 1712180
1.2361456 0.3198638 0.078175962 2172729
1.2142167 0.30014572 0.077861845 8751500
1.216217 0.30210382 0.07748577 7567222
1.2186766 0.30369329 0.077083781 6185819
1.220475 0.30648839 0.076815858 4540721
1.2221977 0.30907202 0.07655637 3026468
1.224358 0.31087306 0.076368973 1382174
1.2260214 0.3131645 0.075925998 1513506
1.2283139 0.31473869 0.076120123 1842471
1.2304678 0.3174825 0.077064008 1646385
1.2104044 0.2987971 0.076941147 8488844
1.212693 0.30097261 0.076158836 6778482
1.2144055 0.30335644 0.076277629 5594201
1.2163172 0.30561516 0.075729549 4475454
1.2182502 0.30831769 0.07521823 2829352
1.2202597 0.31034088 0.074692652 1447455
1.2222319 0.31210136 0.074680217 2171169
1.2244896 0.31348261 0.074441731 2894364
1.2065146 0.29812154 0.074924722 8422537
1.2085067 0.30018091 0.074614979 8619398
1.2103024 0.30257136 0.073993854 8027258
1.212643 0.30459964 0.073730864 6579811
1.2145095 0.30706808 0.07343182 5131594
1.216367 0.30928972 0.073408537 3092271
1.2184384 0.31106752 0.073300295 3420969
1.2201355 0.31342012 0.072373874 3486239
1.2225468 0.31428611 0.072426669 2959635
1.2003429 0.29539716 0.074312419 9803413
1.2026014 0.297396 0.073972121 6185311
1.2046585 0.2996836 0.074020542 3948867
1.2066302 0.30170479 0.073685005 7303287
1.2084473 0.30405211 0.07325127 7433832
1.2107248 0.3062728 0.072856002 6842211
1.2125244 0.30874553 0.072145648 5460041
1.2145224 0.31070632 0.071979381 3882558
1.2166486 0.31244925 0.071090154 3749164
1.2180693 0.31433713 0.07277333 3091231
1.198797 0.29631642 0.07245864 12369082
1.2004665 0.29906556 0.071518406 12105911
1.2029047 0.30100954 0.07155472 5922399
1.2047148 0.30323157 0.070870347 2830649
1.2064238 0.30554777 0.070724353 5001303
1.2090464 0.30704474 0.070595369 7104609
1.2100961 0.3100369 0.070551507 6052170
1.2123802 0.31222114 0.069822162 4671304
1.1948122 0.29579437 0.071223676 12369084
1.1965997 0.29851088 0.071320973 12434877
1.1991433 0.30040771 0.071509093 12566462
1.2005247 0.3024739 0.071016185 12500925
1.2019861 0.30437881 0.070801876 10000534
1.2113838 0.3133249 0.067358322 5132642
1.1904459 0.29413444 0.071416453 12303290
1.20913 0.31529319 0.065232322 6645881
1.2106781 0.31632447 0.064738497 4210742
1.2040246 0.31246081 0.062797152 10327954
1.2053163 0.31438854 0.062608853 6184804
1.207186 0.31602454 0.063475914 2961468
1.2084637 0.31759989 0.063400105 1973538
1.1892617 0.30005768 0.063123539 11579568
1.1911149 0.30214316 0.063128583 11711153
1.1930101 0.30421841 0.063031808 11776947
1.1950402 0.30619919 0.062574342 11447982
1.197036 0.30830243 0.062468871 11513519
1.1989462 0.31035471 0.062207572 11513519
1.2012765 0.3129085 0.062235381 11316140
1.2032009 0.31512395 0.062330291 10263451
1.2050726 0.31745902 0.062368385 7960178
1.2067415 0.31987271 0.062471107 2893346
1.1892989 0.30355453 0.062318578 11447982
1.1913799 0.30559036 0.062220089 11381932
1.1930029 0.30803514 0.06206587 11447982
1.1953087 0.31011775 0.061937738 11513775
1.197449 0.31236377 0.061828014 11579568
1.199065 0.31469503 0.061690912 11579311
1.2011485 0.31654042 0.061547574 11711154
1.2034431 0.31867397 0.061329369 11842479
1.1875731 0.30498597 0.062130366 11447982
1.1897807 0.30719584 0.062158555 11447982
1.191551 0.30954149 0.061650772 11382189
1.1932027 0.31121069 0.061604209 11447982
1.1952434 0.31284544 0.061306413 11250603
1.4694149 0.47299975 0.10198598 6389408
1.4751335 0.47846603 0.10142614 5331877
1.4773614 0.48085785 0.10136318 1384791
1.479423 0.48388243 0.10145128 1647698
1.4811012 0.48637241 0.10168695 1779540
1.4869094 0.49160129 0.099043094 1121847
1.4912051 0.4967072 0.098360121 3224920
1.4932417 0.49914831 0.097967848 1449542
1.4957299 0.5011546 0.097445287 727340
1.4967407 0.50277644 0.099530362 9150406
1.4654245 0.47115147 0.10141595 4608332
1.467206 0.47380984 0.10185722 5202558
1.469427 0.47548193 0.10180439 8425399
1.4714718 0.47788131 0.10121506 7175072
1.4736398 0.48102343 0.10096661 2832223
1.4756488 0.48306203 0.10125874 1647180
1.4777069 0.48526877 0.10146672 1845323
1.4801426 0.48786795 0.097784162 1581390
1.481426 0.48979092 0.09831351 1582406
1.4834998 0.4920305 0.09852995 792374
1.4859838 0.4937138 0.097432688 1910339
1.4870143 0.49595034 0.098309159 2830672
1.4896293 0.49678582 0.098391548 3027798
1.4914874 0.49986303 0.096791416 2699076
1.4945862 0.50191522 0.097388759 136215
1.496187 0.50302321 0.097247139 1719119
1.4532601 0.46225601 0.1006216 461608
1.4556801 0.46465957 0.10045639 463389
1.4581223 0.46765941 0.099912241 1252657
1.4596887 0.46787387 0.099945381 1647162
1.4612412 0.47081298 0.10047429 3093842
1.4637907 0.47316664 0.10109582 5133411
1.4658678 0.47561264 0.10153838 4147537
1.4681005 0.47815412 0.10118389 3423602
1.4734657 0.48444581 0.097218201 1909321
1.4756899 0.48625451 0.0975786 1449275
1.4779184 0.48872572 0.09732233 1712965
1.4801683 0.49096745 0.096639507 2436175
1.4815547 0.49300182 0.096910685 2435913
1.4837956 0.49483609 0.096718639 3224914
1.4858444 0.49794286 0.095374055 3553615
1.4878764 0.49925846 0.095650882 3160146
1.490062 0.50140572 0.095431641 2043467
1.4926443 0.50210214 0.095326319 1977417
1.4367497 0.44711667 0.10194781 1715789
1.4390986 0.44992 0.10135243 5729168
1.4457557 0.45676821 0.10031786 3884652
1.4473605 0.45909476 0.10066541 1120043
1.4498444 0.46113247 0.1005664 461598
1.4516199 0.46355969 0.10081851 725292
1.4541471 0.46551263 0.10085236 990001
1.4560516 0.46802801 0.099535748 1318967
1.4584532 0.46949798 0.10045099 1779005
1.4591901 0.47195661 0.10040641 2041927
1.4638373 0.47596937 0.096835285 3355727
1.4651967 0.47853088 0.096725255 3948116
1.4681911 0.48124284 0.096639462 2566221
1.4695007 0.4832837 0.096212462 2697804
1.4715998 0.4850232 0.096349835 2238030
1.4738741 0.48801583 0.095838949 2304591
1.47586 0.48994201 0.095785379 2173260
1.4781191 0.49200362 0.095528528 2962258
1.4796624 0.49416643 0.094582886 3685463
1.4817593 0.496279 0.094539016 3619928
1.4840131 0.49863207 0.094783515 3357270
1.4853663 0.50096965 0.095361397 1517634
1.4282677 0.44154322 0.10072653 4342859
1.4305 0.44286925 0.10162488 2501701
1.4312663 0.44527566 0.10143395 2041673
1.4336094 0.44708258 0.10122661 2700637
1.4360099 0.44936723 0.10139023 5465223
1.4379039 0.45297539 0.1004851 8555439
1.4405508 0.45401049 0.10031203 6977429
1.4422944 0.45625514 0.10019846 3818592
1.4437746 0.45794171 0.10020232 1449524
1.4449222 0.45965844 0.10079491 329754
1.4480309 0.46328235 0.097907394 460834
1.4504589 0.4652133 0.098208264 921653
1.4525633 0.4670189 0.097919174 1251647
1.4536958 0.46955442 0.097249076 1976647
1.455904 0.47156852 0.097083166 2831953
1.4581227 0.47377902 0.096521571 3423576
1.4601002 0.47548163 0.096282825 2963028
1.4619658 0.47792703 0.09591566 2501964
1.4637976 0.48043662 0.095289394 2305096
1.4659585 0.4823361 0.095578715 2698825
1.4677873 0.48462737 0.094877996 3093325
1.4702389 0.48675561 0.094691902 3028051
1.4722621 0.48921502 0.094410121 2569042
1.4741504 0.49155825 0.093981355 3554390
1.4760575 0.49342257 0.093656629 3160925
1.4781401 0.49530864 0.094207294 3621217
1.4797721 0.49771994 0.094404697 3620958
1.4016166 0.41580147 0.10403246 725534
1.4043791 0.41934121 0.10356528 1383722
1.4258327 0.44258159 0.10045969 2106681
1.4280381 0.44447368 0.10107133 3818310
1.4310017 0.44749177 0.10141117 4213351
1.433596 0.45058429 0.10062551 7371931
1.435601 0.45272166 0.10067672 8226216
1.4379005 0.45533627 0.10030946 3621731
1.4414685 0.45906198 0.096487254 1053727
1.4442033 0.46194232 0.096992552 394521
1.4462039 0.46394885 0.097015977 921125
1.4482529 0.4669944 0.096672207 1316661
1.4502642 0.46843737 0.095757917 1184809
1.4518683 0.47040391 0.096274436 2041146
1.4537504 0.47260296 0.096751809 3883865
1.4560306 0.47493809 0.095296577 4412015
1.4584267 0.47729021 0.095228344 4609392
1.4601898 0.47931129 0.094681457 4543342
1.461985 0.48195082 0.093770407 3489885
1.4641497 0.48367518 0.093697056 2174282
1.4661802 0.48584199 0.092987448 2831435
1.4681079 0.48821419 0.092849851 2502991
1.4698617 0.49031103 0.092696592 1977420
1.4720275 0.49223483 0.092324629 1977423
1.4742817 0.49367034 0.092524134 2371413
1.383898 0.40034765 0.10505711 1976907
1.3985184 0.41440892 0.10330846 462623
1.3998513 0.41691816 0.10374132 660517
1.402102 0.41926891 0.10402205 923940
1.4146528 0.43352324 0.099311948 855866
1.4161904 0.43461603 0.099538907 527168
1.4180793 0.43678772 0.099571593 462398
1.4201419 0.43889248 0.099739969 1515589
1.4221882 0.44127506 0.099652275 2041932
1.4240445 0.44327658 0.099909894 1449015
1.4298079 0.44902885 0.096899837 5594191
1.431954 0.45210409 0.096280731 5659476
1.4342458 0.45430201 0.09635663 7500945
1.4357946 0.45645446 0.095982835 5789289
1.4380131 0.4587391 0.095645145 6381428
1.4403272 0.46074796 0.095875189 1514025
1.4418919 0.46333224 0.095150262 988201
1.4439991 0.46583205 0.095167667 921635
1.4466536 0.46737671 0.095029429 1118250
1.4482158 0.47002774 0.094960481 1447218
1.4505539 0.47220874 0.093525603 3160647
1.452482 0.4741472 0.093666382 3490644
1.4539199 0.47555864 0.093828134 5201527
1.4557824 0.478459 0.092411533 4871029
1.4584281 0.48173362 0.092478976 3094619
1.4602636 0.48328376 0.092308283 3095901
1.4622223 0.48503363 0.091717571 1977422
1.4643116 0.48729211 0.091752008 2371921
1.4660288 0.48901534 0.092142344 1911886
1.467205 0.49146086 0.092129067 662062
1.3803403 0.39924282 0.10396747 3093074
1.3817959 0.40034425 0.10499489 2435666
1.3841115 0.40368259 0.10416242 1319750
1.3855529 0.40507138 0.10401401 989233
1.3881922 0.40695304 0.10330419 330278
1.3894308 0.40991396 0.10276012 198170
1.3918679 0.41208512 0.10252733 396308
1.4062576 0.4271093 0.098817594 2567739
1.4082739 0.42927909 0.098722875 4474973
1.4105437 0.4319154 0.098717824 2369849
1.412496 0.43405557 0.098902583 1119538
1.4143254 0.43605125 0.099182546 527417
1.4162482 0.43820381 0.098494336 1383748
1.4183387 0.43984157 0.097687185 2043212
1.4200222 0.44236284 0.096685871 2899027
1.4220967 0.4450717 0.096464738 4411236
1.4243339 0.44713593 0.096004084 4344165
1.4263297 0.44949162 0.09552817 4145500
1.4283606 0.4511475 0.095499806 4277589
1.4305193 0.45369864 0.09518858 3093056
1.4325039 0.45577484 0.094893575 2763820
1.4342275 0.45824659 0.094780609 3553593
1.4360317 0.46015865 0.094584331 5000795
1.4384592 0.46213168 0.094238691 3753044
1.44038 0.46472865 0.09363959 988711
1.441992 0.46676975 0.092370346 1186860
1.444032 0.46895003 0.092337087 857639
1.4463083 0.47100359 0.092105761 1778739
1.4484406 0.47324371 0.092271283 2961981
1.4503515 0.47555518 0.091750354 4080979
1.4524858 0.47802347 0.091538779 3752282
1.4542015 0.48049897 0.091290943 1910348
1.4562454 0.48217297 0.091191933 1844815
1.4578428 0.484254 0.091022715 2305882
1.4606059 0.48628736 0.090921476 2240601
1.4625746 0.4882977 0.091232821 2043991
1.3782365 0.39971638 0.10270996 3093576
1.3801682 0.40159464 0.10442741 4738161
1.3817658 0.40424919 0.10137685 2303286
1.383975 0.40586835 0.10161379 1053486
1.3860267 0.40846777 0.10169196 593454
1.38827 0.41142827 0.10164587 461604
1.3907604 0.41377515 0.10093403 659494
1.3928492 0.41546392 0.099624455 1383476
1.3941364 0.41771489 0.099570677 1845052
1.3961563 0.41987526 0.099571183 2305612
1.3976259 0.42247158 0.099060863 2437207
1.3999207 0.4243378 0.098680317 1450310
1.4025462 0.42651528 0.098292418 1252150
1.4040679 0.42887914 0.098419182 1646892
1.4061561 0.4311524 0.098381713 857381
1.4083515 0.43313628 0.097762853 1119524
1.4103526 0.43527728 0.096764177 790055
1.4123342 0.43735486 0.095821664 1579307
1.414346 0.4399755 0.096336573 3224892
1.4164886 0.44143885 0.095882602 2501945
1.4184074 0.44433051 0.095797077 3488835
1.420409 0.44644988 0.095266595 3687247
1.4226806 0.44858605 0.095011145 4212833
1.4242392 0.45064479 0.094687462 4212068
1.4265471 0.45288408 0.094324738 4342885
1.4284825 0.45519936 0.093825936 3290708
1.4303122 0.45703441 0.093332671 1120049
1.4325573 0.45943826 0.093044579 1712430
1.4347608 0.4618088 0.092335075 1712945
1.4365768 0.46403909 0.092122421 1252408
1.4383886 0.46600175 0.092092142 1319744
1.4405584 0.46806914 0.092127383 1583175
1.4426017 0.47039521 0.091569133 2174803
1.4444158 0.47313845 0.091244102 1779277
1.4461738 0.47483981 0.091221631 2501969
1.4489512 0.47741735 0.091120198 2831179
1.3645567 0.38905358 0.10184813 527643
1.3655462 0.39055997 0.10236431 856866
1.3688 0.39338124 0.10112432 1317672
1.3699086 0.39523959 0.1011461 1055274
1.3724983 0.39713651 0.10131499 660004
1.374264 0.39954501 0.10151538 988964
1.3769608 0.401366 0.10216497 2305082
1.3785956 0.40373856 0.10063854 2896187
1.3804903 0.40595394 0.10174322 658718
1.3820169 0.40742797 0.099776611 329755
1.3847928 0.41012824 0.098472357 198694
1.3865478 0.41220254 0.10078496 1185576
1.388937 0.41448665 0.099374786 1186095
1.3908594 0.4163987 0.099660426 1449012
1.3929336 0.41946465 0.099924341 1582149
1.3964651 0.42389113 0.096015826 3357011
1.3983623 0.4255057 0.095633686 4213085
1.400605 0.42884636 0.095218524 2435920
1.4021522 0.4298439 0.095208079 1910090
1.4040329 0.43232989 0.095568851 395298
1.406269 0.43442696 0.095386639 593438
1.408603 0.43663901 0.095210202 987684
1.4106562 0.43890882 0.094930053 1184807
1.412353 0.4412601 0.094512835 1119785
1.4144933 0.44302469 0.094301403 1185317
1.4164898 0.44516122 0.09355773 1777204
1.4185193 0.44759256 0.093154192 2633791
1.4204861 0.44986796 0.093475886 4278869
1.4224672 0.45185035 0.094018787 4408933
1.4245217 0.45398903 0.091645181 3684956
1.4272643 0.45629632 0.093150601 4539498
1.4285709 0.45872897 0.090701357 1317685
1.4305465 0.46091938 0.091072604 658981
1.4329824 0.46297187 0.091096565 922921
1.4347036 0.46493781 0.091224313 1318713
1.3606498 0.38816822 0.10110556 395808
1.3624293 0.38942552 0.10244134 659233
1.3653092 0.39239883 0.10227658 1251881
1.3672001 0.39356863 0.1020516 1251883
1.3688629 0.3968159 0.10158737 1121328
1.3711433 0.39925116 0.10087037 857647
1.3758998 0.40441734 0.098626986 1185573
1.3796599 0.40768158 0.098278925 592676
1.3808106 0.40974128 0.098207608 1053224
1.3826153 0.41190028 0.097704381 1119274
1.3840685 0.41369981 0.096927606 1579825
1.3865057 0.41621697 0.09852621 1382949
1.387832 0.41716248 0.095210128 2039869
1.3898325 0.41918015 0.095337152 2304313
1.392514 0.42231435 0.095252573 2370110
1.3944592 0.42437077 0.095094219 3685714
1.3967189 0.42687255 0.095129788 4803688
1.3985666 0.4293384 0.094770536 4606827
1.400687 0.43132961 0.094514877 3553627
1.4026895 0.43391871 0.093480527 3555934
1.4046779 0.43571365 0.093917832 1448242
1.4066993 0.43827146 0.093392119 592677
1.4091263 0.44001454 0.093487926 659235
1.4110947 0.4422642 0.093996927 1648442
1.4133759 0.44510865 0.091966867 1055275
1.4148208 0.44657588 0.092030428 2370613
1.4169165 0.4488185 0.091276541 3225155
1.4185765 0.45112354 0.090569004 3225670
1.4211066 0.45334065 0.09057153 2238016
1.4223149 0.45549291 0.090488568 1184557
1.4248908 0.45764101 0.090141445 790313
1.4268091 0.46018732 0.090101309 263969
1.4291192 0.4622528 0.089837968 461091
1.4304439 0.46412492 0.090487629 1316654
1.3544523 0.38447887 0.099421412 856609
1.3563752 0.38720703 0.099826381 263705
1.3583469 0.38841403 0.10042562 461594
1.3626835 0.39333642 0.097793579 988453
1.3646574 0.39523089 0.097856805 1054768
1.3688374 0.40066743 0.096895963 1977669
1.3707711 0.40320468 0.096517131 2239814
1.3727903 0.40399498 0.097536325 527406
1.3738115 0.40543461 0.098622322 329754
1.3771064 0.40963739 0.096590966 658730
1.3789291 0.41072857 0.096348114 724252
1.3807007 0.4129054 0.097019836 1776947
1.382798 0.41616631 0.096558288 3291987
1.3849704 0.41738182 0.095032021 3225422
1.386883 0.41930163 0.094445303 2896459
1.3889635 0.42168659 0.094130032 1514799
1.3906014 0.42417538 0.094100863 1580071
1.3925951 0.42661858 0.094212115 2961207
1.3947698 0.42901725 0.09448678 6578548
1.3970859 0.43060219 0.094170928 8748960
1.3983774 0.43285137 0.092509195 7369111
1.4001654 0.43470013 0.092703015 3752809
1.4027932 0.43739015 0.091459364 2830667
1.4045881 0.4391408 0.091404453 3949415
1.4066786 0.44150501 0.090771675 4147056
1.4087559 0.44359636 0.090151928 5133693
1.4106542 0.44620824 0.089455277 2634330
1.4130909 0.44776809 0.089699417 1449019
1.4148301 0.45059544 0.08975634 3094340
1.4164585 0.45303667 0.089736357 3027775
1.4185045 0.45488358 0.089799091 1842487
1.4207575 0.45657897 0.090444759 395305
1.3363943 0.36817586 0.10045263 1054240
1.3394431 0.37024838 0.10077071 1383216
1.3403902 0.3729201 0.10043623 1580598
1.3429284 0.37428713 0.10003187 1712958
1.3444575 0.37738788 0.099592924 1844544
1.3462707 0.37926275 0.099682048 1186863
1.3480587 0.38176244 0.099697262 330016
1.3506715 0.38325906 0.099408701 330262
1.3523651 0.38612169 0.099290997 329748
1.3543867 0.38802516 0.099591032 330267
1.356545 0.39038593 0.096484438 395800
1.3590274 0.3921507 0.09690091 922400
1.3607802 0.39382005 0.097256109 1119781
1.3629119 0.39701748 0.097202808 1647419
1.3651789 0.39969367 0.096952334 3621731
1.3673959 0.4014225 0.097208753 2108736
1.3692585 0.40347081 0.09717764 2239809
1.3711157 0.40486974 0.096915618 1186102
1.3723879 0.40839618 0.094624966 1053486
1.3754129 0.40973997 0.094703481 855849
1.3764544 0.41210836 0.094439417 1053223
1.3777553 0.41378355 0.09510754 2238773
1.3839641 0.41976708 0.094598517 1844036
1.3854702 0.42140824 0.093883514 3818337
1.386898 0.42305642 0.093588829 2502224
1.3888569 0.42531151 0.093486294 1186351
1.390856 0.42784828 0.092989713 1053215
1.3954141 0.43252492 0.091866136 5724773
1.3967949 0.43443435 0.090070948 3158341
1.3993387 0.43642557 0.089867458 2633527
1.4009193 0.43855631 0.09007223 2962236
1.4029438 0.44114834 0.090576515 4409950
1.4052209 0.44369805 0.090501219 2831446
1.4075086 0.4447971 0.08972647 3685979
1.40871 0.44756234 0.089366928 2503263
1.4107988 0.44965822 0.089424059 1648461
1.4127846 0.45093691 0.089145273 530232
1.3336252 0.36756188 0.099654019 659226
1.3347275 0.36925101 0.09984877 856860
1.3367693 0.37218273 0.099954575 1120549
1.3386108 0.37410867 0.099894509 2305085
1.3410966 0.37603492 0.099553719 3685721
1.3430487 0.37843549 0.099796608 2042698
1.3481826 0.38454008 0.09589684 394776
1.3501368 0.38725531 0.096261479 658988
1.3527445 0.38925487 0.096329108 1712958
1.3547963 0.3914696 0.096680909 1186101
1.3566109 0.3934679 0.096766248 330267
1.3586209 0.39576519 0.09645398 791069
1.3611084 0.39799029 0.095352307 1449515
1.3635366 0.40067422 0.094419673 3949899
1.3651528 0.40269369 0.09351515 4539991
1.3669871 0.4046694 0.09370549 5197921
1.3691969 0.40680885 0.093430638 5132391
1.3709004 0.40934163 0.09330371 3092813
1.3730268 0.41072917 0.093238786 1909045
1.3739347 0.41280109 0.093733549 1250070
1.3849138 0.42411345 0.091600873 5594753
1.3887993 0.42897642 0.08876954 263723
1.3905244 0.43089879 0.089257926 264994
1.3930777 0.43297243 0.089267448 594738
1.3948846 0.43553859 0.088943593 857391
1.3968291 0.43787628 0.08893881 1250860
1.3985999 0.43985718 0.089389607 2764083
1.3169733 0.35357964 0.099429101 1976643
1.3188703 0.35592878 0.099741861 1779510
1.3212941 0.35757869 0.099973969 1251624
1.3224883 0.35974669 0.099740386 461853
1.3241868 0.36194021 0.099026665 527395
1.3267112 0.36418223 0.098085761 725029
1.3282731 0.366925 0.098747835 1449269
1.3312848 0.3683899 0.098960713 462368
1.3334123 0.37168038 0.099066414 461849
1.3350825 0.37295169 0.098658472 922652
1.3370836 0.37549955 0.09909223 2568763
1.3415666 0.380777 0.095259562 4210809
1.3424435 0.38161087 0.095634058 2237265
1.3446474 0.38395405 0.095361456 526878
1.3470733 0.38603091 0.095903069 329253
1.3489718 0.38836944 0.09537442 1383743
1.3511488 0.39104217 0.094695404 3292244
1.3527337 0.39269072 0.094282791 3686750
1.3548514 0.39509088 0.093711764 4147558
1.3570709 0.39694047 0.093335032 2897491
1.3591166 0.39956486 0.092958026 1515059
1.3611429 0.40157455 0.092849463 856353
1.363157 0.40391111 0.092607364 1842474
1.3651433 0.40597665 0.09215188 4143941
1.3668913 0.40822023 0.092328124 6185068
1.3690169 0.40982944 0.092429385 3750998
1.3727232 0.41445333 0.089006692 132639
1.3750319 0.41693217 0.088689685 1909037
1.3770545 0.41895413 0.088956431 1647415
1.3787611 0.4213928 0.088783316 4476781
1.3807359 0.42405319 0.088781148 7239065
1.3829296 0.426278 0.088351935 2963297
1.3849453 0.42810422 0.088517398 1975110
1.3873664 0.43015039 0.088845089 329773
1.3110311 0.35072964 0.098157689 1844793
1.313128 0.35296169 0.098979451 1976897
1.3147063 0.35506973 0.099399552 1779258
1.3172591 0.35673791 0.099668056 1449263
1.3196213 0.3592754 0.099776566 395547
1.3203813 0.36193916 0.098934673 329751
1.3234506 0.36357069 0.099835306 658971
1.3257521 0.36570275 0.097476676 1448747
1.3356426 0.37787282 0.093771994 724771
1.3378367 0.37933898 0.094493188 3028290
1.3390236 0.38102919 0.094980136 3092804
1.3406911 0.38401479 0.095160112 526868
1.34303 0.38555008 0.09388715 395285
1.3450369 0.38756561 0.093483277 724771
1.3468745 0.39005405 0.092973873 1646129
1.3491151 0.39224249 0.093126446 2567743
1.351397 0.39441687 0.092985556 3753818
1.3533601 0.39674693 0.093382061 4148580
1.3550935 0.39878535 0.093205258 3621988
1.3574419 0.40111649 0.092582829 2568786
1.359319 0.40332007 0.092137381 593962
1.3611629 0.40593714 0.0916152 527127
1.3634181 0.40735871 0.092005849 987932
1.3653014 0.41038501 0.088666573 3228266
1.3668828 0.41216224 0.089056566 4346749
1.3687413 0.41381782 0.088961042 4477575
1.3709188 0.41656542 0.08799091 1121352
1.373149 0.41822433 0.088031806 724768
1.3752367 0.42068249 0.088121936 1646639
1.3771669 0.42254168 0.088356867 3093318
1.379258 0.42550188 0.087940782 5066591
1.3814032 0.42671806 0.088139996 4277600
1.2970853 0.3384079 0.099319592 856863
1.2993741 0.34055749 0.099098898 922660
1.3015642 0.34364066 0.098759189 1186090
1.3033671 0.34461302 0.098900124 1317421
1.3048785 0.34736013 0.097507447 1515827
1.3069385 0.35009995 0.097389221 1844793
1.3093076 0.35170853 0.09768486 1910846
1.3107486 0.35408199 0.098426901 1976635
1.3135365 0.3568055 0.099161163 1251368
1.3194025 0.36336899 0.097830035 461604
1.3215352 0.36432555 0.095150173 461089
1.3232487 0.36628276 0.095252618 988197
1.3250206 0.36829227 0.095177263 1514286
1.3270923 0.3711926 0.093997329 2238516
1.329036 0.37383464 0.09352316 3554379
1.33138 0.37615848 0.093232036 3094860
1.3329251 0.37793499 0.093368098 1843760
1.3350427 0.38030165 0.094130054 658969
1.3369242 0.38257509 0.093003213 461330
1.3389564 0.3848722 0.091559574 527129
1.3410997 0.38677555 0.09197408 526871
1.3433349 0.38918564 0.092133746 526874
1.3453944 0.3914389 0.091645539 723990
1.347028 0.39325544 0.091671571 1513505
1.3488288 0.39472517 0.092705414 4147784
1.3587923 0.40711731 0.087908536 856362
1.3615296 0.40912914 0.088098489 1450047
1.363477 0.41128343 0.088182233 2899551
1.3653375 0.41345376 0.088113636 4347005
1.3674273 0.41520494 0.088495299 4873614
1.3692428 0.41687077 0.087938383 3490686
1.3714242 0.42006439 0.087472804 396593
1.3733572 0.42216539 0.087232038 987935
1.3756614 0.42506284 0.08655145 1185060
1.3775892 0.42553192 0.086412832 1053228
1.2904246 0.33572963 0.098144561 659226
1.2935472 0.33773097 0.098047316 791071
1.2954636 0.33985332 0.098333701 857123
1.2971029 0.34220383 0.098215647 1054249
1.2992598 0.34429055 0.098053396 1317933
1.3003701 0.34657595 0.098384678 1647412
1.3031313 0.34810889 0.097880535 1778742
1.3052369 0.35060808 0.097660765 1976382
1.3075197 0.35314274 0.097925141 2108735
1.3141725 0.3620691 0.093894556 132632
1.3172208 0.36403015 0.093795322 461084
1.3190911 0.36649814 0.093765616 987430
1.3214698 0.36858565 0.093529612 1579568
1.3240204 0.37105066 0.093383193 1580854
1.3253804 0.37317038 0.09285824 1843763
1.3274601 0.37552491 0.092975341 3488332
1.3294243 0.3775444 0.092711583 4936293
1.3314326 0.37981698 0.091485031 3620441
1.33356 0.38167968 0.091225356 1777974
1.335355 0.38375509 0.09115544 658457
1.3371644 0.38585052 0.091272995 591891
1.339226 0.38779262 0.091442637 592664
1.3416865 0.39028153 0.091669641 987940
1.3452599 0.39481685 0.087429047 856609
1.3480089 0.39708945 0.088110983 3819113
1.3493459 0.39947349 0.088170856 3424608
1.3509618 0.4012571 0.0877745 2961485
1.3529394 0.40352464 0.087241426 1580614
1.3555036 0.40615469 0.086690962 658981
1.3570886 0.40803802 0.086847007 790309
1.3593236 0.40992114 0.087139457 1910594
1.3615922 0.4120667 0.087501869 3162470
1.2844988 0.33231461 0.098689273 461590
1.2874658 0.3345283 0.098059639 593431
1.2890573 0.33785984 0.09798789 856609
1.2914178 0.33917394 0.097720519 856865
1.2935376 0.34115571 0.097280756 1120043
1.2951016 0.34373406 0.096505374 1383476
1.2973251 0.34516448 0.097831815 1646385
1.3069663 0.35634166 0.093121186 1975100
1.3096238 0.35852394 0.093193464 1184806
1.3114011 0.36104825 0.093197718 395294
1.3129356 0.36327463 0.092704102 724774
1.3151169 0.36525565 0.092670694 1777720
1.3174081 0.36787114 0.091750473 921892
1.3197529 0.37031552 0.092029482 1448486
1.3216406 0.37226611 0.090856209 1645101
1.3233676 0.37421432 0.091361493 2303537
1.3251369 0.37637344 0.091820352 3881798
1.327878 0.3776527 0.090992644 5132393
1.3292209 0.38047481 0.091247737 3355983
1.3315467 0.38281149 0.090937033 3225673
1.333921 0.38516203 0.088961571 3161431
1.3355088 0.38757813 0.088228986 4215680
1.3370516 0.38941082 0.088224709 4544652
1.3387299 0.39130658 0.087128989 5267855
1.3419194 0.39461368 0.086386383 726605
1.343323 0.39638817 0.086952761 132900
1.3458211 0.39819154 0.086626403 1646899
1.347526 0.40061867 0.086697653 2238522
1.3495114 0.40294683 0.086441226 1776945
1.3515363 0.40509692 0.086211435 790825
1.3536646 0.40689915 0.086226113 264747
1.3558475 0.40952343 0.086417094 856359
1.2770398 0.32846531 0.097053528 462105
1.2788268 0.3295821 0.097156987 395799
1.2814462 0.33139554 0.097156554 395800
1.2838895 0.33387408 0.097128645 527641
1.2869006 0.33646995 0.095145881 1053986
1.2874992 0.33952093 0.094640344 1448491
1.2899741 0.34039292 0.095062524 1383213
1.2919127 0.34237489 0.09497118 1580850
1.2936423 0.34498164 0.093524359 2172993
1.2957281 0.34606931 0.093456157 2699594
1.2974937 0.34897846 0.093158588 2370889
1.3002517 0.35137886 0.0921285 2765645
1.3017406 0.35371256 0.091909289 2962767
1.3036005 0.35550222 0.092080459 2435396
1.3053088 0.35802966 0.092295021 1974069
1.3068528 0.36028153 0.091892838 1185317
1.3098025 0.36251545 0.091412678 856613
1.3112485 0.36463162 0.091876939 3028815
1.3140492 0.36683986 0.091555104 3357271
1.3157177 0.36916712 0.091206335 1316914
1.3176837 0.37171334 0.090326644 527396
1.3194611 0.3739095 0.090123296 329752
1.3216181 0.37558725 0.090607926 1185053
1.3233538 0.37763479 0.088641733 1318201
1.3253134 0.38003498 0.087556109 926012
1.3265461 0.38212907 0.086966552 726066
1.3293389 0.38472551 0.086943015 1383465
1.3316014 0.38631186 0.086795345 2437701
1.3334956 0.38868734 0.087090045 3359847
1.3357205 0.3911567 0.086629272 4149887
1.3377075 0.39355066 0.086284094 4742544
1.3397551 0.39533442 0.085973844 4543626
1.3413347 0.39776808 0.085758552 1516367
1.3435693 0.39968497 0.085635751 461599
1.3451378 0.40186545 0.085918203 921894
1.3481753 0.40476871 0.085784324 133153
1.2737647 0.32768676 0.09579052 593433
1.2757272 0.32777959 0.095633477 659227
1.2852395 0.3372148 0.09384647 1119521
1.2856483 0.3397989 0.093742579 1645869
1.2868859 0.34066895 0.092519462 2502466
1.2902334 0.34404638 0.092358619 2963278
1.2916296 0.34660029 0.092185847 3028305
1.2938085 0.34796929 0.092145965 3094358
1.2959557 0.35030985 0.091953963 3620696
1.2981443 0.35299951 0.091566324 3686488
1.2998917 0.35486913 0.091934532 2961993
1.301646 0.35712394 0.091032043 3158854
1.3037703 0.35972813 0.090355128 1644840
1.3059001 0.3618665 0.090396836 526355
1.3079436 0.36330831 0.090687394 987681
1.3158596 0.37274411 0.089951843 132895
1.3183494 0.37555829 0.087006427 198440
1.3197742 0.37793547 0.08722581 464187
1.3218641 0.37908778 0.087160997 1581380
1.3238984 0.38162398 0.086491711 1976902
1.3261148 0.3834565 0.087085947 989240
1.3282514 0.38585567 0.086285502 922400
1.3299818 0.3880356 0.086376809 3029576
1.3313347 0.39049885 0.085504472 3558000
1.3338959 0.39167273 0.085839771 5005462
1.2701902 0.3265709 0.09415485 593437
1.272207 0.32735971 0.094953641 527642
1.2778602 0.33486333 0.091032669 922140
1.2840291 0.33938351 0.092506185 1646127
1.2880446 0.34310374 0.091406375 2897480
1.2881463 0.3458108 0.091418974 3423310
1.2899659 0.34744662 0.091406599 2699332
1.2915568 0.34994504 0.091100901 3817046
1.2955596 0.35411838 0.090383828 3487305
1.2980232 0.3565475 0.089328617 2171443
1.3004668 0.35836273 0.089193851 1710620
1.301613 0.359451 0.089434952 1118222
1.313251 0.3734962 0.084880769 5791373
1.315975 0.37658453 0.084558181 2632268
1.3177228 0.37874275 0.085544482 462120
1.3199172 0.38063249 0.08524359 923695
1.3213382 0.38204059 0.086006194 3293797
1.2636094 0.3228882 0.092590645 659227
1.2655952 0.32531479 0.093030356 659228
1.2683589 0.32636169 0.093542658 593436
1.2720255 0.33134031 0.091434866 855582
1.2737 0.33367801 0.090638891 790044
1.275766 0.33474112 0.091509804 987679
1.2917666 0.35435057 0.089274481 2829118
1.2934674 0.35477278 0.088850707 3092290
1.3024077 0.36413708 0.085610256 813
1.3041151 0.36655155 0.085431755 1250851
1.3059843 0.3691161 0.084608778 4017251
1.3075114 0.37129733 0.084596835 5792648
1.3101748 0.37318698 0.083829314 7106726
1.3118361 0.37553117 0.084268287 4277609
1.3138639 0.37749308 0.084351406 1448509
1.3156829 0.37939307 0.084179759 527147
1.3177006 0.38140848 0.084270857 661299
1.2560875 0.31840444 0.091293707 461844
1.2576678 0.3198894 0.091645733 593175
1.2596303 0.32173401 0.091755137 658971
1.261889 0.32349685 0.092557803 724768
1.2658777 0.32850501 0.08969067 1053987
1.2676464 0.33081678 0.089944631 658972
1.2700479 0.33249828 0.090503603 658713
1.2723844 0.33467519 0.09084557 790046
1.2919357 0.35755527 0.084499553 2305354
1.2936095 0.35932738 0.084506199 4081513
1.295469 0.36144885 0.084673956 3556713
1.2982755 0.3632673 0.083834656 3359598
1.2998825 0.36619049 0.083925679 2504042
1.301529 0.36654219 0.083440937 462635
1.3041191 0.37016082 0.083571561 2107447
1.3054595 0.37223652 0.083442919 4411241
1.3084097 0.37509698 0.0836678 6644868
1.2520212 0.31739876 0.090066567 330258
1.2537013 0.31849378 0.091295049 461587
1.2551234 0.32041046 0.091888666 593433
1.2581558 0.32348877 0.088599391 1316647
1.2597188 0.32556996 0.088976532 1579817
1.2622859 0.32767347 0.08877591 1119013
1.263947 0.3295626 0.089565441 724512
1.2658293 0.33190432 0.08897014 856857
1.2861416 0.35395762 0.084157512 526880
1.2880051 0.35649103 0.083583996 724776
1.2899715 0.35793889 0.084180534 1120812
1.2920303 0.36056536 0.084647641 2634575
1.2939198 0.36286578 0.083761454 2768741
1.295871 0.36528197 0.083391316 3558529
1.2983475 0.36675194 0.083453238 3819901
1.3005133 0.36902285 0.082325801 1055557
1.3022071 0.37200284 0.082407646 461335
1.3089609 0.37869003 0.082416393 1512776
1.2473724 0.31637594 0.089218259 330001
1.2498746 0.31720847 0.090070568 395537
1.2523006 0.32098329 0.087017775 1382436
1.2541394 0.3230899 0.087844759 1514282
1.2561946 0.32468072 0.088213548 1382438
1.2584677 0.3263832 0.088358507 1382180
1.2602024 0.3286854 0.088411763 790045
1.2623663 0.33096421 0.088541232 1119527
1.2665086 0.33546099 0.084713303 1516343
1.2682757 0.33777329 0.084916338 2108749
1.2701533 0.3400214 0.084936678 2307672
1.2724259 0.34191903 0.084719889 3294570
1.2745597 0.34386328 0.08429344 3557745
1.2762377 0.34627101 0.083733633 4017784
1.277988 0.34854048 0.082943588 4213361
1.2800672 0.35126284 0.082636416 658479
1.2821269 0.35328749 0.082934022 198170
1.284153 0.3552323 0.08273726 461337
1.2860184 0.35773578 0.083033718 592665
1.2870374 0.35965049 0.082871735 658978
1.2438184 0.31547427 0.087943077 461329
1.2468698 0.31730589 0.087211564 921885
1.2481097 0.31997395 0.086725079 1053728
1.2505307 0.32150307 0.08691173 1185315
1.252311 0.32353985 0.087335512 1514023
1.2579541 0.33019599 0.083709344 1120289
1.2604771 0.33309573 0.083012149 330010
1.2627187 0.33498716 0.083283916 329752
1.2644169 0.33676049 0.084130079 1251634
1.2661639 0.33914363 0.084854901 2504273
1.2684755 0.34147483 0.085015729 2900319
1.2700119 0.34398353 0.084217034 6318741
1.2722524 0.34590143 0.083980784 4739720
1.274443 0.34817222 0.083206326 2766942
1.2766306 0.35016075 0.082915545 2697800
1.2786031 0.35229152 0.082888618 855083
1.2824087 0.35628778 0.082673252 330521
1.2405405 0.31476128 0.086189255 658709
1.2424004 0.31675324 0.085831314 855834
1.2445893 0.3186264 0.085972995 921884
1.2465119 0.3206867 0.086328104 1053728
1.2484623 0.32245833 0.086344942 1448231
1.2524867 0.32759786 0.083340436 856868
1.2542359 0.32962927 0.083743408 1844278
1.2565417 0.33170599 0.083738953 2107708
1.25822 0.3339088 0.083065242 1712432
1.2605637 0.33620381 0.082830444 330009
1.2623158 0.33820134 0.082877889 395281
