# .PCD v0.7 - Point Cloud Data file format
VERSION 0.7
FIELDS x y z rgba
SIZE 4 4 4 4
TYPE F F F U
COUNT 1 1 1 1
WIDTH 1181
HEIGHT 1
VIEWPOINT 0 0 0 1 0 0 0
POINTS 1181
DATA ascii
1.2487915 0.30671561 0.037467241 7760709
1.2497849 0.30945528 0.038520694 7430978
1.2515373 0.31146419 0.037365437 6840912
1.2527461 0.31497851 0.037358046 5921876
1.2448504 0.30631086 0.036790609 9142372
1.2463346 0.30883944 0.036831379 8418899
1.2483652 0.31082195 0.036257267 7893079
1.2498858 0.31288964 0.036185384 7828322
1.2511938 0.31600425 0.036182165 7039069
1.2425992 0.30738685 0.034505069 9933967
1.2447624 0.30989677 0.034385085 9670535
1.2459292 0.31211683 0.034010947 9473416
1.2477484 0.31447589 0.034455299 8946811
1.2490361 0.31601396 0.035420775 8617844
1.2423912 0.31136858 0.033239603 10263189
1.2440686 0.3141329 0.033522427 9802382
1.2459491 0.31594795 0.033575177 9802121
1.2467993 0.31790081 0.033752263 10000013
1.2423823 0.31466299 0.03163588 10657947
1.2434671 0.31625217 0.031392634 10723998
1.2414955 0.31888708 0.029528201 10658466
1.2440687 0.32161671 0.028160989 10066585
1.2451797 0.3232393 0.028244853 10000792
1.2473745 0.32596076 0.027928233 9474191
1.2483494 0.32852259 0.02815187 9013638
1.2506125 0.33030146 0.028378844 7895410
1.2413603 0.32263535 0.027672827 10527137
1.2438328 0.32505777 0.027945995 10197915
1.2449942 0.32756433 0.027974367 10198172
1.2466879 0.32931167 0.028040051 9672085
1.2480068 0.33167523 0.027490258 9474190
1.2420652 0.32615802 0.027368903 10724259
1.4164808 0.41007769 0.075919628 2503803
1.4181263 0.41067308 0.0754866 3096443
1.4115055 0.40909958 0.074534357 3623550
1.4140339 0.40975523 0.07495898 3688575
1.4087051 0.40854073 0.072454333 4150152
1.4095464 0.40897298 0.073712289 4018828
1.4138482 0.41574788 0.071402192 2042706
1.4023845 0.40439594 0.071452022 395822
1.4041424 0.40605301 0.072241306 2502490
1.4063764 0.40807956 0.072761476 3885694
1.4087408 0.41359651 0.07061553 5792399
1.4115169 0.41528636 0.071099162 3686510
1.3946869 0.39822501 0.069867015 1252154
1.397383 0.4004209 0.07023412 1382722
1.3985014 0.40293014 0.07082814 1251385
1.400213 0.40514284 0.07178998 1186620
1.4018509 0.40629959 0.071937799 1582151
1.4060532 0.41285729 0.069639087 8817074
1.4074614 0.41485423 0.069798052 6976675
1.4100922 0.41535783 0.070101857 5923969
1.385788 0.3906278 0.06961894 1910077
1.3880994 0.39235139 0.069633961 3093848
1.3896471 0.39575309 0.069623649 3554663
1.3914143 0.39735109 0.069449782 3423594
1.3927732 0.39966476 0.070031106 2698326
1.394731 0.40168786 0.07037735 1447500
1.3972195 0.40458614 0.070940852 1250875
1.3996334 0.41000611 0.068110228 3424349
1.4019505 0.41175318 0.068481743 5858698
1.4036863 0.41382045 0.068715811 7896734
1.4057624 0.41604066 0.068084121 8360116
1.4096239 0.41829604 0.067789316 3494777
1.3815162 0.38949031 0.068733096 1053224
1.3836664 0.39171225 0.069553971 2172729
1.3860056 0.39414495 0.068400264 4343378
1.3869915 0.39619547 0.068719327 6184832
1.3887079 0.39850807 0.069295526 5001081
1.3904057 0.40061772 0.069795728 2171477
1.3928769 0.40377063 0.066333294 4278108
1.3950137 0.40614825 0.066522956 3027021
1.3960099 0.40860486 0.067247927 1909575
1.3980263 0.41079092 0.066795051 3688299
1.399855 0.41272414 0.067343473 5333121
1.4020323 0.41523194 0.068015397 5794160
1.3642893 0.37196982 0.067824006 6846611
1.3700631 0.37794864 0.066925764 2833243
1.3741362 0.38394654 0.067234874 724265
1.3758759 0.38600081 0.067710996 724781
1.3778431 0.38838202 0.067556441 659757
1.3795691 0.39077145 0.067255497 592670
1.3816299 0.39355129 0.066065967 1118241
1.383692 0.39560854 0.066476285 2764084
1.3856626 0.39811361 0.066456318 5724514
1.3870405 0.40013766 0.065954924 7303563
1.3889732 0.4026497 0.065982163 5922426
1.3907384 0.40514803 0.066043139 2502477
1.3927674 0.40734142 0.066034973 2569563
1.3943844 0.40991962 0.065646529 2835047
1.3959738 0.41179818 0.065743566 3295339
1.3976498 0.41380823 0.065518916 4678021
1.3999951 0.41650605 0.063954115 2838903
1.357039 0.36640763 0.067021251 658470
1.3593504 0.36784971 0.066945314 527917
1.3620155 0.37052786 0.06677258 991021
1.3625522 0.37306094 0.067472219 4016485
1.364974 0.37592751 0.067444801 6252178
1.3668258 0.37778336 0.06698215 5067387
1.3682216 0.37995213 0.066462636 2303830
1.3701683 0.38203698 0.066935539 1381941
1.3719676 0.38465548 0.066184878 723743
1.3735559 0.38759738 0.065454364 1317426
1.3755655 0.38972747 0.065796018 3225424
1.3774461 0.39239925 0.065792739 4146268
1.379472 0.39419103 0.065664768 527650
1.3810252 0.39685434 0.065608263 592671
1.3832487 0.39967567 0.06473732 2436930
1.3848132 0.40187407 0.06491667 3358029
1.3869236 0.40385962 0.064718485 3161174
1.3886496 0.4061684 0.064607799 1979227
1.3903828 0.40869665 0.06456387 2702168
1.3920996 0.41055119 0.064329624 3031395
1.3934681 0.41355997 0.063542247 3032945
1.3957208 0.41432583 0.063649774 2968431
1.3977951 0.41639322 0.063590407 2772081
1.3497386 0.3612349 0.065893054 1646912
1.3514497 0.36282182 0.066697836 3029593
1.3541033 0.36428738 0.066863418 2569554
1.3558277 0.367796 0.066247106 1777982
1.3576891 0.37078691 0.066460133 395549
1.3595481 0.37234628 0.066650748 725545
1.361897 0.37500113 0.067057371 3160907
1.3623769 0.37799615 0.066510439 3029582
1.3655484 0.3796736 0.067290187 1449545
1.366811 0.38235915 0.063772738 4146282
1.3684175 0.38427556 0.064880371 1316646
1.3700973 0.38625884 0.064813793 856870
1.3718357 0.38854158 0.063940525 2109773
1.3739307 0.39117652 0.063717186 3031391
1.37536 0.39368832 0.063824713 4280171
1.3774478 0.39558858 0.063456774 3227230
1.3789837 0.39783978 0.063318729 1121342
1.3809992 0.40069169 0.063679695 1450304
1.3829557 0.40303844 0.063614249 793915
1.3844562 0.4054566 0.063580036 992587
1.3868765 0.40798455 0.063174963 794697
1.3881989 0.40992212 0.06312263 3163765
1.390057 0.41230154 0.063536525 4216189
1.392817 0.41541582 0.063650846 2246000
1.3448536 0.35814023 0.064204693 395573
1.3464675 0.35906267 0.065082192 132129
1.3473523 0.36106813 0.06520164 922661
1.35005 0.36377269 0.064650834 4607078
1.3515762 0.36650085 0.064792812 6711950
1.3535376 0.36838859 0.064826608 5068919
1.3553661 0.37114251 0.064432383 3752800
1.3573741 0.3735373 0.064068437 527401
1.3589804 0.3762449 0.062880337 197919
1.3607081 0.37776917 0.062962413 1118750
1.3628345 0.38088983 0.06312871 3357512
1.3645093 0.38267756 0.06359899 3949910
1.3661046 0.38564712 0.062857985 1054519
1.3681717 0.38808566 0.062756062 1385025
1.3698034 0.39002788 0.063037157 2109517
1.3718789 0.39241946 0.063190103 3359073
1.3736067 0.39482921 0.062974751 3490660
1.3757032 0.397223 0.062947571 2898781
1.377715 0.40002054 0.062459469 2569044
1.3790077 0.40217799 0.062477469 1581640
1.3813534 0.40445906 0.061696649 1450557
1.3826482 0.4067508 0.061995387 531513
1.3843516 0.40877587 0.062247992 1255765
1.3384492 0.35388649 0.063392401 6384512
1.3405461 0.35613263 0.06377393 5002096
1.3428347 0.357813 0.064137399 1645642
1.3436791 0.3604188 0.063096941 328986
1.3460749 0.36330563 0.063632429 1777192
1.3481817 0.3655203 0.064152002 6054000
1.3495154 0.36841351 0.063668907 7303574
1.3512454 0.37032199 0.06407702 5397636
1.3530619 0.37232614 0.063920319 4740464
1.354737 0.3744145 0.063243389 4739951
1.3565789 0.37761807 0.062393665 1843773
1.3589501 0.37986517 0.062115431 1251122
1.360541 0.38203037 0.062260032 2634313
1.3626788 0.38406742 0.061558366 1911117
1.3637598 0.38686603 0.061982989 989250
1.3660406 0.38903373 0.061211705 1186875
1.366907 0.39153469 0.061665893 1910850
1.368773 0.39309591 0.061939478 2305868
1.3710052 0.39634866 0.061650395 4080995
1.3735536 0.39752966 0.061389446 3226974
1.3750385 0.40071213 0.061208487 2963799
1.3774066 0.40307915 0.061134577 2173523
1.3797445 0.40615177 0.061161637 924482
1.3247005 0.33950651 0.062937975 2305603
1.3254597 0.34095532 0.06378603 5988476
1.3274077 0.3427211 0.06374383 7303835
1.3295465 0.34427857 0.06322825 7039901
1.3360631 0.35300362 0.061966896 988444
1.3368367 0.35500658 0.062776744 1383462
1.3386172 0.35731661 0.062430739 2830144
1.3401875 0.35965252 0.062518597 987171
1.3421824 0.36191434 0.062495172 724769
1.3443668 0.36433828 0.062545955 1777462
1.345892 0.36764431 0.060618997 2372680
1.3478096 0.37002456 0.060840487 4675186
1.3494554 0.3713997 0.060859025 5530252
1.3513776 0.37385142 0.061021686 4345721
1.3530145 0.37625206 0.060891032 4148594
1.3551946 0.37919348 0.060483217 3292770
1.3564861 0.38143665 0.060774684 2700888
1.3585609 0.38342178 0.060355604 2964828
1.3606915 0.38598216 0.060361087 2701654
1.3621624 0.38814974 0.059950709 1845580
1.3637044 0.39015925 0.06059444 1186629
1.3656497 0.39223444 0.061529458 2107205
1.3201685 0.33805811 0.061505318 395287
1.321782 0.33964926 0.062565923 2107702
1.3234863 0.34244043 0.062311769 5002344
1.3255324 0.34437174 0.061681271 6055041
1.3275794 0.34679192 0.061944962 7042460
1.3297685 0.34971446 0.061449826 6385046
1.3310113 0.35191727 0.061574221 3819116
1.333059 0.35402465 0.061739564 198427
1.334691 0.35672659 0.060898304 527645
1.3362272 0.35864067 0.061414719 1187902
1.338213 0.36119384 0.060348511 3096171
1.3402691 0.3633852 0.060102224 266033
1.3417951 0.36587971 0.059389353 264220
1.3435324 0.36818326 0.059658468 1120811
1.345408 0.37059057 0.060270071 2110026
1.3472022 0.37300885 0.059594393 4214632
1.3489747 0.37579042 0.059250355 5989255
1.3507128 0.37804431 0.059198141 4475509
1.3529012 0.380207 0.059435725 3424614
1.3550513 0.3824985 0.05872333 3161696
1.3562775 0.38467491 0.059222639 3096157
1.3582036 0.38721788 0.059212327 3096666
1.3610396 0.39009166 0.060138464 2635858
1.3146821 0.33456725 0.060127258 3357033
1.3166125 0.33690596 0.061198354 263964
1.3181484 0.3391149 0.061291814 592146
1.3199694 0.34175509 0.060863376 2171691
1.3219149 0.34332073 0.060983002 5066833
1.3235217 0.34618819 0.061391532 6054779
1.324937 0.34874308 0.060542107 5923458
1.3272456 0.3504144 0.060611963 5792648
1.3287594 0.35292274 0.060130119 5397634
1.3307292 0.35552305 0.060235262 2633806
1.3323654 0.35795963 0.059709668 397364
1.334038 0.36030442 0.05905211 1451591
1.3360059 0.36227578 0.058584332 2110300
1.338007 0.36484617 0.058730602 3358055
1.3394668 0.36782742 0.058588505 1121094
1.3419362 0.36983585 0.058916092 330274
1.3438345 0.3718375 0.058363497 1383981
1.3449647 0.37441319 0.058678389 2043455
1.3470054 0.37684166 0.059021294 5200244
1.3489252 0.37857115 0.059042454 6514830
1.3511045 0.38129914 0.058789253 3357539
1.3525651 0.38381904 0.058521032 2963548
1.3540705 0.38571525 0.058744252 3359074
1.2891445 0.30570155 0.060771406 3750979
1.2907755 0.30823934 0.060759425 4146510
1.2989681 0.31833196 0.060230255 4016230
1.3004506 0.32195389 0.060729384 4937584
1.3020084 0.3226614 0.059839606 4738925
1.3083358 0.33059245 0.058671713 921875
1.3105276 0.3330428 0.05921644 4673123
1.3118646 0.33597946 0.059689879 1777717
1.3143823 0.33765274 0.059553862 263449
1.3160274 0.34004003 0.059227109 396829
1.3175988 0.34272891 0.05932045 724515
1.3199484 0.34525418 0.059877753 2633005
1.3212016 0.34732789 0.058085799 2766668
1.3232489 0.34909356 0.058499515 5528191
1.3252804 0.35262835 0.05739367 5791626
1.3268107 0.35437983 0.057913065 4212331
1.3284051 0.35648561 0.058242679 2041158
1.3303428 0.35947019 0.058186173 726070
1.3324331 0.36136836 0.057854474 990274
1.3344877 0.36401033 0.058424234 3952243
1.336579 0.36705321 0.05835402 6712991
1.3385895 0.36900526 0.057613254 3225961
1.3394754 0.37110782 0.057207882 1777996
1.3413625 0.3730585 0.057062387 396069
1.3425548 0.37522542 0.057344496 856359
1.2849969 0.30349183 0.060150862 2040613
1.2871943 0.30575418 0.060152173 3751231
1.2888656 0.30839026 0.060174823 4474192
1.2943053 0.31592709 0.058995068 855076
1.2955115 0.31760621 0.060076475 2369847
1.297976 0.32044554 0.059513569 4673640
1.2982695 0.3225261 0.060178638 4608104
1.3019793 0.32458377 0.05990088 4607342
1.3028345 0.32672131 0.058607936 2896209
1.305928 0.33027548 0.057757735 520
1.3072762 0.3324911 0.058087826 659218
1.3086483 0.33490974 0.058787823 2239030
1.3105124 0.33697575 0.058490276 2239815
1.3125193 0.33933574 0.058404148 3291996
1.3140368 0.34230226 0.058403611 4148341
1.3150595 0.34451056 0.057220399 1516369
1.3176498 0.34632695 0.057375193 329762
1.3196499 0.34869689 0.056992888 1910589
1.3213577 0.35131258 0.057103157 4475755
1.3230345 0.35405225 0.056975007 5790850
1.3248024 0.35536665 0.057601094 4145510
1.3267202 0.35794801 0.056638479 3158867
1.3283956 0.36095715 0.056003809 1580346
1.3300409 0.36257082 0.057119727 595245
1.2751864 0.2957384 0.058412313 2171698
1.2773573 0.29832011 0.058584571 2434353
1.2796125 0.30142021 0.058196485 723221
1.2809472 0.30285412 0.059152842 854806
1.2828482 0.30540287 0.05991143 1646118
1.2844912 0.30690151 0.060406089 3817027
1.2858875 0.31000793 0.059412837 4474959
1.2879694 0.3126877 0.058832645 3223868
1.2898912 0.31478274 0.05826354 1316131
1.291788 0.31645131 0.058904648 657944
1.2936828 0.3195436 0.05731827 3093818
1.2952552 0.32165366 0.058048129 4541793
1.2960839 0.32336497 0.059261143 4673125
1.2991071 0.32817209 0.058399856 4608364
1.300571 0.32923776 0.058142662 4805748
1.302712 0.33179241 0.057247341 1581372
1.304775 0.33385849 0.057560921 198931
1.306293 0.33600104 0.056177735 461850
1.308037 0.33826065 0.056473434 1778750
1.3100312 0.34090579 0.055992365 3161182
1.3118236 0.34291017 0.05592525 5068408
1.313104 0.34507 0.055600226 4804726
1.3153851 0.34799999 0.055665314 922423
1.3175697 0.35002226 0.055821776 527396
1.3189975 0.35236263 0.055620313 1449773
1.3207269 0.35451567 0.055782378 3357518
1.3232605 0.35713404 0.055846214 6184314
1.325197 0.35959911 0.05575645 3421523
1.2655343 0.2877956 0.057713389 4869718
1.2675536 0.29017937 0.057902813 3093056
1.270062 0.29309571 0.058367193 789784
1.2717367 0.29479426 0.058387041 1974317
1.2735409 0.29718482 0.058648705 2896451
1.275666 0.30006862 0.058694839 2369592
1.2775869 0.30203784 0.058334231 1184549
1.2788334 0.304097 0.058385193 723999
1.280184 0.30671996 0.056628346 197910
1.2824636 0.30782479 0.056753099 725020
1.2838808 0.31122231 0.056389213 1712168
1.2857139 0.31349522 0.056496382 1843768
1.2875655 0.3158204 0.056859732 330270
1.2901226 0.31856674 0.056445718 460814
1.2920276 0.32095528 0.057260334 3422006
1.2931335 0.32320386 0.057526469 4410454
1.2971754 0.32805759 0.054550409 6121363
1.2989582 0.33047622 0.05524081 5132671
1.3004041 0.33273405 0.054976106 3948391
1.3027568 0.33506012 0.055229366 988208
1.3042692 0.33709645 0.055281222 659503
1.3058724 0.33967674 0.054863393 1581625
1.30794 0.34237415 0.055077791 3226192
1.3097223 0.34429032 0.055548191 5331582
1.3118122 0.34752625 0.054533839 5660556
1.3137202 0.34928077 0.054391146 4081783
1.3154123 0.35144472 0.054354548 594494
1.3170912 0.35394484 0.054335296 264737
1.2611917 0.2853651 0.056828022 460306
1.2622828 0.28686506 0.057071447 1184538
1.2637521 0.28893483 0.057518244 2368809
1.2651999 0.29140091 0.057489753 1381915
1.2675302 0.29369259 0.057608008 1052701
1.2697532 0.29623401 0.057447553 2239302
1.271319 0.29813027 0.056524336 2502470
1.2730188 0.3011294 0.056543708 2700104
1.2752624 0.30303484 0.056551814 2173512
1.2771235 0.30571526 0.056160212 3027788
1.2789075 0.30808443 0.055973947 1119532
1.2807577 0.31063843 0.056216955 132107
1.2823174 0.31281263 0.055680633 1120038
1.2839508 0.31514984 0.055613816 2370628
1.2858788 0.31794655 0.055386424 3357267
1.2880771 0.3194086 0.056439877 331039
1.2895148 0.32238346 0.054291606 395552
1.2914171 0.32456517 0.053956211 2963789
1.293443 0.32707089 0.053863406 5134201
1.2950199 0.3291862 0.05421865 6712210
1.2966622 0.33151126 0.054557085 5922688
1.2984961 0.33391023 0.05448091 3027537
1.3009065 0.33653075 0.053951502 2172228
1.3025368 0.33846831 0.053920507 593187
1.303262 0.34126002 0.053780794 1581108
1.3102231 0.34822243 0.054336846 5266058
1.3119991 0.35135782 0.053757668 5661325
1.2593324 0.28553629 0.056198537 1644583
1.2595029 0.28787237 0.056729198 1117981
1.2622558 0.29077405 0.056144416 592144
1.264451 0.29316765 0.055088997 263443
1.2658356 0.29511207 0.055682778 1053724
1.2674401 0.29714268 0.056205988 2502465
1.2695138 0.29987764 0.055001318 4806006
1.2714612 0.30210721 0.055206776 3622238
1.2729986 0.30469674 0.054963946 3226968
1.2744851 0.30693889 0.054636002 5002610
1.2763255 0.30954009 0.054292321 4344684
1.2786874 0.31211144 0.05421412 1451080
1.2801461 0.31420666 0.053764582 2175570
1.2821445 0.31634128 0.053707898 3359069
1.2833817 0.31875455 0.053146839 4411246
1.2858891 0.32121176 0.05285728 3226208
1.2875991 0.32362169 0.053158939 594231
1.2891788 0.32613444 0.052693129 658975
1.2912004 0.32854921 0.052951217 3160908
1.2926726 0.330432 0.053474367 5725314
1.2945865 0.33265686 0.054107726 6843524
1.2569139 0.28727853 0.054899752 3881797
1.2587657 0.28977379 0.054895043 2237242
1.2598703 0.2918756 0.054084778 1317167
1.2619903 0.29424679 0.054513335 460828
1.2633466 0.2961328 0.054874063 1315624
1.2659875 0.29881492 0.053803205 5595268
1.2672343 0.30092588 0.053237319 5463686
1.2693703 0.30336189 0.05299747 4148340
1.2708814 0.30644172 0.052796483 4871550
1.2728096 0.30859923 0.052551389 5265021
1.2746665 0.31120726 0.051740348 4869746
1.276572 0.31334788 0.052634656 2635099
1.2779109 0.31552008 0.052253723 2437460
1.2799349 0.31795439 0.052505136 2635863
1.2819318 0.3204824 0.052549481 3490145
1.283779 0.32287955 0.052296996 4542323
1.2853963 0.32476637 0.052267313 3752556
1.2872165 0.32729203 0.052089453 659766
1.2891688 0.32929242 0.052363038 659227
1.2547632 0.28883657 0.053113818 4868677
1.2561911 0.2913408 0.053250909 3620435
1.2584875 0.29298404 0.053032398 2699847
1.2589049 0.29542431 0.053063035 2370111
1.2621689 0.29788297 0.051034331 3489369
1.2634845 0.30023748 0.051073074 4542306
1.2648814 0.30296093 0.051463306 5726341
1.267114 0.30509913 0.052051902 5133950
1.2688818 0.30749199 0.051976681 4016233
1.2707235 0.30977464 0.05219388 4672881
1.2724321 0.31208786 0.052151442 3423317
1.2741574 0.31444871 0.051974654 2634836
1.2765017 0.31706142 0.05226934 2438488
1.283828 0.32654798 0.051655889 5002875
1.2543504 0.29260889 0.051447749 4869194
1.2554724 0.29479432 0.051090598 3225926
1.258093 0.29764876 0.050892055 3226195
1.2598153 0.29992643 0.049778819 1516104
1.2612429 0.3017337 0.05047226 1845563
1.2628547 0.30398902 0.050797582 4477286
1.2644538 0.3062205 0.051223159 6185866
1.2663739 0.30756289 0.05127281 5856642
1.2545536 0.29629225 0.05129081 4079956
1.2561929 0.29928705 0.047875404 4411511
1.2576392 0.30066726 0.048489094 4147822
1.2590441 0.30302519 0.049193144 1515583
1.2606338 0.30555749 0.049046874 1450290
1.2530968 0.29795724 0.046670139 6973538
1.2536479 0.30001152 0.047316909 6317684
1.255327 0.30212361 0.047875226 4608631
1.2562158 0.30493879 0.047704458 4871542
1.2574205 0.30681506 0.047950268 4542062
1.2526221 0.30155537 0.046823263 6514280
1.2527953 0.30382982 0.045810878 6447712
1.2523246 0.31044841 0.040392518 6510140
1.2497759 0.31149513 0.038658023 7365183
1.2514417 0.31300259 0.039702654 7103310
1.2525208 0.31403455 0.041242003 6115902
1.247323 0.31248495 0.037117481 8155207
1.2494545 0.31485611 0.037428021 7497024
1.2508688 0.31729686 0.038608909 6971204
1.2528547 0.3184697 0.037062645 5658968
1.252838 0.32063636 0.037137628 5330004
1.2428691 0.31079921 0.036556602 9471339
1.2450056 0.31285 0.036857069 8681559
1.246233 0.31564933 0.037169278 8287051
1.2487752 0.31833625 0.036590517 7695699
1.2499142 0.32095468 0.036802411 7631718
1.2514336 0.32227078 0.037743032 6250329
1.2427527 0.31401759 0.035493135 9538174
1.2443697 0.31651041 0.034108043 9276299
1.2465239 0.31903967 0.034256101 9210240
1.2476575 0.32148528 0.034903109 8881273
1.242718 0.31870747 0.033427238 10197394
1.244204 0.32091781 0.033943653 9671052
1.2458265 0.32307628 0.034338236 8881020
1.2407143 0.31962648 0.033345938 10591892
1.2421379 0.3228046 0.033056557 10394256
1.2419169 0.32596707 0.02822876 10461087
1.2431575 0.32845253 0.028531969 10592929
1.2457328 0.33117285 0.028295636 9935001
1.2481444 0.33279264 0.028729379 8816255
1.2495022 0.3355206 0.028495431 8289912
1.2401774 0.32703793 0.027896643 10592673
1.2420924 0.33000362 0.027862072 10461087
1.2441638 0.33243063 0.028135121 10000792
1.2459266 0.33488902 0.027901828 9737363
1.2476065 0.33720675 0.028262913 8947843
1.2400867 0.33167639 0.027383447 10658466
1.2417519 0.33358991 0.027274966 10790052
1.2441096 0.33593556 0.027105331 10329502
1.2456901 0.33776975 0.027273417 10000536
1.41021 0.41064817 0.075112343 1122152
1.4044172 0.40892333 0.073912621 7239604
1.3988605 0.40668547 0.072523475 3819641
1.4013548 0.4077065 0.072852731 7108517
1.4057679 0.4144609 0.071048856 6187158
1.3953776 0.40557611 0.071316063 2436443
1.396631 0.40740216 0.072726607 4609920
1.3989632 0.41150784 0.070041597 6450826
1.4006889 0.41269749 0.070860505 5727355
1.3896942 0.40221226 0.069754481 1316163
1.3919479 0.40412056 0.070419431 1250883
1.3926387 0.40613431 0.071595728 3030118
1.3946385 0.41040021 0.06927675 5528699
1.397002 0.41202098 0.069686353 5857922
1.3983673 0.41421503 0.069039702 5135218
1.4006379 0.41594386 0.068268418 3756124
1.378278 0.39158565 0.068145156 330282
1.3806927 0.39382547 0.068715692 856365
1.3826511 0.39612997 0.06891197 2238534
1.3840774 0.39849979 0.069037974 3948638
1.385903 0.40106374 0.069109321 2303308
1.387145 0.40356517 0.069124281 592942
1.3891658 0.40597337 0.069122314 1318211
1.3913133 0.4082585 0.067972898 2700887
1.3929211 0.41089535 0.068222404 4607599
1.3948581 0.41308457 0.068182945 4345459
1.3969579 0.4151805 0.069168091 3097178
1.3673842 0.38206869 0.067444623 724506
1.3683777 0.38352668 0.068282723 262947
1.3704004 0.38584697 0.06850332 1252163
1.3723774 0.38771904 0.068486452 2766684
1.3742075 0.3904506 0.067710638 4214128
1.3764153 0.39283431 0.068503022 1779020
1.3779109 0.39529967 0.067814827 1515326
1.3802176 0.39765567 0.067896843 790829
1.3822143 0.40082103 0.067432165 1909304
1.3838706 0.40327585 0.066686988 2304568
1.3859102 0.40488702 0.066399455 2106931
1.3875241 0.40717363 0.066984296 2174288
1.3894562 0.40998489 0.066172779 3427450
1.3913321 0.41232687 0.066374898 4546171
1.3596683 0.3747611 0.067160606 1186090
1.3608432 0.37791014 0.066521406 1582136
1.3630522 0.38024712 0.067368269 1186365
1.3651677 0.3826319 0.067815542 395301
1.3670447 0.38559288 0.067698359 658985
1.369128 0.38817066 0.066707611 2436676
1.371205 0.38971859 0.067091942 4344421
1.37252 0.39187622 0.067188084 5528441
1.3745568 0.39454812 0.066482663 5068406
1.3758587 0.39724922 0.066026866 5002611
1.3784246 0.39884514 0.065751433 1646655
1.3797367 0.40201163 0.06562078 2370623
1.3816502 0.4042598 0.065587401 2371913
1.3836282 0.40653259 0.065888584 3030363
1.3853128 0.40882003 0.065441489 4346484
1.3870132 0.4112975 0.065347135 5070975
1.3887208 0.41332543 0.064015508 4151924
1.3450028 0.36084753 0.066161156 1251364
1.3467038 0.36238474 0.066887617 4673608
1.3486388 0.36517239 0.066619635 7041163
1.3502996 0.36758715 0.066546559 5464194
1.3525264 0.37061614 0.066177487 3754355
1.3546622 0.37223238 0.066316724 1976401
1.3566759 0.37493658 0.066757202 264745
1.3570073 0.3773973 0.066746354 1121086
1.3595808 0.37939793 0.066691399 1976894
1.3613408 0.38211626 0.066990733 1251396
1.3629501 0.38409001 0.065620899 1448763
1.3648108 0.38666505 0.065641284 920631
1.3669462 0.38887149 0.06585753 2566973
1.3686626 0.39124417 0.066571176 4410460
1.370412 0.39330387 0.064516723 4806258
1.3722544 0.3956852 0.064876676 5529214
1.3742266 0.39857966 0.064164579 3885415
1.3761961 0.40070176 0.064100862 3424350
1.3777324 0.40339118 0.064324856 1648204
1.3797741 0.40580463 0.06439209 1912657
1.3814002 0.40813011 0.064154267 2965863
1.3832552 0.41019708 0.063665867 4742021
1.3852731 0.41207755 0.064195991 6780836
1.3387122 0.35687888 0.065272987 66083
1.3408254 0.3592726 0.065925956 263443
1.3428359 0.36161166 0.066372991 988199
1.3447689 0.36473805 0.066719234 3686738
1.3468006 0.36644191 0.066040397 5856874
1.348024 0.36995268 0.065320969 7107727
1.3499075 0.3714276 0.065192759 5135496
1.3518617 0.37327158 0.065185785 4279925
1.3541553 0.37606895 0.066263199 2240086
1.3569933 0.38030875 0.063040793 2041157
1.359314 0.38367891 0.063434362 3358028
1.3612714 0.38564569 0.064410865 2831435
1.362558 0.38837719 0.064490676 2370123
1.3650542 0.38985884 0.063542366 1778752
1.366658 0.39238018 0.063027084 2174282
1.3680568 0.39447469 0.063500285 4213863
1.370419 0.39690256 0.063591123 5593467
1.3719047 0.3995378 0.063336849 3291995
1.3739612 0.4023779 0.063266397 2701397
1.3760357 0.4048596 0.062995315 1912660
1.3780289 0.40707821 0.06250453 1583953
1.379446 0.40895009 0.062635422 2900077
1.3807147 0.41052341 0.063354135 4544127
1.333747 0.35527635 0.064060926 66572
1.3355074 0.35647941 0.06436801 263948
1.3371534 0.35804921 0.065715671 330271
1.3387408 0.36084384 0.0646348 988973
1.3420491 0.36323357 0.063910007 527128
1.3428464 0.36558282 0.063455582 921636
1.3446848 0.36728764 0.06405133 2501171
1.3458195 0.37008476 0.063953221 3817800
1.3474047 0.37254339 0.063497066 6580597
1.3495896 0.37502742 0.063027859 7764127
1.3518322 0.37750453 0.062553942 5397114
1.3536911 0.37991172 0.06276238 4410211
1.3551791 0.382415 0.062910199 3686234
1.3570466 0.38466996 0.063030958 3620697
1.3592544 0.38675201 0.062656879 3489879
1.3613191 0.3890155 0.061858892 1845586
1.362771 0.39176774 0.061927795 1186880
1.364383 0.39394748 0.062313318 1713478
1.3663259 0.3965925 0.06241405 2436683
1.3687329 0.39869994 0.062015355 4014690
1.3703331 0.40171814 0.061912417 3291223
1.372193 0.40294194 0.061273694 2502480
1.3733717 0.40560496 0.061625123 1846610
1.3761508 0.40798432 0.061686754 1978455
1.3246474 0.34609413 0.063422441 5332363
1.331478 0.35569572 0.063397169 922411
1.3329715 0.35746562 0.063512087 132378
1.3352349 0.36030245 0.062888086 725036
1.3368778 0.36224854 0.063336492 4015204
1.339066 0.36491728 0.063255787 2238538
1.3407027 0.3669914 0.063290238 132379
1.3427566 0.36934996 0.062766433 461330
1.3442996 0.37226474 0.062536955 2041903
1.3458244 0.37421679 0.062406063 4673638
1.3478392 0.37609661 0.062531829 7303823
1.3497367 0.37875873 0.061938167 3160154
1.3515846 0.3813768 0.061650872 2501960
1.3533194 0.38417113 0.060726821 2700890
1.3559036 0.38595408 0.060718894 3030367
1.3570623 0.38882554 0.060702801 2899036
1.3590734 0.39098883 0.060821414 2767449
1.3608072 0.39326 0.060796797 2109262
1.3621075 0.39544439 0.061105013 1450818
1.3634231 0.39777738 0.061089277 1779012
1.366699 0.40069109 0.061268091 2698826
1.3677771 0.40307736 0.061175585 1844286
1.3699498 0.40459031 0.061420977 1122115
1.3173158 0.34017408 0.062142372 263435
1.3190386 0.34310353 0.061632335 2501164
1.3206694 0.3443827 0.06264472 3884119
1.3218727 0.34675634 0.062177122 5265777
1.3243353 0.34970236 0.062418699 6778523
1.3259715 0.35174716 0.062096238 6909852
1.3280902 0.35428023 0.062056839 4739704
1.3289828 0.35674936 0.062218428 2041407
1.3310959 0.35918903 0.061381221 1975357
1.3331028 0.36119151 0.062335372 4081769
1.3347368 0.36491662 0.061132312 5860245
1.3367743 0.36546028 0.060413003 6648228
1.3404328 0.37088835 0.060239494 133173
1.3423049 0.37299442 0.060631633 923693
1.3439677 0.37556052 0.06060487 1713460
1.3461957 0.37806487 0.060219944 2961993
1.3478409 0.38033754 0.060214162 1711411
1.3497243 0.38282919 0.059680939 1185581
1.3515544 0.38531965 0.059448481 1844797
1.3539504 0.38782316 0.05959475 2964313
1.3550372 0.39003617 0.059149384 3161944
1.3566926 0.39232677 0.059772849 2964826
1.3585541 0.39396107 0.060204744 2833495
1.2990792 0.32057995 0.062380672 5068671
1.3007562 0.3231768 0.062002182 4805502
1.3111328 0.33803272 0.061426401 1581108
1.3126655 0.33901334 0.061890483 2830662
1.3146571 0.3411628 0.061683178 1119530
1.3166724 0.34394526 0.061191797 527
1.31846 0.34619689 0.061110258 1184794
1.3203254 0.34858137 0.061161757 4212300
1.3221979 0.35081726 0.061262131 7304079
1.3237894 0.35332251 0.061255932 7370143
1.3258015 0.35553157 0.061371803 4344188
1.327713 0.3584882 0.060600102 791342
1.3290336 0.36059892 0.060441017 2634311
1.3308675 0.36291033 0.059795499 5265788
1.3328207 0.36492479 0.059746385 6186380
1.3345881 0.36732131 0.059728742 5793164
1.337015 0.3698113 0.05936265 4674432
1.3387895 0.37218004 0.059583545 1450570
1.3403314 0.37442094 0.0592103 594991
1.3422838 0.37662822 0.058854103 1318192
1.3436298 0.37941325 0.058966994 1975860
1.3457398 0.38165081 0.059593081 987683
1.3475146 0.3842234 0.059313893 198169
1.349328 0.38645202 0.059293151 132634
1.3510852 0.38859183 0.059205413 1186607
1.3530579 0.39070952 0.059314132 3030103
1.2924697 0.31843108 0.062182784 3225648
1.2945561 0.31905395 0.061591387 4082008
1.29671 0.32143009 0.061428308 4608374
1.2984065 0.32411987 0.060835302 4674163
1.3073354 0.33624655 0.061143517 592661
1.3092215 0.33789343 0.060396492 1383213
1.3110566 0.34065801 0.060435891 4673648
1.3127843 0.34277445 0.060790837 5068141
1.3146381 0.34500337 0.06048429 1712443
1.316523 0.34789419 0.060152113 536
1.3179874 0.3499189 0.059549093 462367
1.3198254 0.3523857 0.060112476 2238782
1.3222851 0.35499054 0.059414625 4080740
1.3234648 0.35722589 0.058557332 658478
1.3254614 0.3596102 0.058666945 527652
1.3275156 0.36208481 0.058683753 1713468
1.3292575 0.3646394 0.058612823 3161173
1.3310046 0.3665176 0.058721662 6450059
1.3325876 0.37050873 0.05853647 5200516
1.3351779 0.37104028 0.057832599 6055828
1.3361683 0.37400681 0.057566404 4214137
1.3379914 0.37639171 0.057702065 2503512
1.3400173 0.37867248 0.057761431 1581881
1.341784 0.38026321 0.058374882 2041648
1.2895707 0.31673801 0.059252262 460306
1.2913674 0.31817347 0.060486078 2171694
1.2927756 0.32019264 0.060432434 3621976
1.2939434 0.32279336 0.059963048 4016479
1.2961855 0.32488978 0.059902191 5133177
1.2975363 0.32785815 0.059342444 5330563
1.2983289 0.32989627 0.059753418 4346237
1.3028889 0.33512795 0.05892694 527387
1.3051754 0.33705223 0.058791697 1251364
1.3069417 0.33974147 0.059116006 3292507
1.3094044 0.34174269 0.058910608 5135752
1.3108836 0.34514558 0.058697283 5596300
1.312554 0.34684634 0.058850527 5398152
1.3144553 0.34825003 0.05917418 1385292
1.3160163 0.35135627 0.057960272 264485
1.3180518 0.35437429 0.057231069 659747
1.3201532 0.35653508 0.057578981 923186
1.3218634 0.35853821 0.057747483 593704
1.3236189 0.36109442 0.057383299 330020
1.3253407 0.36319017 0.057241201 725024
1.3274924 0.36549252 0.057352304 2239545
1.3277222 0.36736584 0.057683945 2700102
1.3335698 0.37344426 0.057861328 4410233
1.3352443 0.37653899 0.057371855 3623014
1.3370173 0.3790791 0.0571872 4015715
1.2708395 0.29718393 0.059953094 2961464
1.2723393 0.29868466 0.059934378 3027260
1.2739 0.30026454 0.059908867 2829880
1.2755064 0.30340666 0.059363902 2698038
1.2774177 0.30542886 0.05928576 1579298
1.2797439 0.30729425 0.059734821 460816
1.2817507 0.30968422 0.059764504 987674
1.2836797 0.31217676 0.059437156 1315874
1.284541 0.31364149 0.059182107 1579553
1.2870207 0.31689048 0.058855474 526614
1.2881497 0.31928593 0.059239149 526616
1.2904303 0.32173455 0.059412837 1975085
1.2923222 0.32419997 0.058567286 3884365
1.2937857 0.32642716 0.058224797 5592944
1.2955537 0.32859629 0.058088779 6578834
1.2983664 0.33142394 0.058763623 3950439
1.2991644 0.33414447 0.057860374 2106948
1.3011651 0.33620375 0.057704329 1053486
1.3035696 0.33861583 0.057534099 2370626
1.3051617 0.34032977 0.057434618 3423570
1.3065948 0.34327841 0.057014942 3490146
1.308573 0.34517413 0.056746483 4016750
1.3104687 0.34829444 0.056763768 4806012
1.3126364 0.35040027 0.056225896 3949938
1.3139386 0.35314971 0.056624055 1646658
1.3156567 0.35529828 0.056171417 198945
1.3177571 0.357481 0.05658412 264998
1.3200371 0.35898 0.056888521 594479
1.3218569 0.36203861 0.057270885 726826
1.3236202 0.36492985 0.056677938 133154
1.3254385 0.36670965 0.056867242 922910
1.266865 0.29551888 0.059135497 2039339
1.2688268 0.29721457 0.059571862 3093825
1.2707788 0.29888082 0.059319258 3422795
1.2716784 0.30130792 0.059210777 3225160
1.2738638 0.30422622 0.059023261 3357004
1.2754033 0.30697447 0.058808684 4474717
1.2772689 0.30932033 0.058658838 1777198
1.2791812 0.3111766 0.058617711 197647
1.281018 0.31423789 0.057479501 1448493
1.2833033 0.31618953 0.057806253 2698817
1.2846214 0.3188374 0.058084369 3159365
1.2861981 0.32093984 0.057650745 2567492
1.2881348 0.32311088 0.057408929 131859
1.2903535 0.32601643 0.056148171 1580316
1.2921286 0.32856387 0.057529092 5198952
1.2942259 0.33108735 0.057591677 6449033
1.2960551 0.33296853 0.05645287 2830669
1.2973967 0.33514178 0.055663466 798
1.2994487 0.33768278 0.056017339 396063
1.3012291 0.3399983 0.056221604 1448748
1.3027165 0.34275526 0.055426717 2568255
1.3047295 0.34484404 0.055817783 2897747
1.3066764 0.34702945 0.055470467 2240337
1.308466 0.34957373 0.05511117 4740479
1.3102926 0.35149872 0.05510664 5594765
1.311929 0.35374063 0.054984808 5396867
1.3131654 0.35584646 0.055148005 2962521
1.2608114 0.29136595 0.057121992 722961
1.2626684 0.2937862 0.058047056 920083
1.2642494 0.2961041 0.058098435 2106670
1.2664847 0.29861593 0.057616711 3818332
1.2680974 0.30128562 0.057361841 3884640
1.2700592 0.30362263 0.057013988 3818078
1.2719836 0.30577093 0.056682825 4475500
1.2737 0.30830014 0.056696594 4607342
1.275243 0.31107068 0.056553781 2962256
1.2771525 0.31282327 0.056689978 1251633
1.2788807 0.31502748 0.057151198 2173251
1.2811176 0.31743196 0.056955397 2634058
1.2828302 0.31977487 0.056510687 3424344
1.2842989 0.3216297 0.056413412 3818590
1.2861209 0.32476619 0.056499481 1119536
1.2878084 0.32737458 0.055324793 132115
1.2901108 0.3294341 0.054809928 1713206
1.2921637 0.33220512 0.054786563 2436166
1.2936563 0.33435714 0.05474937 1778755
1.2954283 0.33674175 0.055163741 1186883
1.2975019 0.3385132 0.054782748 594483
1.3001537 0.34143692 0.053581238 461596
1.3013525 0.34339774 0.054267406 1711660
1.3024778 0.3463074 0.054655433 2436667
1.3042789 0.34940439 0.054733455 1779265
1.3061597 0.35019469 0.05498898 5397374
1.2561369 0.28975379 0.055454016 3947849
1.258872 0.29266313 0.056384563 1578532
1.2602897 0.29523814 0.056666851 723485
1.2621714 0.29795954 0.056117475 2369330
1.2644198 0.30040526 0.056554198 4475996
1.2662983 0.30280557 0.056210279 4213092
1.2675385 0.30511928 0.056351542 4212572
1.2694268 0.30708084 0.056340277 6251133
1.271713 0.30962259 0.055454671 3884132
1.2732117 0.31189546 0.055544376 1977934
1.2751653 0.31428468 0.054807842 2637155
1.2769129 0.31651855 0.054752469 3360366
1.2789428 0.31915233 0.054459512 4477817
1.2803314 0.3215645 0.054210067 3819634
1.2820759 0.32401475 0.053777337 3491692
1.284106 0.32616174 0.053505898 4213105
1.2861359 0.32861799 0.053519011 1252155
1.2877815 0.33111709 0.053210497 198688
1.2898237 0.33316055 0.053483129 1054504
1.2910069 0.33584288 0.053852916 331561
1.2973623 0.34275004 0.053755403 1909578
1.2989736 0.34503359 0.053549767 132647
1.2997921 0.34719568 0.053674817 198426
1.2551603 0.29303461 0.05406034 4211778
1.2569456 0.29432851 0.055315852 3290437
1.2591977 0.29736775 0.054518819 1185071
1.2600586 0.29968548 0.055115342 790046
1.2620353 0.30115587 0.055565596 2699054
1.2640042 0.30320841 0.05586344 4607326
1.265792 0.30558246 0.054617047 2897747
1.2677147 0.30901879 0.053497016 2373203
1.2692976 0.31119487 0.0534693 2635091
1.2712649 0.31382665 0.053146482 2503765
1.2729756 0.3161391 0.053184032 2833247
1.2749901 0.31807429 0.05323571 3294061
1.2767512 0.32072905 0.053258061 4806272
1.2789142 0.32297492 0.053310275 4608382
1.2804728 0.32532048 0.052989841 3819123
1.2827382 0.32717085 0.053215086 4476788
1.2842379 0.32966536 0.0524894 4081003
1.2854443 0.33276165 0.052541375 2106691
1.2858155 0.33470488 0.05259645 330533
1.2539468 0.29363713 0.053186178 5066055
1.2548344 0.29570156 0.054013491 4080208
1.2568437 0.29849115 0.052916825 2831692
1.2574853 0.30027232 0.053933263 2633537
1.2625821 0.305338 0.051808715 5134454
1.2641326 0.30816978 0.05156374 5067122
1.2659118 0.30996695 0.05218941 2634316
1.2674099 0.31240475 0.052327275 2503245
1.2697384 0.3146053 0.052370548 2897749
1.2709825 0.31673583 0.05287838 2833248
1.2726688 0.31910598 0.052639365 3557233
1.2748203 0.32268777 0.052761674 5266566
1.2811956 0.32936081 0.052078545 3556459
1.2827437 0.33192605 0.051651359 5001587
1.2527847 0.29665667 0.052968264 5328195
1.254719 0.29975799 0.051939726 3291214
1.2558031 0.30175513 0.052512586 3094350
1.2586501 0.30486071 0.050277591 1450566
1.2601597 0.30656016 0.050721288 990517
1.2615793 0.3092052 0.05087465 2634311
1.2633154 0.31145427 0.051625013 2107973
1.2652102 0.31415978 0.051509738 2634323
1.2668056 0.3157405 0.051802397 3028822
1.2541121 0.30365509 0.049628139 4081504
1.2563568 0.30560735 0.049382567 4477046
1.2576959 0.30831298 0.049638748 2371925
1.2596257 0.310155 0.050622761 397873
1.2527565 0.30469418 0.04828155 6382961
1.2540781 0.30736369 0.048187375 5266041
1.2556276 0.30984554 0.048472941 5134201
1.2508467 0.30645293 0.047401547 8422018
1.2521771 0.30826923 0.046996832 7106942
1.2533588 0.31017786 0.047899663 5265786
1.2517861 0.31226629 0.044956028 5984312
1.2524759 0.31548974 0.044526935 4869718
1.2508202 0.31405342 0.042449355 6909027
1.2509525 0.31636918 0.04264915 6512461
1.2500856 0.32014343 0.041603565 6905672
1.2491469 0.32115984 0.038703084 7430719
1.2499812 0.32338709 0.038504183 7168846
1.2420034 0.31627437 0.037177324 9602666
1.2439897 0.31832552 0.037122369 8813403
1.2453299 0.32063696 0.037514627 8418380
1.2472668 0.32317224 0.037874997 8089937
1.2484248 0.32494199 0.036840439 7827550
1.241451 0.31977829 0.037255406 9471337
1.2438014 0.32324472 0.033910215 8947332
1.2457874 0.32491073 0.034757018 9341569
1.2471708 0.32633415 0.035611391 8420464
1.2479603 0.33004192 0.035459518 7697509
1.2501242 0.33199671 0.034893155 6842203
1.2411807 0.3234953 0.033654571 9802385
1.2429154 0.3255727 0.033776999 9670792
1.2445295 0.32842377 0.034344077 9341568
1.2470958 0.33015585 0.033977628 8947577
1.2409842 0.32775864 0.033374906 10525839
1.2449939 0.33213818 0.033396363 9999749
1.2421036 0.33332375 0.028776765 10658466
1.2440896 0.33586752 0.028333068 9803413
1.2459282 0.33831134 0.028345764 8947846
1.2479897 0.34081763 0.028137445 8553085
1.2390335 0.3325713 0.027908206 10592673
1.2404337 0.33492735 0.028132439 10461087
1.2423686 0.33706105 0.028089166 10263708
1.244206 0.33944732 0.027993858 9803414
1.2455236 0.34190366 0.028029263 9474706
1.2476637 0.344358 0.027967989 8553085
1.2485795 0.34680656 0.028128862 8224377
1.2386194 0.33642846 0.027453899 10592673
1.2405851 0.33922526 0.027322054 10263708
1.2422659 0.34108812 0.02761662 10000535
1.2443395 0.34347257 0.02719903 9868948
1.2452314 0.34567234 0.026950717 9868950
1.2464594 0.34797975 0.026546001 8948360
1.3942156 0.40764654 0.072393417 4544382
1.3900514 0.40649801 0.071846724 3424368
1.3919935 0.40809995 0.072902679 3491435
1.395705 0.4123677 0.071543097 2766428
1.3864335 0.40562731 0.070595384 2963558
1.3881443 0.40699571 0.071645856 3950715
1.3897338 0.41004646 0.070628405 5199997
1.3925021 0.41108984 0.070723891 4607861
1.3944457 0.41411573 0.069634318 2439767
1.3765495 0.3967185 0.069083691 1646926
1.378963 0.39808911 0.069090962 1185859
1.3803068 0.40095836 0.068905354 1251384
1.3823247 0.40395725 0.06962359 989242
1.3841951 0.40644884 0.070178628 4870781
1.3862026 0.40860432 0.06919539 6448780
1.3881514 0.40978795 0.069674373 6910356
1.3900172 0.41298044 0.069333851 3756651
1.3921738 0.41441178 0.069709539 2833495
1.3647527 0.38520408 0.068683386 725043
1.3677287 0.38831282 0.06918776 2503755
1.3701551 0.39006424 0.06908536 3489896
1.3716276 0.39389676 0.068034947 3885426
1.3732767 0.39584458 0.068666518 3228011
1.3751148 0.39787871 0.069049418 2435929
1.3764623 0.40090191 0.06921649 987460
1.3789508 0.40297425 0.069237471 264744
1.3806248 0.40597594 0.068398654 3030114
1.3823502 0.407619 0.067936242 4279922
1.3836575 0.41096836 0.066843271 6582159
1.3863521 0.41230559 0.0678581 7635614
1.3598498 0.38176763 0.067264855 1714240
1.3623788 0.38553852 0.067565203 658495
1.3644905 0.38809818 0.068422198 1646905
1.3654327 0.39028537 0.068716884 2305343
1.3668772 0.39292651 0.067761421 5199213
1.369025 0.39454889 0.067686677 6186119
1.3712493 0.39733261 0.06716454 5264766
1.3727552 0.39970696 0.067076266 3882599
1.3746223 0.40141284 0.065625131 4014178
1.3765205 0.40494102 0.066230834 1976393
1.3784195 0.40658456 0.066522717 2767454
1.3800964 0.40927023 0.066542327 4149365
1.3821168 0.4110114 0.065780461 4677244
1.3837264 0.412817 0.065459132 5794956
1.3403659 0.36159462 0.067279816 395286
1.3442836 0.36702317 0.066931725 1452343
1.3459373 0.3691808 0.067106724 4808580
1.3478723 0.37184083 0.06682539 6910117
1.3505769 0.37472963 0.066514373 3162989
1.3524239 0.37693453 0.066762328 3028826
1.3551135 0.37985712 0.066468477 2239829
1.3568376 0.38201594 0.066798031 2305873
1.3586466 0.38434559 0.06692946 1845064
1.3600899 0.38662267 0.066624343 1712963
1.3616414 0.38853675 0.066851676 1185335
1.3636546 0.39152044 0.066049933 1580344
1.3653871 0.39398897 0.066136897 3291977
1.36712 0.39637494 0.065630078 5462380
1.3691862 0.39839166 0.065496683 6909063
1.371127 0.40116161 0.065076947 3752801
1.3725567 0.40369385 0.065285385 2634321
1.3744962 0.40541631 0.065276384 3819626
1.3761637 0.40788633 0.065005779 3755111
1.3783073 0.41049165 0.064720631 4216183
1.3805709 0.41185272 0.064598322 4084857
1.3358333 0.36041957 0.066082239 3949424
1.3381292 0.36200333 0.066777468 921906
1.3418905 0.36630416 0.066241145 593437
1.3437252 0.36898494 0.067137361 1715264
1.3447225 0.3711828 0.067313313 4411496
1.3471715 0.37339044 0.067573905 5463683
1.3491838 0.37617385 0.067213178 2765914
1.3496221 0.37931949 0.066576123 1645896
1.3522108 0.38091767 0.066383064 2436691
1.3542042 0.38401794 0.06586653 2371412
1.3563088 0.38614994 0.064923763 3094358
1.3581622 0.38804644 0.065019965 3423322
1.3598361 0.39051288 0.064931393 3357524
1.3614364 0.3931036 0.065187335 2304840
1.3635788 0.39552271 0.06512332 1713469
1.3650739 0.39775562 0.064137518 2305863
1.3670224 0.40009058 0.06376493 2042691
1.3688407 0.40241873 0.064156771 2043208
1.370546 0.40454066 0.06400001 2636636
1.3728088 0.40686816 0.064000964 4412790
1.3744895 0.40953857 0.063710809 4479354
1.3761988 0.41163492 0.063915491 4084855
1.3306468 0.35670483 0.064773977 65818
1.3320498 0.35854787 0.066105127 2042180
1.3336164 0.36102426 0.066564322 6580624
1.3361673 0.36372399 0.064898491 7040151
1.3378415 0.36560571 0.065472484 2105675
1.3387816 0.36800057 0.064986587 462120
1.3411463 0.37098145 0.065893412 593441
1.3471622 0.37841165 0.063477755 5330798
1.3487704 0.38023651 0.063784242 2765384
1.3501146 0.38275778 0.063960791 1580333
1.3522732 0.38495308 0.0638569 3027530
1.3539104 0.38761491 0.063851833 3817813
1.3560312 0.38935977 0.064231455 3883607
1.3575081 0.39230901 0.063229859 3621730
1.3593112 0.39431751 0.062642574 2898774
1.3616188 0.39678419 0.062332034 2174539
1.3631181 0.39948899 0.062841415 1385283
1.3647633 0.40159547 0.062960505 662336
1.3667195 0.40377665 0.062805772 926536
1.3687167 0.4059391 0.062580109 2044760
1.3708475 0.40868205 0.062651992 3622501
1.3727615 0.41047341 0.063093901 3624555
1.3229156 0.351017 0.064094782 6581404
1.3244548 0.35218167 0.064190507 4608900
1.3262702 0.35637206 0.063745737 658993
1.3285782 0.35772187 0.064766169 263963
1.329967 0.35961372 0.063657641 1383738
1.3320177 0.36291099 0.063395739 6383238
1.3342842 0.36503851 0.063692212 7765661
1.3360963 0.36757499 0.063935041 6646939
1.3380783 0.37063569 0.063905001 1514820
1.3398602 0.37221265 0.062883854 66582
1.3410697 0.37426013 0.06243813 395546
1.343035 0.37652296 0.062443376 2107187
1.3446488 0.37906343 0.062968493 2304826
1.3466074 0.38163155 0.063075066 1186097
1.3483179 0.38382763 0.062041759 660014
1.350557 0.38648182 0.06177175 858168
1.3519306 0.38872969 0.061807752 2174793
1.3542192 0.39111072 0.06152463 2899033
1.3557529 0.39375526 0.061260462 2701656
1.3576894 0.39581686 0.061581016 2832725
1.3593676 0.39798874 0.061344802 2634829
1.3609333 0.40037048 0.062085509 1713731
1.36339 0.40246212 0.061900973 859194
1.3163273 0.34686184 0.062061369 264
1.3187726 0.34937084 0.063095331 2502459
1.3207033 0.35145062 0.063854218 5266305
1.3220935 0.35397732 0.06352818 3487832
1.324396 0.35636944 0.063309968 1185335
1.3265443 0.35918218 0.063762307 1250863
1.3283434 0.36169046 0.062354267 2764345
1.3298876 0.36372757 0.062975466 6185591
1.3316268 0.36647403 0.062568784 7108251
1.3336279 0.36874026 0.062409163 6516886
1.33553 0.37107784 0.061756968 6187921
1.3369079 0.37369281 0.061330914 3884394
1.3390779 0.37581223 0.061494291 1317688
1.3409872 0.37835425 0.061614156 1185575
1.3424299 0.380337 0.061724365 856614
1.3443849 0.38303691 0.060685992 594221
1.3460246 0.38544232 0.061074495 1845321
1.3480268 0.38766611 0.060575604 1712707
1.350143 0.38992584 0.06050384 1252923
1.3516077 0.3925938 0.06013 2043460
1.3536738 0.39454716 0.060223162 2833493
1.3554485 0.39727032 0.060605049 2964051
1.3571732 0.39952475 0.061174989 2765130
1.3065467 0.33752108 0.061584234 1184555
1.3083948 0.33942133 0.062335491 4278879
1.3097138 0.34176242 0.062763989 4739691
1.311461 0.34309 0.062202811 4937078
1.3137691 0.34612292 0.061992407 1251900
1.3151423 0.34938216 0.062002659 132122
1.3175431 0.35145646 0.062070131 329742
1.3188287 0.35370123 0.061330676 1252132
1.3203895 0.35566127 0.061606288 2107449
1.3222444 0.35832715 0.061903715 132894
1.3247795 0.3605842 0.061403692 460566
1.326196 0.36306018 0.06118834 1711661
1.3280401 0.36555582 0.060751736 2504786
1.3300202 0.36720741 0.060307741 4938103
1.331333 0.36999297 0.060561657 6121095
1.3333988 0.37295443 0.060175061 4410738
1.3351111 0.37487441 0.060314536 4015977
1.3367302 0.37692422 0.060817182 2830413
1.338537 0.37942785 0.059797645 1579827
1.3404437 0.38200581 0.059650719 724513
1.3423526 0.38447791 0.059719265 660008
1.3447628 0.3865006 0.059785008 596285
1.3464875 0.38865942 0.0598737 2635858
1.3482158 0.39143795 0.059858263 2370896
1.3497325 0.39372802 0.059864581 1187643
1.3510612 0.3957203 0.060117483 2241612
1.352885 0.39759767 0.060023189 2964819
1.2906122 0.31949604 0.062407136 2633517
1.3020446 0.33752811 0.061181664 986670
1.3040528 0.33883917 0.060555279 2369590
1.3056662 0.34054625 0.061217546 4541531
1.3071576 0.34267598 0.061928749 4410981
1.3095609 0.34528702 0.061264515 5003379
1.3114326 0.34818465 0.06108129 4805493
1.3131087 0.35018599 0.060064673 3423064
1.3148831 0.3523621 0.060396552 593447
1.3165728 0.35460842 0.060545325 528684
1.3181944 0.35714555 0.060602188 2569042
1.3206265 0.35956287 0.059546351 1779783
1.3222687 0.36199009 0.059528589 397364
1.3237987 0.36447769 0.059459209 461351
1.3254011 0.36662251 0.059421897 1317938
1.3277861 0.36920738 0.058732867 2306629
1.3295153 0.37204361 0.058945894 5134709
1.3313522 0.37414682 0.058884799 6185610
1.3329983 0.37603867 0.058841348 4409204
1.3351405 0.37869179 0.058185875 3751516
1.3370662 0.3813976 0.058140755 2238013
1.3382177 0.38224405 0.058422685 1382444
1.2887875 0.32005328 0.061435103 1250338
1.2885888 0.32247949 0.059974015 263696
1.2908633 0.32419437 0.060537696 3160638
1.3006343 0.33735776 0.059121251 723995
1.3020611 0.33994597 0.05958879 2303020
1.3038318 0.34196562 0.059902191 4542557
1.3054368 0.34467667 0.060286641 5331314
1.3070045 0.34666735 0.059427261 6779287
1.309149 0.34918064 0.059303164 6120329
1.3109624 0.351803 0.059268475 4212322
1.3128707 0.35393065 0.059318423 988989
1.3142937 0.35646164 0.058472395 595255
1.3165252 0.35878044 0.058629692 2044506
1.318256 0.36114216 0.058355451 4148085
1.3204238 0.36354589 0.058343172 2896474
1.3222349 0.36536062 0.058138847 264490
1.3236095 0.3681277 0.057629585 395558
1.3256428 0.37066567 0.058100939 1450037
1.3276718 0.37277263 0.058414519 2307401
1.3294389 0.37603527 0.05849576 6185328
1.3312147 0.37917066 0.057916641 4999780
1.3326297 0.37860072 0.058030128 4868981
1.3343014 0.3811 0.057935238 2830135
1.26671 0.29786161 0.06038785 3686211
1.2690141 0.30082136 0.060269654 3948874
1.27123 0.303711 0.06001991 3355971
1.2757293 0.30971622 0.059810996 2960701
1.2786145 0.31259859 0.059812665 1118233
1.2798557 0.31523687 0.060186088 2369325
1.2811458 0.31747395 0.060005307 2830660
