# .PCD v0.7 - Point Cloud Data file format
VERSION 0.7
FIELDS x y z rgba
SIZE 4 4 4 4
TYPE F F F U
COUNT 1 1 1 1
WIDTH 1205
HEIGHT 1
VIEWPOINT 0 0 0 1 0 0 0
POINTS 1205
DATA ascii
1.2016193 0.56644297 0.3080416 1514289
1.1916287 0.5599882 0.30657879 1185059
1.1941687 0.56056774 0.30707431 1119265
1.1961149 0.56358224 0.30612192 1185582
1.1979797 0.56497598 0.30688447 1382704
1.1883672 0.55955803 0.30481601 1316645
1.1907501 0.55947745 0.30553982 1119524
1.1925154 0.56276035 0.30493096 1185841
1.1945078 0.56381881 0.30483225 1448757
1.1871961 0.55945098 0.30341664 1382440
1.1887606 0.56211841 0.30334216 1383221
1.1897879 0.56346482 0.30332664 1580345
1.1839129 0.56032956 0.30140558 1777199
1.1866068 0.56283402 0.30225605 1712187
1.1812222 0.56073022 0.29956254 1908527
1.1826673 0.5630939 0.29953986 2040384
1.1839498 0.56344092 0.30031878 2040639
1.1789941 0.56178814 0.29897517 1908523
1.1810844 0.56285042 0.29875544 2106177
1.1772664 0.56233209 0.29688099 1776935
1.057994 0.68905413 0.18168038 8881037
1.0608008 0.68916363 0.18300664 8027805
1.0545259 0.68762445 0.17967558 5460809
1.0569489 0.68921995 0.17968386 7039601
1.0582364 0.69123405 0.17982602 7107206
1.0503305 0.68616319 0.17962012 3684413
1.0527794 0.68831724 0.17840791 3421492
1.0560465 0.69069588 0.17755339 4739161
1.0459502 0.68285942 0.17755222 5985358
1.0484477 0.68511307 0.1770716 4998454
1.0503007 0.68782532 0.1766656 4012850
1.0539298 0.69194645 0.17762497 3420981
1.0553591 0.69508541 0.17693445 5000778
1.0479318 0.68867552 0.17571321 4079171
1.0519753 0.69362777 0.17462203 3552562
1.0564384 0.69767028 0.17403695 7435626
1.0425543 0.68509877 0.17430767 8683653
1.0451915 0.69147503 0.17283279 4869221
1.0446335 0.69384646 0.17266807 4803683
1.2817651 0.59600556 0.33630607 5068411
1.2801464 0.59617126 0.33555597 4805751
1.2007 0.56493604 0.31131303 1382437
1.2024972 0.56689864 0.31197023 1579559
1.2039012 0.5685792 0.31113371 1645613
1.2058392 0.5709852 0.31095538 1908275
1.207509 0.57214379 0.31043452 2236727
1.1964774 0.56307608 0.31042355 1185057
1.1986437 0.56589109 0.30954653 1448754
1.2004576 0.56762487 0.31007084 1514289
1.1911907 0.56147492 0.30893257 1119522
1.1935327 0.56187171 0.30921453 1185058
1.1949989 0.56520969 0.30822882 1317170
1.1967963 0.56664443 0.308869 1382447
1.1886857 0.56080145 0.30741224 1250853
1.1905003 0.56414986 0.30671901 1251635
1.1926384 0.56519514 0.30730152 1382963
1.1857338 0.56078982 0.30544689 1448232
1.1870599 0.56314254 0.30545935 1449012
1.18855 0.56482112 0.30570737 1580344
1.1832497 0.56155813 0.3044759 1711403
1.1848903 0.56427479 0.30418485 1843515
1.1866205 0.5652808 0.30511099 1777723
1.1794522 0.56232476 0.30157489 1974062
1.1803071 0.56256187 0.30264848 1908526
1.1827457 0.56512916 0.30273753 2106432
1.1779869 0.56328404 0.30113596 1908779
1.1802142 0.56517625 0.30150405 2106176
1.1766955 0.56360197 0.29993328 1842729
1.0595546 0.69037259 0.18593669 8552321
1.0563757 0.68740594 0.18406108 5461596
1.0582145 0.68941522 0.18343064 7961481
1.0523994 0.68645579 0.18309274 3618356
1.0545156 0.68803978 0.18292779 3816508
1.055725 0.6902433 0.18188661 5394516
1.0504709 0.68758172 0.18120372 3684158
1.0526447 0.68923104 0.1808438 3355191
1.0542055 0.69110888 0.18134385 3486773
1.0444596 0.68374407 0.17846212 7498600
1.0482941 0.68774706 0.17987844 4079174
1.0519116 0.69127607 0.17827177 3552315
1.0424865 0.68663621 0.17688003 8814979
1.0439827 0.69150388 0.17632717 5659248
1.0435517 0.6921196 0.17378056 5856625
1.2815349 0.5960319 0.3389549 5002619
1.1978667 0.56454468 0.31380275 1250852
1.1995193 0.56528687 0.31366715 1382435
1.2010353 0.56612408 0.3134205 1579556
1.2032359 0.56995034 0.31291088 1711408
1.1958981 0.56485808 0.3131142 1250850
1.1978753 0.56726223 0.31170559 1448494
1.199594 0.5689137 0.31244811 1448493
1.2010859 0.56988275 0.31351569 1710892
1.192248 0.56333983 0.31139272 1119521
1.1937976 0.5664202 0.31108975 1185579
1.1956155 0.56762201 0.3110995 1382960
1.1885353 0.56214058 0.31024683 1185060
1.1899939 0.56555545 0.30899072 1185841
1.1919155 0.56661713 0.30982602 1317170
1.1847298 0.56207132 0.30820099 1448232
1.1865907 0.56370866 0.30833623 1382960
1.188143 0.56634611 0.30829594 1514552
1.1824849 0.56270635 0.30695668 1711147
1.184376 0.56565452 0.30657083 1712186
1.185479 0.56636178 0.30712646 1843259
1.1795914 0.5642153 0.30532163 1908270
1.181693 0.56648898 0.3050898 2040638
1.176247 0.5649181 0.30314484 1908521
1.1776428 0.56425518 0.30347285 1974315
1.1791898 0.56766516 0.30404136 2040638
1.0556858 0.6876595 0.18891209 5723994
1.0577252 0.68844712 0.18761855 8486788
1.0547979 0.68806702 0.18647888 5131596
1.0519232 0.68565762 0.18497714 4209971
1.0521886 0.68987894 0.18502411 3289909
1.0548089 0.69151628 0.18410474 3422008
1.0505173 0.68773991 0.18344489 3618880
1.0463539 0.68795723 0.18190497 4672097
1.048124 0.68935573 0.18236756 3882320
1.044649 0.69231272 0.17917442 5132902
1.0427353 0.69129747 0.17894655 6120054
1.2730672 0.59748161 0.34052265 10988729
1.1980672 0.57045186 0.31523913 1513773
1.1909814 0.56464887 0.3133519 1185058
1.1927001 0.56673002 0.31341729 1316905
1.1942971 0.56925112 0.31332189 1448497
1.1960807 0.57005703 0.31423613 1316651
1.1873631 0.56393349 0.31218928 1185060
1.1883276 0.56604505 0.31180617 1185324
1.1903008 0.5682689 0.31191248 1317170
1.1829157 0.56417727 0.30989483 1514025
1.1844614 0.56497455 0.31091136 1382441
1.186568 0.56777316 0.31050548 1514295
1.1879563 0.56893396 0.31173497 1645369
1.1814457 0.56433082 0.3088614 1645610
1.1827314 0.56707871 0.30870336 1777721
1.1842694 0.56800771 0.30922917 1777467
1.1791909 0.56562746 0.30824101 1842732
1.1813843 0.56815195 0.3074657 1975101
1.1765096 0.56614673 0.30617279 1908524
1.1790442 0.56837147 0.30653784 2040894
1.0535533 0.68648052 0.19142658 3947054
1.0554845 0.68713009 0.19122919 5066577
1.0573883 0.68893111 0.19169191 8158078
1.0538106 0.68671834 0.18915117 4078646
1.0535356 0.69018805 0.18885854 3354926
1.0543612 0.69137895 0.18877304 2895668
1.0485191 0.68534863 0.18700811 4866608
1.0525857 0.68958503 0.18806851 3355184
1.0459703 0.68737638 0.185664 5000020
1.045787 0.69246757 0.18448538 4737630
1.1962112 0.57201266 0.31683284 1185326
1.1900589 0.56658232 0.31560317 1250596
1.1914043 0.56728995 0.31599614 1250341
1.1926699 0.57049561 0.31546137 1316401
1.194468 0.57156169 0.31660852 1381422
1.1856017 0.56532025 0.31333706 1316388
1.1872678 0.56673312 0.31523755 1250085
1.1897243 0.56972975 0.31407779 1250865
1.1910548 0.57148826 0.3149479 1382713
1.1834059 0.56640649 0.31324491 1382182
1.1858441 0.569152 0.31256792 1382965
1.1871983 0.57035327 0.31349778 1448248
1.1796682 0.56659853 0.31055868 1711404
1.1809638 0.56711751 0.3116174 1645360
1.1833308 0.56963181 0.31165576 1711929
1.1775298 0.56768227 0.30997312 1974062
1.1795772 0.56965125 0.30902147 1909566
1.1808817 0.57049215 0.31084037 2040893
1.1759503 0.56785178 0.30863747 1974060
1.1782982 0.57010972 0.30882525 2106689
1.1793225 0.5717063 0.30959418 2106944
1.0570412 0.6899901 0.19428813 7763322
1.0586948 0.69214761 0.19446313 7173000
1.0533419 0.68657547 0.19357044 3946546
1.0551953 0.68821949 0.19396046 4605768
1.0567279 0.69190747 0.19469482 4739424
1.0603836 0.69466615 0.19328225 8159387
1.0461831 0.68607521 0.19149616 5529465
1.0443016 0.69231534 0.18708357 5461614
1.1896999 0.5683533 0.3175627 1447466
1.1913531 0.57285821 0.31785762 1909560
1.1938089 0.57325858 0.31797266 1120824
1.1856492 0.56840062 0.31675974 1645356
1.1878762 0.57032597 0.31690127 1580079
1.1890846 0.57259309 0.31666648 1844028
1.1821805 0.56824636 0.31464711 1645610
1.1837673 0.56949854 0.31569049 1908529
1.1857946 0.5721513 0.31531325 1975355
1.1872396 0.57312095 0.31728616 2371395
1.1799787 0.56920213 0.3142103 2171695
1.1824472 0.57149446 0.31391865 2238525
1.1838617 0.57290339 0.31548846 2239041
1.1767545 0.56890881 0.31143758 2171442
1.1777682 0.56985694 0.31203908 2303288
1.1800816 0.57207441 0.31255019 2567489
1.1751782 0.57017827 0.31068015 2368562
1.1762629 0.57107174 0.31164321 2698560
1.1774795 0.57259202 0.31226039 2830921
1.0567744 0.68910933 0.1992684 7171180
1.0588725 0.69024956 0.19892591 8486531
1.0531867 0.6861546 0.19682488 3749164
1.0560762 0.68839794 0.19726494 5855320
1.0568967 0.69008708 0.19851422 4210762
1.1903112 0.57430971 0.32029331 2633282
1.1847315 0.57008004 0.31830668 2434607
1.1857325 0.57094765 0.31920046 2369072
1.1885542 0.57438505 0.3190951 2435646
1.1824664 0.57083964 0.31795979 2368816
1.1849271 0.5740639 0.31766534 2304061
1.186408 0.57439101 0.31817219 2369853
1.1789062 0.57154578 0.31573594 2631985
1.1811541 0.57199043 0.31627107 2369848
1.1823127 0.57383567 0.31662515 2369854
1.1767427 0.57163835 0.31478247 2697783
1.1789134 0.57402253 0.31464186 2699075
1.1748451 0.57207704 0.31361842 2960952
1.1774309 0.57362652 0.31356716 2699589
1.0526397 0.68673319 0.20231926 3815216
1.0556324 0.68819714 0.20196444 5263693
1.0570755 0.69059879 0.20017442 4147548
1.0530312 0.68710011 0.1998089 3749162
1.0546054 0.68851411 0.19944453 3684918
1.045905 0.68390644 0.19754913 6054008
1.0511763 0.69042456 0.19989383 3420990
1.0459344 0.68662918 0.19570109 5858683
1.1849775 0.57279217 0.32154483 2039594
1.1873063 0.57569802 0.32187578 1842232
1.1884323 0.57708299 0.32182762 1711417
1.1819144 0.57220054 0.32028574 1973548
1.1833736 0.57487833 0.32012463 1711155
1.1852139 0.57626808 0.32052928 1842489
1.1792663 0.5726738 0.31882802 2039595
1.1815987 0.57579172 0.31889173 1908537
1.1763594 0.57331157 0.3175894 2236971
1.1778595 0.57548714 0.3169772 2171965
1.1790609 0.57602322 0.31776083 2237500
1.1745176 0.5736388 0.31562996 2500400
1.0563139 0.68757236 0.20662811 5789529
1.0581591 0.69011343 0.2056343 7894398
1.0535743 0.68709266 0.20454124 3815469
1.0565382 0.68881452 0.20399255 6250334
1.0491487 0.69010532 0.20013234 3749959
1.1842128 0.57438993 0.32440466 1250084
1.1869559 0.57878685 0.32381278 1184813
1.180667 0.574031 0.32308862 1184546
1.1823599 0.57684219 0.32143262 1185330
1.1838365 0.57764512 0.32248503 1250866
1.1782098 0.57398105 0.32129315 1447461
1.1802249 0.57709277 0.32091761 1382452
1.1817605 0.57820487 0.32213643 1185584
1.1752405 0.57452774 0.32063898 1579304
1.1769817 0.57545161 0.31973904 1645362
1.1783092 0.57761824 0.32041317 1514296
1.1740912 0.57509661 0.31848529 1908009
1.0578165 0.68940681 0.21049675 7236981
1.0533087 0.68714321 0.20788521 3815214
1.0551366 0.68857217 0.20848274 4342080
1.0579903 0.6899457 0.20804122 7894397
1.0522063 0.68754745 0.2064338 3881003
1.1825721 0.57512736 0.32637036 1053215
1.1861999 0.5799818 0.32654771 1053737
1.1791754 0.57493246 0.325156 1053472
1.1807113 0.5750922 0.32601649 1053216
1.1828579 0.57928771 0.32491487 1053997
1.1845747 0.57988065 0.32581735 987942
1.1771567 0.57515681 0.32409215 1119011
1.1794699 0.57869458 0.32351196 1120049
1.1811364 0.57944703 0.32390898 1185841
1.1741207 0.57583147 0.32286364 1316388
1.1769792 0.57978654 0.32237592 1317431
1.1737309 0.57657003 0.32064211 1447975
1.0540341 0.68698812 0.21325779 3355692
1.056465 0.68897021 0.2119655 5526871
1.0591084 0.69353497 0.21199477 8421253
1.0531025 0.68752193 0.2111668 3684144
1.1823177 0.57670617 0.32898271 1053470
1.1846594 0.58109391 0.3289158 1119270
1.1782819 0.57628083 0.32747099 1053216
1.1801102 0.57686895 0.32881945 1053215
1.1815891 0.58065593 0.32754189 1053996
1.1833317 0.58111334 0.32759216 1119529
1.1757712 0.57646799 0.32660505 1119265
1.1780787 0.58002281 0.32591164 1185584
1.1798352 0.58004725 0.32624948 1120047
1.1730808 0.57676065 0.3251197 1381924
1.1744833 0.57619494 0.32444119 1316131
1.1762304 0.58003539 0.32445648 1382966
1.055672 0.68769741 0.21626592 4211005
1.0574452 0.68925643 0.21569091 6315879
1.0589796 0.69212425 0.21572006 8420996
1.0510396 0.68584746 0.21587437 4209715
1.0538908 0.68703544 0.21545714 3421489
1.0499822 0.68557847 0.21361065 4538424
1.0518599 0.68738836 0.21321204 4078127
1.0476923 0.69056308 0.21150821 4211288
1.1803217 0.57846671 0.33140036 1119008
1.1822397 0.57897955 0.33194318 1185056
1.1837922 0.58271718 0.33159903 1382706
1.1776766 0.57720637 0.32939932 1053471
1.1775873 0.57827908 0.33078897 1053472
1.1804578 0.58179808 0.33003867 1185583
1.1824358 0.58253706 0.33075559 1185324
1.1746612 0.57796705 0.32898527 1119008
1.1769922 0.58114147 0.32793671 1185584
1.1782951 0.58157527 0.32892802 1119789
1.171326 0.57796496 0.3271392 1382179
1.1725026 0.57802057 0.32799211 1316131
1.1754265 0.5819478 0.32776052 1251379
1.0571089 0.68896997 0.22108582 5329238
1.0587741 0.69104934 0.22045848 7960958
1.0516483 0.68599224 0.22002569 4078383
1.0542245 0.68740433 0.21878698 3618353
1.0572571 0.68929368 0.21883786 5855325
1.0587755 0.6920923 0.21792632 8354947
1.050679 0.68647647 0.21775833 4341046
1.047839 0.68559533 0.21671247 4735807
1.1794977 0.57961798 0.33400148 1184544
1.181535 0.58014917 0.33435312 1184800
1.182476 0.58392668 0.33330861 1316912
1.1752238 0.57932574 0.33216065 1053217
1.1772437 0.57919407 0.33321238 1118752
1.1791506 0.58312678 0.33249748 1185583
1.1811006 0.584198 0.33301085 1053991
1.1729205 0.57917899 0.3312192 1119010
1.1758313 0.58249593 0.33075094 1120048
1.1768801 0.58291614 0.33119169 1251118
1.1710622 0.57867336 0.32861173 1316645
1.1701068 0.57998455 0.33018991 1382181
1.1738846 0.582802 0.32944331 1251378
1.0586593 0.68845367 0.22594476 7697530
1.0533538 0.68544912 0.22449067 3749425
1.0552313 0.68720961 0.22278827 3552561
1.0578564 0.68872094 0.22337687 6381669
1.0490294 0.68442023 0.22196069 4735549
1.0515453 0.68490827 0.22264761 4209716
1.0534767 0.68665063 0.22194484 3618352
1.0479329 0.6850667 0.22019917 4933189
1.0458672 0.68774134 0.2167424 7039335
1.045595 0.68885005 0.21838766 7433584
1.0463133 0.69042456 0.21813232 5527412
1.0457357 0.69175977 0.21530157 5856376
1.1783071 0.58051026 0.33632129 1119264
1.1803722 0.5815872 0.3367759 1119265
1.1818018 0.58524352 0.33622813 1382703
1.1747372 0.57983512 0.33373666 1119008
1.1755444 0.58037782 0.33597213 1119264
1.1780636 0.58444703 0.33525857 1185325
1.1799588 0.58485466 0.33525464 1185582
1.1726836 0.58030272 0.33408079 1053473
1.1744261 0.58370179 0.33333305 1119790
1.1758012 0.58423173 0.3337625 1185582
1.1696997 0.58062255 0.33249918 1381927
1.1730978 0.58415604 0.33206734 1251377
1.0602329 0.68619072 0.23126107 8289668
1.0577198 0.68530047 0.22935468 5593178
1.0602551 0.68707812 0.22856992 8420993
1.0549574 0.68513858 0.22928047 3289389
1.0560198 0.68697166 0.2263003 3947579
1.0493511 0.68479288 0.22669017 4735553
1.0519533 0.68570781 0.22577453 4143925
1.0465835 0.68336618 0.22508785 7104102
1.0494511 0.68528157 0.22446281 4735551
1.046453 0.69077504 0.2212348 5461619
1.044309 0.6917119 0.21962908 6514560
1.1762958 0.58130312 0.33934 1184801
1.1785693 0.58172679 0.33920392 1184800
1.1799668 0.58630466 0.33807343 1316913
1.1732194 0.58122522 0.33781663 1053472
1.1743611 0.58090353 0.33691734 1119264
1.176542 0.58541316 0.33719769 1185582
1.1784618 0.58608234 0.33793244 1185068
1.1706659 0.58135647 0.33567905 1119266
1.1731724 0.5847944 0.33589551 1185326
1.1746198 0.58529699 0.33645925 1251119
1.1683179 0.58174622 0.33543244 1381927
1.1712818 0.58477825 0.33469987 1251379
1.0583886 0.68506515 0.23256555 6777710
1.0600442 0.68699843 0.2330865 8355200
1.0566019 0.68583322 0.232178 3750973
1.052291 0.68582654 0.2301468 4078389
1.0547943 0.68616128 0.23089832 3289394
1.0491776 0.68534708 0.22864023 4932164
1.051048 0.68591738 0.22844973 4472124
1.0435632 0.68141448 0.22686091 9671068
1.0456785 0.68360466 0.22712666 8354685
1.0473435 0.68557227 0.22739512 5459282
1.0479593 0.69022375 0.22602794 4278114
1.0464307 0.69209862 0.22392836 5395826
1.175881 0.58277571 0.34210369 1185055
1.1784966 0.58712852 0.3404083 1251374
1.172263 0.58182442 0.34064832 1119265
1.1738713 0.581985 0.34069961 1184801
1.1758571 0.58643675 0.33967471 1251118
1.1773475 0.58743012 0.34027806 1185065
1.1696929 0.58245087 0.33883232 1119265
1.1719235 0.58604836 0.33864838 1316911
1.1735569 0.58615112 0.33885944 1251119
1.167237 0.58346325 0.3369422 1381927
1.1703789 0.58604693 0.33734858 1251379
1.0600097 0.68586695 0.23576391 7960959
1.0573992 0.68597329 0.23624322 5066833
1.0596715 0.68789172 0.23719418 7631737
1.0597917 0.69155324 0.23531818 6381928
1.0537796 0.68574488 0.23461336 3683632
1.0489089 0.68578345 0.2327691 4866884
1.0517118 0.68604374 0.23287788 4209976
1.0481989 0.68553567 0.23090717 5130309
1.0454476 0.68586695 0.23079124 8486016
1.0480465 0.69034362 0.22818619 4343650
1.0467768 0.69315058 0.22674721 5198444
1.0444438 0.692523 0.22655651 6383490
1.1738951 0.58367395 0.34389001 1184801
1.1766398 0.58831692 0.34353089 1053479
1.1709998 0.58293152 0.34225023 1119265
1.1717361 0.58356386 0.34440947 1184801
1.1743182 0.58760113 0.34215295 1185582
1.1764656 0.58806449 0.34271792 1185325
1.168555 0.58355421 0.34140617 1119265
1.1703784 0.58678555 0.3407757 1185583
1.1721845 0.58718669 0.34134546 1185582
1.1662841 0.58336586 0.33905256 1447718
1.1653152 0.58454484 0.34044403 1447718
1.1684422 0.5868212 0.33971894 1316916
1.0577722 0.68628752 0.23977846 5461847
1.0594676 0.68785983 0.23940042 7237237
1.0542092 0.68583298 0.23944697 3486508
1.0559578 0.68651831 0.23950523 2961967
1.0602101 0.69167423 0.2382414 6514036
1.0506054 0.68472207 0.23553959 4669498
1.0524164 0.68722457 0.23671764 4078647
1.0551193 0.68828797 0.2364662 3224367
1.0574123 0.69253075 0.2357491 4210244
1.0451255 0.68145227 0.23677608 9275791
1.0468771 0.68491876 0.23542881 6644066
1.0487503 0.68499136 0.23534924 4998468
1.0505006 0.68741465 0.23653421 4538177
1.0471069 0.6851657 0.23301506 5985879
1.0472424 0.68976557 0.23336595 5527409
1.0451756 0.68697548 0.23243651 8683909
1.0471196 0.69005507 0.23124203 5264237
1.1733021 0.58471537 0.3462933 1185056
1.1766131 0.58998978 0.34559828 1250856
1.1701921 0.58410227 0.34424728 1184800
1.1707535 0.58474755 0.34573174 1185056
1.1732354 0.58893979 0.3447929 1185581
1.1749399 0.5894658 0.34502998 1251117
1.1679447 0.58506715 0.34387437 1119265
1.1696496 0.5879963 0.34338588 1185581
1.1713049 0.58856106 0.34374365 1185582
1.1649599 0.58563781 0.34262866 1447461
1.1680195 0.58791763 0.34207985 1185844
1.0593202 0.68736172 0.24402103 6776685
1.0574595 0.68748391 0.24281046 4803917
1.05937 0.68823981 0.24146825 7039604
1.0604668 0.69276857 0.24075574 7369591
1.0527334 0.68626153 0.24153996 4012594
1.05565 0.68803632 0.24118483 3027246
1.0568435 0.69155169 0.24056631 2763310
1.0585043 0.69244009 0.24000517 5197908
1.0606005 0.69513339 0.2415365 7961483
1.0513027 0.6871227 0.23881158 4472634
1.0435153 0.67935455 0.2376802 9868443
1.0485523 0.686746 0.23781747 5261645
1.0475813 0.68962735 0.2376968 5461615
1.0496513 0.69105041 0.2374509 3948885
1.047408 0.6892134 0.23575294 5527409
1.1716557 0.58602428 0.3487798 1250592
1.1681544 0.58646864 0.34770095 1184800
1.1702397 0.58646429 0.34751979 1119522
1.1714101 0.58998418 0.34711397 1185581
1.1733133 0.59083855 0.34757704 1119272
1.1660404 0.58605409 0.34607175 1184801
1.1680624 0.58888412 0.34560376 1185582
1.1698933 0.58968091 0.34622383 1316914
1.1638212 0.58664322 0.34489149 1447717
1.166597 0.58939636 0.3443765 1251634
1.0598688 0.68911016 0.24646646 7368568
1.0612429 0.69208741 0.24633616 7369087
1.0559525 0.68845677 0.2448374 3422258
1.057945 0.69209135 0.24562106 3487545
1.0573545 0.69208932 0.24328199 2764078
1.0584916 0.69489086 0.24194083 5659230
1.0498242 0.68681931 0.24118155 4670016
1.0498536 0.69100726 0.24167079 3817045
1.0478023 0.69014966 0.23985511 5198444
1.0497941 0.69087839 0.23965091 3817304
1.0434875 0.70132291 0.23293167 6843272
1.1707945 0.58668309 0.3502236 1250847
1.1727065 0.59059268 0.35104156 1053735
1.1662843 0.58709013 0.34999374 1185055
1.1686172 0.58809853 0.35045066 1185059
1.1705264 0.59083498 0.34976619 1185325
1.1736944 0.59215212 0.35008115 1316647
1.1652808 0.58708459 0.34882057 1119265
1.1669908 0.59018755 0.34804595 1185585
1.1685209 0.59090042 0.34864491 1317169
1.163038 0.58775628 0.34740964 1382180
1.0589042 0.68829411 0.2496573 6118501
1.0604917 0.69027495 0.25012276 8223622
1.0564513 0.68793428 0.24906266 3618872
1.0552635 0.68873519 0.24730545 3092528
1.0502604 0.68972862 0.24656254 3817301
1.0474859 0.69165802 0.24207768 5198446
1.1686201 0.58859801 0.35381907 1251105
1.1713673 0.59177053 0.35351831 1250859
1.1659153 0.58825594 0.35216796 1185057
1.1673738 0.58952188 0.35271999 1185318
1.1692331 0.5917021 0.35206068 1185324
1.1636757 0.58824933 0.35122311 1250594
1.165808 0.59113842 0.35051665 1251377
1.1673889 0.59194392 0.35106426 1317170
1.1616131 0.58879268 0.35017109 1382434
1.1645674 0.59086561 0.34921408 1316916
1.0603251 0.68752253 0.25625923 7763840
1.0576679 0.68753725 0.25404429 4079171
1.0595236 0.68901926 0.25258061 6710640
1.0567795 0.68808144 0.25172859 3421234
1.0504489 0.68988919 0.24863106 3817301
1.0484881 0.68997014 0.24678743 5001579
1.1711613 0.59447169 0.35590655 1579311
1.1645269 0.58932555 0.35515314 1250850
1.1664178 0.59017473 0.35544676 1250852
1.1681042 0.59293419 0.35459542 1251117
1.1695269 0.59393466 0.35565475 1447981
1.1633203 0.58879566 0.35366049 1250594
1.1652598 0.5924294 0.35299143 1251375
1.1658801 0.59316891 0.35389835 1382707
1.06021 0.68728727 0.25836197 7500925
1.0566815 0.68582785 0.25766787 3157805
1.0583923 0.68701017 0.25729692 4145226
1.0510666 0.68878901 0.25161397 3488339
1.1704125 0.59528911 0.35842958 1579567
1.1718576 0.59698439 0.35900557 1580339
1.1635582 0.59080255 0.35707015 1316386
1.1653194 0.59176171 0.35777992 1381922
1.166991 0.59446758 0.35709897 1316656
1.1651951 0.59256864 0.35548833 1185323
1.1651069 0.59473407 0.35589063 1382708
1.0581045 0.68587554 0.26280648 3224892
1.0594288 0.68670201 0.26122448 5856099
1.0564153 0.68571723 0.26060379 3157801
1.1707429 0.59822428 0.36053854 1056058
1.16401 0.5936327 0.35948029 1315619
1.1656629 0.59433311 0.36057016 1053217
1.1673057 0.59714448 0.35920113 791337
1.1703975 0.59920859 0.36009473 990006
1.1641734 0.596578 0.35846934 726064
1.1658919 0.59859568 0.35979623 267047
1.0579638 0.68542522 0.26511675 2830133
1.0598303 0.68679142 0.26606375 6514284
1.0634265 0.69063789 0.26574695 7172475
1.0562611 0.68532097 0.26414871 3158318
1.0613232 0.69158566 0.2653622 5725029
1.0540566 0.68707252 0.26412654 4012857
1.0487785 0.68997133 0.25814593 5132908
1.0446883 0.69056159 0.25791678 6909579
1.1629765 0.59424937 0.36110017 1316905
1.1650596 0.59667385 0.36232722 988965
1.166865 0.59952635 0.36092854 1581634
1.1683053 0.60058719 0.36186796 1386575
1.1627579 0.59665692 0.36217082 2106423
1.1643407 0.59924185 0.36081675 2173515
1.16619 0.60145223 0.36187747 4344690
1.064608 0.68435693 0.27224725 8948378
1.06275 0.68403089 0.27245152 7238020
1.0589197 0.68436128 0.27005786 4475214
1.0635266 0.69072855 0.26768392 7896462
1.0561134 0.68372983 0.26927477 3355181
1.0580631 0.6846962 0.26779419 2895923
1.0616004 0.69045007 0.26783267 6120051
1.0584269 0.69141251 0.26652417 3225413
1.0472929 0.68822908 0.26280618 6119548
1.0488265 0.69077456 0.26201928 4935785
1.044892 0.69046879 0.2601099 6843272
1.1626433 0.59860754 0.36326259 3817025
1.1631144 0.60171312 0.36294156 4606531
1.1642468 0.60335279 0.36260796 6251111
1.0594134 0.68556285 0.27372429 5133654
1.0637628 0.69059932 0.27413118 8818078
1.0584044 0.68480563 0.27257454 3685952
1.055671 0.68487012 0.27196765 3552304
1.047707 0.68563205 0.26565802 5987961
1.0475256 0.68877208 0.26676992 6054012
1.0489269 0.69200754 0.26475462 4869988
1.1620889 0.60390854 0.36560404 6710867
1.1633855 0.60683066 0.36561197 9408148
1.1612393 0.60439014 0.36363778 4934454
1.1628382 0.60574615 0.36355358 7631724
1.0608357 0.68583435 0.27779412 5592930
1.0575373 0.68335438 0.27756435 2764332
1.0592835 0.68494725 0.27714145 4475208
1.0609055 0.68682992 0.27531743 6052966
1.0637286 0.69165361 0.27579767 8818333
1.0554128 0.68468225 0.27626976 3683891
1.0474917 0.68982655 0.26843637 6645633
1.0490755 0.69198251 0.26797485 5658981
1.1621435 0.60550463 0.36750561 8355200
1.160383 0.60767996 0.36633927 6842471
1.0626296 0.68536115 0.28239059 8027526
1.0573621 0.68281597 0.2807427 2960940
1.0598068 0.68535626 0.28103828 4540234
1.063315 0.69494581 0.27660468 8620955
1.0490301 0.69480407 0.2709893 4803941
1.1609839 0.6076535 0.36990273 8421776
1.1590664 0.60995585 0.3678368 7368550
1.1593421 0.61123013 0.3689504 8749961
1.060505 0.68544644 0.28498751 4672083
1.0623045 0.68601549 0.28488335 7764097
1.0659714 0.69286895 0.28345159 10132379
1.0558864 0.68408889 0.28310853 3486508
1.0576587 0.68635607 0.28341159 3224110
1.0495615 0.69181955 0.27624869 5067113
1.0481472 0.69286174 0.27356526 6382715
1.1582397 0.6096921 0.37109107 7960694
1.1567588 0.61114526 0.36989328 6250315
1.0638527 0.6843819 0.29068011 8158848
1.0612174 0.6845879 0.28941274 5593442
1.0621963 0.68567836 0.28806174 7698305
1.0585945 0.68512529 0.28697282 2960938
1.0545499 0.68476903 0.28569621 4011570
1.056546 0.68657672 0.28632161 3289642
1.0509543 0.68887138 0.28372318 4475483
1.1597517 0.61250895 0.37422836 9541015
1.155593 0.60954511 0.37392116 5396566
1.1569602 0.61014205 0.3734715 7040366
1.1581266 0.6117577 0.37450236 8685707
1.1538326 0.61025488 0.37309098 2569026
1.0618945 0.68197727 0.29517373 6449265
1.062814 0.6840812 0.29260129 7566715
1.0583162 0.68413675 0.291334 2829096
1.0600939 0.68442714 0.29146859 3290687
1.0543493 0.68579161 0.28844148 3880759
1.0486819 0.68500638 0.28753212 11250602
1.0511646 0.68783224 0.2867192 4146523
1.0501608 0.68916011 0.28440639 4343647
1.0494248 0.69238591 0.28158826 4475497
1.1554885 0.61235821 0.37599725 7304570
1.1578673 0.61420345 0.37565595 9475222
1.1538365 0.61176872 0.37456363 2504507
1.1451486 0.61046028 0.37295726 7699586
1.0633574 0.68221039 0.29916063 7238007
1.0502256 0.66640782 0.30087298 10593192
1.061769 0.68236637 0.2971032 6054760
1.0624962 0.68277025 0.29799667 6580589
1.0592706 0.68285799 0.296213 2764336
1.0571718 0.68388331 0.29432714 3223595
1.0609552 0.69090939 0.29226959 2636638
1.0528433 0.68732297 0.2913363 3750213
1.0485123 0.68634164 0.28978622 9211287
1.0513544 0.68804193 0.28936872 3422000
1.046728 0.68473709 0.28754252 12040119
1.0464131 0.68747473 0.2886543 11513518
1.048759 0.68979967 0.28667927 6844033
1.1522937 0.61026913 0.3786011 5132861
1.1539077 0.61339641 0.37722263 6909035
1.1548394 0.61463881 0.3786729 8949398
1.1525893 0.61521327 0.37850943 8158331
1.1535252 0.61602008 0.37714809 8882062
1.1452694 0.61039519 0.37473524 6317941
1.0492431 0.66385293 0.30205524 10461608
1.0630748 0.68383169 0.30152848 6777462
1.066252 0.68768084 0.30190951 9344153
1.0589697 0.68320584 0.30000514 2698030
1.0613799 0.68346405 0.30050519 5133917
1.0560156 0.68261534 0.29862809 3880757
1.0578632 0.68247288 0.29875606 3026219
1.056095 0.68325996 0.29655969 3814963
1.0528972 0.6859383 0.2952798 3881030
1.0498135 0.68582118 0.29530871 8092280
1.0519917 0.68733263 0.2926628 4078388
1.0482979 0.68625116 0.29219535 9934744
1.0496411 0.68868589 0.29184851 10198184
1.0459752 0.68827832 0.29114336 10461091
1.1515341 0.61279434 0.38061833 6579035
1.1518784 0.6144309 0.38141713 7698307
1.1436076 0.61069876 0.37812144 6121085
1.0664041 0.68802714 0.30580398 9409944
1.0618392 0.68482602 0.30426148 5067357
1.0640895 0.68810165 0.30366921 7571096
1.066056 0.68970811 0.30316716 9278617
1.0585237 0.68361884 0.30253005 2698025
1.0611913 0.68427175 0.30233061 4804437
1.0619996 0.6880393 0.30267274 2967136
1.0558703 0.68288708 0.30048147 3881014
1.0557853 0.68460417 0.30205765 3946808
1.059654 0.68987525 0.30091408 857642
1.0516012 0.68492794 0.29937285 4736581
1.0519071 0.68545985 0.2980105 4868699
1.0515072 0.68721968 0.29874906 5660286
1.0477967 0.68706328 0.29470959 11052970
1.1481359 0.61170077 0.38458306 3882300
1.1500533 0.61265278 0.38484204 6974051
1.151376 0.61478388 0.38323876 8487550
1.1469474 0.61167383 0.38322848 3028293
1.1489038 0.61347008 0.38191012 4212029
1.1494002 0.6158511 0.38243911 6645592
1.1436349 0.61155897 0.37954602 3819369
1.1434261 0.61470836 0.38051951 2044254
1.1413651 0.6137048 0.37985212 6910067
1.0641277 0.68411368 0.31047761 7830152
1.0634615 0.68390083 0.30868146 6711670
1.0644946 0.68814015 0.30770952 8030616
1.0666633 0.68807709 0.30868199 9410200
1.060167 0.68370914 0.30719405 2961966
1.0625455 0.68459076 0.30634493 5790310
1.0630207 0.68761218 0.30654728 4742516
1.0591142 0.68416727 0.30461642 2369318
1.0601803 0.68897939 0.30544621 660776
1.0542839 0.6863451 0.30449581 3159374
1.0599866 0.68981403 0.30315587 660776
1.0519558 0.68500847 0.30125836 4803159
1.0523466 0.68686551 0.30209863 4738145
1.1489955 0.61255705 0.38750327 7040099
1.1467741 0.61227757 0.38648245 4014400
1.1482493 0.61285514 0.38579321 5592654
1.1445394 0.61244977 0.38472354 2897999
1.1428787 0.6148901 0.3828806 1848664
1.1406598 0.61583316 0.38177794 5266290
1.067169 0.68640524 0.31428659 9409944
1.0631115 0.68411589 0.31245059 5791080
1.0658956 0.68676698 0.31228846 8556440
1.0598981 0.68358266 0.31114101 2763557
1.0623606 0.68445283 0.31041881 4803671
1.0635288 0.6877532 0.3100079 5334395
1.0589736 0.68321991 0.3084833 2500646
1.0605037 0.6879521 0.30885398 792358
1.0525247 0.68655765 0.30449939 4475489
1.1454203 0.61491346 0.38743332 4211518
1.1462125 0.6165874 0.38825369 6710879
1.1414917 0.61664271 0.38500771 2176096
1.1378198 0.6159268 0.38287422 9146513
1.1387103 0.61649978 0.3842521 5990271
1.1359794 0.61730891 0.38253817 9343890
1.0637982 0.68397391 0.31616989 7041402
1.0670867 0.68762469 0.31597367 9344407
1.0619755 0.68351203 0.31657481 2896444
1.0630753 0.68500119 0.31433499 4871525
1.065214 0.68698072 0.3152926 8096406
1.0566747 0.68333769 0.31429636 3881009
1.0591257 0.68343359 0.31376588 2894631
1.0615673 0.68684429 0.31302404 1582907
1.0585674 0.68834758 0.31013337 2106415
1.0530822 0.68607306 0.31114802 3685203
1.0545021 0.68587404 0.31121302 3028048
1.1443728 0.61823416 0.3897655 6250331
1.1454877 0.61906397 0.3892853 7763576
1.1380718 0.61576772 0.38765451 2964826
1.1397102 0.61689961 0.3867889 1716313
1.1420553 0.6191377 0.38672307 2569809
1.1364849 0.61547583 0.38773474 6779520
1.1358471 0.61951363 0.384951 8751498
1.0634694 0.68296492 0.32057598 6120813
1.065099 0.68299425 0.32075882 7041146
1.0627251 0.68274081 0.31868628 4541270
1.0669355 0.68946302 0.31836584 9278359
1.0582005 0.68214667 0.31770638 3355181
1.0599748 0.68291044 0.31743956 2368291
1.0612236 0.68823296 0.317761 792620
1.0638005 0.6880219 0.31723323 5202552
1.0553653 0.68409598 0.31583607 2896203
1.0572331 0.68712604 0.31631538 2961736
1.0600693 0.68788433 0.3159087 1580842
1.0534195 0.68435818 0.31476021 3817047
1.143525 0.61884677 0.39245123 6908519
1.136148 0.61695379 0.38869494 5397362
1.0650308 0.68264365 0.32486764 6712438
1.0632929 0.68212897 0.32395157 5398117
1.0650673 0.68245792 0.32304168 6909815
1.0656347 0.68775868 0.32364205 8160916
1.067513 0.68929511 0.32300842 9212566
1.0596889 0.68204856 0.32173842 2500131
1.0615767 0.6832341 0.32151309 1845040
1.0618066 0.68786478 0.32159439 662066
1.0640302 0.68859076 0.32098252 5268603
1.0650014 0.68988276 0.31921291 7964822
1.0615671 0.68727386 0.31994098 792873
1.0530285 0.68267429 0.31884485 5989512
1.0547043 0.6847564 0.31834206 3290961
1.1422427 0.62031621 0.3944712 7369075
1.0635581 0.6821146 0.32808855 5133402
1.0647539 0.68338132 0.32656151 6514288
1.067809 0.68832666 0.32758164 9146774
1.0586598 0.6815995 0.32592392 3091493
1.0612673 0.68286443 0.32545203 1712935
1.0652341 0.68992865 0.3247332 7832724
1.057639 0.68097878 0.32478565 3683891
1.0600843 0.68612707 0.32420668 1908778
1.0620637 0.68661129 0.3239888 661804
1.0634536 0.68874478 0.32446763 3624041
1.0551345 0.68471009 0.32235366 3685724
1.0599132 0.68658155 0.32210335 1909039
1.0533401 0.685224 0.3216376 4540768
1.0518205 0.68604434 0.31862316 6316914
1.1384618 0.62067902 0.39679053 3159867
1.1409738 0.62188059 0.39644188 6514539
1.1423087 0.62764692 0.39316288 6382946
1.1435752 0.63167191 0.39397264 9408920
1.0624938 0.68122578 0.33272147 2962228
1.0644164 0.68236268 0.33151054 5396065
1.0661508 0.68363643 0.33118922 8028558
1.0681083 0.68462479 0.33125004 9015445
1.0602336 0.68177927 0.3297888 2369316
1.062758 0.68161029 0.33074349 3554620
1.0638411 0.68644154 0.33048734 3492454
1.0572777 0.68070078 0.32859644 3815220
1.0590386 0.68163037 0.32866842 2960165
1.064635 0.68897241 0.3273541 5794432
1.0618089 0.6883353 0.32559916 530480
1.0542111 0.68514907 0.32581839 3752286
1.0561082 0.68710124 0.32650924 3027534
1.0522364 0.68591785 0.32377034 5922410
1.1388546 0.62288308 0.39849645 5988179
1.1371251 0.62406695 0.39782408 4606280
1.1358507 0.62502497 0.39759988 4146239
1.0651622 0.68201065 0.33575806 6317682
1.0606412 0.67965591 0.33392584 2369311
1.0632268 0.68164015 0.33451766 3620161
1.0658367 0.68734229 0.33303955 7372690
1.0676991 0.68915713 0.33329463 9015188
1.0569539 0.68115568 0.33244845 3815226
1.0586548 0.68173265 0.33229226 3288883
1.0639787 0.68701625 0.33324382 3492708
1.0571501 0.6802212 0.33068538 3881016
1.0553911 0.68348897 0.33096424 3423834
1.0551564 0.68326926 0.32926229 3490144
1.053108 0.68729162 0.32693934 4606302
1.1351897 0.62380373 0.39952916 3290943
1.1360997 0.62514037 0.40005073 5133389
1.1367053 0.62698835 0.39940253 7237744
1.0654781 0.68153644 0.33940884 6976384
1.0620451 0.68067873 0.33812153 2566699
1.0636213 0.68139619 0.34031165 2305589
1.0670891 0.68750882 0.33803946 8029586
1.0593969 0.67965943 0.33681148 3158064
1.0632122 0.6873703 0.33638263 2110027
1.0659637 0.68744862 0.33612826 7504532
1.0566461 0.68187869 0.33515909 3881273
1.0584941 0.68116486 0.33452648 3420723
1.0623022 0.68695259 0.33444089 661545
1.0515792 0.68289363 0.33117884 8092029
1.1348667 0.62753743 0.40186483 4935763
1.1346685 0.62869608 0.40328196 6711908
1.1343811 0.62740111 0.40036297 5528148
1.1343147 0.62918657 0.40143418 7040366
1.0644063 0.67960691 0.34484118 3753811
1.0669577 0.68033564 0.34448934 7633284
1.0626014 0.68023229 0.34264138 1975078
1.0653005 0.6808126 0.34261146 6318968
1.0682085 0.68834078 0.34152043 8818324
1.0606269 0.68056202 0.3411181 2631972
1.0643393 0.68739223 0.34006119 3820906
1.0668902 0.68754566 0.34059837 7832210
1.0573874 0.67948294 0.3388623 3683896
1.0630329 0.68691599 0.33903754 1648704
1.0537318 0.68052483 0.3382152 5986650
1.0508298 0.68552709 0.33453792 9013391
1.0522671 0.68889952 0.33223563 6119536
1.1346202 0.62886107 0.40330249 8421508
1.1295717 0.62460327 0.40424284 3947844
1.1326087 0.62903309 0.4046182 7040361
1.1328515 0.63100171 0.40433925 7040886
1.1250119 0.62562335 0.40189594 4147814
1.1234475 0.62741053 0.40138727 7304065
1.0666107 0.68144405 0.34838945 6712955
1.0617051 0.67850536 0.34685996 2105632
1.064469 0.67958987 0.34739262 3425363
1.0668324 0.68072474 0.3464188 7239295
1.0687526 0.6872896 0.34733927 8883858
1.0609162 0.67881757 0.34566522 2631976
1.0673548 0.68856847 0.34425277 8160657
1.063643 0.68710786 0.34301707 2372684
1.0550765 0.6870203 0.33834264 3225170
1.0550148 0.68808389 0.33987072 3225168
1.0506796 0.68542767 0.33643997 9342356
1.1334772 0.62988663 0.40648875 9211023
1.1294011 0.62575281 0.40579832 3817276
1.1306186 0.63001752 0.40651339 6711394
1.1319259 0.63164455 0.40575874 7567479
1.1302271 0.63330257 0.40548509 6186084
1.1226344 0.62828517 0.40331754 4936810
1.1186507 0.62781334 0.40294847 9935002
1.1211462 0.62853605 0.40202928 9277335
1.0646789 0.68057108 0.35037845 3885911
1.066298 0.68111289 0.35128391 6187126
1.0692061 0.68470371 0.35213491 8884114
1.068934 0.68621051 0.34961587 8883858
1.0614634 0.67910707 0.34875455 2039583
1.0633034 0.67909133 0.34882021 727848
1.0665025 0.68618298 0.34915948 6517383
1.0582507 0.67823839 0.34673616 3749432
1.061645 0.68622541 0.34796301 1580590
1.0644894 0.68671203 0.34716338 3228764
1.0620536 0.68748081 0.34565288 1383982
1.0592288 0.68762553 0.3456476 2764354
1.0554185 0.68857026 0.34177342 3093583
1.1295276 0.63032424 0.40829873 6777184
1.1272469 0.63270378 0.4076772 6053980
1.129185 0.63415813 0.40686965 6580585
1.1218073 0.62991774 0.40561408 3557212
1.1228155 0.63015378 0.40559739 2111309
1.1183137 0.6281985 0.40441409 9606042
1.1197801 0.62920099 0.40491086 7106945
1.1216568 0.63319713 0.40422425 1455955
1.1191218 0.63397419 0.4029026 7633277
1.0644313 0.67948532 0.3546187 2898754
1.0670366 0.68081087 0.3550725 7174277
1.0646091 0.67957544 0.35285515 3425098
1.0670309 0.68513715 0.35344037 6780296
1.0693364 0.68674672 0.35354531 8883858
1.0628868 0.68587387 0.3519913 1121070
1.0654776 0.68626672 0.35175377 4676212
1.060673 0.68571621 0.35025454 2172214
1.0635651 0.68618268 0.34988958 1056561
1.0584835 0.68711537 0.34774929 2830408
1.1278651 0.63207531 0.41076368 7764341
1.1222901 0.62998021 0.40915883 4014921
1.1240857 0.63164318 0.41071773 4541240
1.1257925 0.63297606 0.40912929 5396038
1.127254 0.63610423 0.40860027 6909550
1.1208897 0.63106716 0.40784842 2570562
1.1240677 0.63539416 0.40755653 3818578
1.1163344 0.63081884 0.40621114 9145747
1.1184006 0.63117486 0.40649718 5529201
1.1203296 0.63483059 0.40647602 2178908
1.1215574 0.63489437 0.40544069 1981528
1.1177087 0.63629866 0.40435037 6582658
1.1160347 0.63593638 0.4035762 9145740
1.0657905 0.68077129 0.35963556 4017757
1.067673 0.68112648 0.35852516 8358549
1.0647286 0.68050385 0.35734868 2898240
1.0680499 0.68471485 0.35735172 7897744
1.06968 0.68638361 0.35677642 8883601
1.0640501 0.68510139 0.35629624 793651
1.0659307 0.68504727 0.35627902 4808571
1.0602947 0.68443793 0.35476094 2633021
1.0631121 0.68551302 0.35419846 1186864
1.0549825 0.68188268 0.35406062 5528697
1.0592744 0.6843552 0.35279113 2895687
1.0567204 0.68555284 0.35056204 3291477
1.1221553 0.63254595 0.41134322 4277825
1.1242435 0.63414288 0.4118098 6448470
1.119827 0.63267452 0.41044307 3949641
1.1204579 0.63302338 0.41203851 4212031
1.1223899 0.63666189 0.40989605 4607316
1.1242843 0.63837492 0.41047516 6449261
1.1175671 0.6327309 0.40894651 2834000
1.1197593 0.63638604 0.40821046 2966101
1.1205852 0.63664532 0.40903848 3752533
1.1139747 0.63163626 0.40813282 8948628
1.1177888 0.63700432 0.40737996 1849173
1.1151047 0.63867974 0.40562993 7896450
1.0704098 0.68539464 0.3635017 9014928
1.0649593 0.68048441 0.36209434 2437436
1.0671324 0.68227041 0.36209294 7043466
1.068578 0.6855073 0.36170673 8489104
1.0702538 0.68559587 0.36152303 8883600
1.064034 0.68048608 0.35975003 1647394
1.065325 0.68483818 0.36017925 2834264
1.0671794 0.68533933 0.35904801 6714501
1.0699052 0.68755031 0.3591212 9014929
1.0628698 0.68523711 0.35762441 1120812
1.057075 0.68242842 0.35555834 3358046
1.0604255 0.68620753 0.35593626 2501438
1.0554038 0.68259919 0.35658932 4870769
1.0582066 0.68513232 0.35450083 3027790
1.1217026 0.63469589 0.41320208 5396294
1.1191226 0.63408005 0.4129048 4409155
1.1224226 0.63790929 0.4114657 6711406
1.1161122 0.63458472 0.41103369 2897985
1.1168022 0.63577908 0.41295046 4277577
1.1201136 0.63864619 0.41119832 4804697
1.1220462 0.64163625 0.4117884 6975350
1.1126404 0.63403392 0.40990692 7501440
1.1140206 0.63474238 0.41061816 3226963
1.115871 0.63869774 0.4077664 1585764
1.1171092 0.63960207 0.41021693 3359316
1.1100135 0.63536727 0.40860453 9737623
1.1110566 0.63592708 0.40753058 10066586
1.1134827 0.64009649 0.40811872 4872304
1.1112971 0.63990849 0.40677172 9014155
1.0654743 0.68060243 0.36510652 1583675
1.067121 0.68266261 0.36628795 6452616
1.0697517 0.68427169 0.36659294 8817808
1.0702748 0.68613493 0.3650229 8949136
1.0638375 0.67983055 0.36357516 1580054
1.0663372 0.68332124 0.36427218 4741744
1.0685773 0.68528378 0.36349839 8620432
1.0628392 0.68331707 0.36436719 1317423
1.0634334 0.68474668 0.36206764 924207
1.0608943 0.68446118 0.36035109 2502209
1.0615532 0.68545914 0.36093634 1975351
1.05525 0.68309075 0.35945249 5133683
1.1192964 0.63598424 0.41504395 5856336
1.1152028 0.63524282 0.41301692 3883849
1.115822 0.63660175 0.41450116 4474694
1.1177921 0.64010704 0.41481096 6514277
1.1193795 0.64155436 0.41202563 5002847
1.1209201 0.64374924 0.41309267 8027524
1.1126361 0.63680053 0.41216293 2700615
1.1145625 0.63928151 0.41167885 4146517
1.1162999 0.64131171 0.41200209 4278617
1.1182899 0.64369243 0.41321582 5791852
1.1082141 0.63539422 0.40975982 10000793
1.1094854 0.63716948 0.41088879 7107200
1.1121591 0.64097518 0.41044 2832475
1.1139581 0.64154422 0.41057682 2635867
1.108664 0.6409207 0.40754461 9079690
1.1096098 0.64202178 0.40894651 7502211
1.10674 0.64151084 0.40753382 9079690
1.072208 0.67560416 0.37578753 9080719
1.0695838 0.68147016 0.37214842 8752272
1.0667578 0.67960346 0.37078139 5596020
1.0683212 0.68261087 0.36927265 7832463
1.0692352 0.68342471 0.36974663 8686480
1.0652099 0.68158436 0.36681411 532268
1.0659955 0.68258488 0.36782223 2768983
1.0631013 0.68352753 0.36620754 1382956
1.0635056 0.68374062 0.36787522 922923
1.0565702 0.68404841 0.36324507 3752289
1.0541191 0.68451607 0.36152488 6515336
1.1155982 0.63932133 0.41548514 4935245
1.1162348 0.64165568 0.41526043 6579814
1.1117109 0.63926065 0.41390783 4014152
1.1129471 0.64039564 0.4142606 4474959
1.1152159 0.64292216 0.41429532 5987946
1.1163666 0.64626944 0.4142763 6383480
1.1093776 0.63970149 0.41292113 3028809
1.1120453 0.64217991 0.41338485 4474966
1.11304 0.64353222 0.41264415 3687001
1.1058464 0.63930714 0.41113013 9540500
1.1068745 0.64014912 0.41196859 7566968
1.1094161 0.64314342 0.41133058 2701655
1.1037821 0.6399855 0.41040659 10000793
1.1048484 0.64333224 0.4088991 9079690
1.1061714 0.64411533 0.40996984 7239295
1.0722606 0.67558646 0.37751001 9146255
1.0695599 0.67792547 0.37622887 8227215
1.0672797 0.67929256 0.37473914 5728891
1.0681627 0.68171895 0.37411016 7896974
1.066317 0.68104136 0.37327701 3360092
1.0672399 0.68224156 0.37196848 5202291
1.0637492 0.68338579 0.37177712 726058
1.0654664 0.68365967 0.36971879 860988
1.0608294 0.68135154 0.37056214 2896204
1.0616164 0.68476629 0.36882579 2238525
1.063535 0.6843766 0.36964574 923174
1.0587344 0.6842016 0.36741194 3160145
1.0571506 0.68428957 0.36607167 3292765
1.1129801 0.64229083 0.41638514 5198162
1.1138008 0.6438477 0.41634896 6382439
1.1144899 0.64635909 0.41693243 7238001
1.1099567 0.64266562 0.41523522 4080456
1.1115177 0.64516693 0.41535044 5593450
1.1137325 0.64684731 0.41512889 5922931
1.1058218 0.64220047 0.41394055 2829891
1.1079936 0.64449614 0.41337109 3030094
1.1091328 0.64553308 0.41440511 4014937
1.1027426 0.64157295 0.4115141 9935000
1.1038833 0.64326763 0.4120135 6383219
1.1058731 0.64516187 0.41227016 3161435
1.1002504 0.64240181 0.41141582 10066585
1.1011609 0.64457047 0.41170359 8816521
1.1028981 0.64624083 0.41063726 8027522
1.0998489 0.6465224 0.4094936 9079948
1.066276 0.67849565 0.37853521 3951710
1.0680044 0.67906356 0.37851733 7502990
1.0696543 0.68183082 0.37840843 8883598
1.066469 0.67833233 0.37689626 4805739
1.0671294 0.6804229 0.37625322 4806773
1.0678753 0.68149114 0.37769282 6717071
1.0641228 0.68167144 0.37498468 725802
1.060756 0.68194699 0.37314528 2239045
1.0620246 0.68323886 0.37377304 1844023
1.0583354 0.683249 0.37039065 3160148
1.0600743 0.68398708 0.37194759 2568006
1.0558748 0.68509829 0.36995637 5199210
1.0580208 0.68462044 0.37177289 2962505
1.0553393 0.68521452 0.36801165 5923199
1.108793 0.64432919 0.41670501 4606282
1.1104116 0.64591873 0.4175477 6448237
1.1110218 0.64835691 0.4180457 7237488
1.1046931 0.64442599 0.41579473 3028289
1.106883 0.64546132 0.4165107 4540496
1.1091621 0.64755166 0.41609895 5198953
1.1118741 0.6488688 0.41545311 5791862
1.1031306 0.64416337 0.41496879 2567235
1.104545 0.64700913 0.41426179 2438223
1.1065462 0.64836794 0.41500086 3555410
1.1004243 0.64599514 0.41288435 6645103
1.1024817 0.64744198 0.41324234 2634586
1.0950413 0.64408469 0.41097659 10066585
1.0979831 0.64741337 0.41157943 8882318
1.100805 0.64882463 0.41173202 6185587
1.0971738 0.64782184 0.41029394 9277072
1.0981529 0.65070891 0.41000158 8816776
1.0958859 0.65219986 0.40860176 9079690
1.0715883 0.68311208 0.38262397 8883854
1.0672433 0.67912579 0.3807686 4610154
1.0677545 0.68312049 0.38085991 6517903
1.0704067 0.68416351 0.38065338 8817806
1.0667441 0.68323326 0.37904572 3426148
1.0602648 0.68081784 0.37764794 2700119
1.0639467 0.68356776 0.37709665 462886
1.0647157 0.68436766 0.37782747 596278
1.0593154 0.68235123 0.37454319 2832213
1.0610104 0.68384898 0.37621957 1909311
1.0571007 0.6834169 0.37453169 5462645
1.0579962 0.68482661 0.37540424 4868716
1.0560889 0.68479073 0.37195253 5396581
1.1048961 0.6464448 0.41805604 4869199
1.107338 0.64823073 0.41868508 7171961
1.1019131 0.64659238 0.41692644 3422277
1.1038127 0.64789808 0.41746542 5198170
1.1048658 0.64977527 0.41686234 5265253
1.1071851 0.65137196 0.41669875 5462896
1.1003621 0.64693457 0.41516298 1843509
1.1016816 0.64994848 0.41546148 3291468
1.0974425 0.64858484 0.41371116 4605273
1.0994008 0.65085006 0.41357362 2371149
1.1006702 0.65212297 0.41508508 2831950
1.0949138 0.64715743 0.41178423 9934999
1.0949241 0.65060651 0.41232449 6841717
1.0968896 0.65283442 0.41169524 6513777
1.0930812 0.64950573 0.41100496 9934999
1.0920752 0.65183973 0.41081876 9079181
1.0948963 0.65383279 0.41067779 7763581
1.0915608 0.65338159 0.40874767 9079696
1.0929792 0.65545183 0.40874708 9013641
1.0881109 0.65245068 0.40828985 9935000
1.0897641 0.65494406 0.40650016 8685966
1.0907314 0.65768993 0.40739301 9014154
1.0872928 0.65670991 0.40573737 8488332
1.0717402 0.68236554 0.38702387 8227726
1.0680999 0.68144023 0.38494241 5794438
1.0707967 0.68169832 0.38481936 8029326
1.0687611 0.68307114 0.38264298 7174541
1.0651772 0.68416804 0.38180465 463664
1.0595078 0.6822989 0.38002884 3489376
1.0618105 0.68343329 0.37997031 1581368
1.0636613 0.68557483 0.38024944 528682
1.056742 0.68201423 0.37850213 6910090
1.059195 0.68236578 0.37875897 3686236
1.0562923 0.68256152 0.37646049 7435917
1.0577991 0.68617117 0.37751991 5725045
1.1041116 0.64787287 0.41982478 6119781
1.1020218 0.64999211 0.41898519 6449005
1.1037514 0.65050137 0.41927642 8685196
1.1043873 0.65319645 0.41810036 6713217
1.0997584 0.65012068 0.41773498 4146249
1.1018944 0.6529659 0.41718516 4936809
1.0966393 0.65017217 0.41593972 2106157
1.0977753 0.65171444 0.41624194 3422793
1.0992618 0.65407324 0.41638657 3621721
1.0942551 0.65127587 0.41486263 2697267
1.0958257 0.65308022 0.41435629 2107201
1.0967869 0.6548056 0.41459244 1648191
1.0920722 0.65243435 0.41284585 5854040
1.0939393 0.65473449 0.41334909 1909052
1.0947742 0.65669209 0.41417977 1582658
1.0887985 0.65184927 0.41035271 9802643
1.0903268 0.65427172 0.41150957 6643817
1.092793 0.65649438 0.411852 4605532
1.0863795 0.65374708 0.40792632 10000536
1.0870106 0.65469182 0.41057286 8880758
1.0900359 0.6574738 0.40992582 7367795
1.0846455 0.65554082 0.40745196 10066329
1.0845658 0.65626276 0.40924996 8813944
1.0882154 0.65840876 0.40763533 8750730
1.0828851 0.65985239 0.40664428 10132111
1.0853872 0.6601671 0.40617841 8158855
1.0830076 0.66162527 0.4048591 8094094
1.0822895 0.66390097 0.40435869 7961731
1.0808315 0.66616225 0.40151197 8620429
1.0793048 0.66824746 0.40040147 8292242
1.0786471 0.66970855 0.39831752 8358546
1.0752307 0.67345309 0.3967185 7568524
1.073388 0.67460024 0.39510286 6387595
1.0713098 0.67530406 0.39357692 2045263
1.0708981 0.67827296 0.39212221 2901877
1.0721666 0.68001246 0.38988948 7899533
1.067749 0.67758167 0.39125898 1909537
1.0680138 0.67951816 0.38970917 2109501
1.0702386 0.68129981 0.38840854 5267339
1.0641477 0.67902815 0.38773775 2106424
1.0673854 0.68113095 0.38744876 2373713
1.0603334 0.67942762 0.38628483 3949408
1.0623306 0.67945874 0.38682806 2107459
1.0660189 0.68337429 0.38447428 201777
1.0614613 0.68171072 0.38324922 2042438
1.0627316 0.6835072 0.3841269 1580853
1.0579122 0.6809538 0.38246137 6383745
1.0598772 0.68497044 0.38060242 2369856
1.1021185 0.65074623 0.42077431 8093568
1.0989045 0.65174699 0.41954878 6843761
1.1002955 0.65274358 0.42040336 7699068
1.0961249 0.65308774 0.41865656 5133402
1.0984685 0.65568644 0.41778398 4937579
1.0943861 0.6540221 0.41735524 3817802
1.0966047 0.65657979 0.41669762 3950429
1.0915599 0.65423387 0.4149462 1842211
1.0928521 0.65517831 0.41614828 3225927
1.0945277 0.65801585 0.41561747 3161430
1.0886039 0.65526682 0.41358101 2827299
1.0908781 0.65718496 0.41356823 2172987
1.092622 0.65851319 0.41469374 2174795
