# .PCD v0.7 - Point Cloud Data file format
VERSION 0.7
FIELDS x y z rgba
SIZE 4 4 4 4
TYPE F F F U
COUNT 1 1 1 1
WIDTH 1150
HEIGHT 1
VIEWPOINT 0 0 0 1 0 0 0
POINTS 1150
DATA ascii
1.0659704 0.64833719 0.031789664 10525315
1.0688611 0.6491276 0.031883568 10722441
1.0698586 0.65196609 0.031858474 10656646
1.0496587 0.6305002 0.031981401 9735792
1.0503479 0.6337288 0.032387454 10656914
1.0524927 0.6352011 0.032686591 10525840
1.0549959 0.63862532 0.032550201 10591119
1.0586812 0.64283317 0.032132845 10393736
1.060113 0.6434325 0.032104403 10459529
1.0471175 0.63231176 0.030825589 7566181
1.0452029 0.6340189 0.030003682 6645366
1.1651545 0.67970002 0.065255016 11645357
1.1669034 0.67965704 0.065553315 11250852
1.1704991 0.68550384 0.063884899 13355718
1.1608402 0.67728412 0.064036421 14540253
1.1625822 0.67971659 0.064800858 12237493
1.1645116 0.68289965 0.064976804 12368826
1.1673403 0.68376672 0.064791873 12960961
1.1705036 0.68911731 0.061129376 13092286
1.1548758 0.67528844 0.062063277 14408660
1.1572106 0.67698711 0.063686632 14474460
1.158977 0.67951357 0.064336993 12895166
1.1621325 0.68370497 0.062213354 12961217
1.1660721 0.68605173 0.061058179 13618893
1.1675162 0.6912564 0.061287601 14671839
1.1701953 0.69212121 0.06109051 14737632
1.1726742 0.69454408 0.059375659 14540252
1.1748488 0.69618917 0.05866256 14869218
1.151119 0.67472756 0.061884455 14277071
1.1528606 0.67609835 0.062429138 14342870
1.154701 0.67725372 0.06303633 14474459
1.1582515 0.68292129 0.059697382 13948115
1.1600564 0.68401104 0.06013288 14013909
1.16339 0.68710947 0.060125582 13684685
1.1675872 0.69166541 0.058901198 13421253
1.1711018 0.69652051 0.057381969 14145494
1.1750133 0.70160294 0.056903496 14737632
1.1777997 0.70219481 0.05687644 14671839
1.179024 0.70593834 0.056574337 14737632
1.1816921 0.70620888 0.056825995 14737632
1.1828828 0.71077418 0.055968162 14737632
1.1858143 0.71124899 0.056029111 14737632
1.186859 0.71386409 0.055358455 14671839
1.1890265 0.71683705 0.054392911 14606046
1.1910971 0.71772182 0.053861558 14671839
1.1933241 0.72150314 0.053149566 14540253
1.1479875 0.67401439 0.059391342 13222296
1.1485579 0.67504239 0.061240826 14211015
1.1554422 0.68179548 0.05927803 13882321
1.156504 0.68432075 0.05975315 13948116
1.1586325 0.68802124 0.059238061 13618891
1.1605381 0.68818986 0.05921907 13684429
1.1629033 0.69253337 0.058146652 13420994
1.1648976 0.69346488 0.056694977 13487306
1.1669911 0.69730294 0.056790069 14079702
1.1691024 0.69727933 0.056744199 14145494
1.1711719 0.69989908 0.057558991 14737632
1.1727197 0.70178938 0.055875339 14342874
1.1754985 0.70371717 0.055906042 14474460
1.1770344 0.70591468 0.055408809 14277081
1.1780983 0.70970541 0.054533847 14211288
1.1811287 0.71022946 0.054876134 14408667
1.1835203 0.71360373 0.053994816 14277081
1.1847515 0.71726072 0.053622603 14342874
1.1868224 0.71728712 0.053653225 14342874
1.1893584 0.72068709 0.053942025 14606046
1.1914333 0.72169113 0.053334892 14671839
1.1426915 0.6732204 0.058029715 11509586
1.1455406 0.67433953 0.059672296 13157013
1.1483644 0.68047631 0.057711452 13750972
1.1515183 0.68106604 0.058032315 13816516
1.1570123 0.68733978 0.055431489 13421772
1.1597695 0.6898874 0.055513248 13355978
1.1604334 0.69206202 0.055017028 13355976
1.1629076 0.69418389 0.05497751 13618892
1.1649619 0.69688016 0.054950211 13684944
1.1674529 0.69877291 0.053523503 13882323
1.1691812 0.70140922 0.054212432 13882323
1.1738681 0.70573568 0.055030212 14079702
1.18024 0.71317136 0.054309987 14277081
1.188158 0.72177911 0.049587861 13948116
1.1881567 0.72284216 0.04941389 14540253
1.1902506 0.72564924 0.049073447 13948116
1.140358 0.67407548 0.057370316 11444052
1.1445718 0.67914701 0.056056716 12759641
1.1470127 0.67968297 0.056515492 13024376
1.1521572 0.6849544 0.054691229 13355979
1.1528955 0.68736076 0.054844897 13619150
1.1554179 0.68930656 0.054623149 13553101
1.1572046 0.69149911 0.054377675 13027009
1.1594887 0.69404292 0.054272782 13158337
1.1611557 0.69658768 0.053959619 13487559
1.1630319 0.69842577 0.053180501 13421769
1.1652427 0.69998288 0.052805565 13750737
1.1672477 0.70150793 0.052473556 13553358
1.1689249 0.70358133 0.05121766 14145495
1.1755567 0.71231765 0.049129587 13750737
1.1767886 0.71216559 0.049226157 14145495
1.1811475 0.71759909 0.048666857 14013909
1.1835711 0.71945184 0.04862456 14145495
1.1856337 0.72167933 0.048843063 14211288
1.1861711 0.72505075 0.048552781 14145495
1.1884918 0.72603142 0.048319306 14277081
1.1358619 0.6710465 0.054801814 13020534
1.1365056 0.67262292 0.05626566 10521652
1.1395016 0.6734072 0.05609256 10653236
1.1416109 0.67808282 0.054406267 11901203
1.1424024 0.67933601 0.055963725 12825438
1.145334 0.68244654 0.053906836 13224386
1.1476659 0.68404377 0.053874388 13355977
1.1492325 0.68622696 0.053547967 13553357
1.1515963 0.68844342 0.052967317 12500668
1.1532867 0.69078672 0.05360321 13355978
1.154539 0.69264829 0.053088978 11776423
1.1582297 0.69563258 0.053780571 13684942
1.1594282 0.69854873 0.05250401 12895165
1.1612003 0.69857097 0.052510343 13421507
1.1623611 0.70173186 0.051924843 13684943
1.1652244 0.70504189 0.050398193 14079702
1.1677901 0.70573509 0.050188173 13948116
1.1695414 0.70802933 0.049257927 13882323
1.1719155 0.70999038 0.049079336 14013909
1.1732609 0.71286589 0.048473123 13882323
1.1749536 0.71586549 0.048709542 13948116
1.1775043 0.71646607 0.048042744 14013909
1.179189 0.71925354 0.047638532 13816530
1.18171 0.72164667 0.047947146 14145495
1.1839601 0.72347987 0.047335915 14013909
1.1853677 0.72599387 0.046295889 13816530
1.1876084 0.72854424 0.046087846 13553358
1.1300128 0.66898561 0.053062994 12230775
1.1319258 0.67139369 0.054195084 13086588
1.1339202 0.67240483 0.054782029 11837014
1.13427 0.6746397 0.053372696 13154415
1.1378331 0.67636693 0.054144926 12494915
1.1415116 0.68220019 0.052834012 13026728
1.1434357 0.68344843 0.052052543 13355961
1.1458337 0.68514466 0.05233863 13487562
1.1472605 0.6875385 0.052008137 13290185
1.1500573 0.68986243 0.051871758 12303285
1.1511018 0.69151318 0.051276926 9803918
1.1555469 0.69679677 0.048727185 9935500
1.1617585 0.70430785 0.049963638 13158600
1.1639867 0.70531476 0.049391821 13421772
1.1653452 0.70789808 0.048744321 13619151
1.1675181 0.70962286 0.048270136 13619151
1.169733 0.71245486 0.048081838 13684944
1.1714718 0.71358204 0.047516964 13684944
1.1735873 0.71626508 0.046890341 13421772
1.1752708 0.71918607 0.047094844 13619151
1.1778115 0.72064823 0.046067789 13619151
1.1799204 0.72276092 0.045935094 13553358
1.1817245 0.72510743 0.045743369 13553358
1.1834819 0.7280246 0.045512542 13487565
1.1856148 0.73070067 0.045539863 13553358
1.128197 0.66895545 0.052777372 11968120
1.1290905 0.67094016 0.053975131 13218180
1.1324875 0.67447329 0.052083183 13221258
1.1323082 0.67631936 0.053131908 12890459
1.138116 0.68040991 0.051004626 12431717
1.1395131 0.68275803 0.050928198 13026457
1.1409687 0.68445146 0.050587937 13158845
1.1435215 0.68612421 0.050777055 13290182
1.1462326 0.68947691 0.048798032 12566460
1.1478568 0.69135255 0.049668912 10790299
1.1508548 0.69680142 0.049252227 11842738
1.1523179 0.6988284 0.048174709 11777201
1.1654017 0.71099961 0.046329588 13158600
1.1671399 0.71337378 0.046738263 13158600
1.17003 0.71575713 0.046964999 13290186
1.1720097 0.71692479 0.044828296 13684944
1.1738389 0.71940553 0.045541875 13684944
1.1766497 0.7224803 0.045796759 13750737
1.1779532 0.72454536 0.041735418 13092807
1.1793408 0.7258274 0.045418084 13487565
1.1815066 0.72833955 0.041780673 13224393
1.1839178 0.7305721 0.042027578 13158600
1.1260461 0.6705879 0.051923238 11902585
1.1295412 0.67456216 0.050665516 12363121
1.1313804 0.67802739 0.049433056 12497225
1.133687 0.67972183 0.049306318 12694354
1.1357799 0.68146318 0.049663097 12497759
1.1378691 0.68313384 0.049406685 12828828
1.1409329 0.68881238 0.047970422 12698045
1.1439207 0.6894753 0.048231822 12698046
1.1456043 0.69244039 0.049204793 9474945
1.1538563 0.70057499 0.04745147 11974580
1.1626389 0.71129936 0.046112128 13158600
1.1639726 0.71295381 0.042989008 12829635
1.166203 0.71407783 0.042711884 12763842
1.1677952 0.71715629 0.04366022 13224393
1.1701777 0.71858281 0.042383455 12829635
1.1722028 0.72099113 0.042137172 12895428
1.1743282 0.72350943 0.041871868 12961221
1.1757553 0.72598767 0.04163434 12961221
1.1779917 0.72858751 0.041635469 13027014
1.17945 0.73085511 0.041530486 13092807
1.1820618 0.73131979 0.041821107 13290186
1.183133 0.73355234 0.042231709 13158600
1.1219203 0.6704182 0.047852397 9931638
1.1233026 0.67117423 0.050047264 9535843
1.1267086 0.67485297 0.049044885 10849371
1.1296088 0.67872143 0.047651228 12564069
1.131974 0.68104672 0.047667973 12760945
1.1330527 0.68248761 0.04873503 12828287
1.13564 0.68583584 0.04714448 12303534
1.1385603 0.68761384 0.046947151 12171953
1.1562731 0.70703721 0.043516282 12500666
1.1584363 0.70835388 0.043208413 12829888
1.1606463 0.71154618 0.041370347 12895427
1.1615882 0.71315885 0.042249091 12763842
1.1636177 0.71589041 0.042577565 12763842
1.1662571 0.71952033 0.04250909 12763842
1.1684182 0.72077715 0.042239092 12763842
1.1705835 0.72215343 0.041893311 12895428
1.1724417 0.72573644 0.041639101 12895428
1.1200287 0.67066842 0.0472125 11707785
1.1210339 0.67335773 0.047942474 10523771
1.1239812 0.67514908 0.046888322 11574911
1.1281312 0.67996728 0.046403781 12363883
1.1294442 0.68209016 0.046366721 12431733
1.1324844 0.68420064 0.045582004 12435111
1.1331707 0.68573529 0.047422323 11777963
1.1552248 0.7108627 0.042352863 12829635
1.1581063 0.71313119 0.041474227 12829635
1.1605871 0.71536618 0.042235289 12698049
1.114876 0.66840088 0.045584686 12430991
1.1179336 0.67215896 0.045565974 12562060
1.1199484 0.67435658 0.045757137 12759955
1.1226748 0.67778599 0.046301417 12234135
1.1267619 0.68138874 0.044506244 12168063
1.1280494 0.68324125 0.045100577 11246962
1.1046709 0.66071701 0.045162212 12694429
1.107986 0.6654045 0.045302596 12496529
1.1102518 0.6678946 0.044824965 12497040
1.112142 0.67000711 0.044918861 12430989
1.114095 0.67118907 0.04495836 12431246
1.1159697 0.67400753 0.044843212 12759435
1.1177149 0.67632604 0.044834591 12956813
1.120832 0.67875636 0.045346417 13155234
1.122936 0.68085086 0.04199348 12169874
1.1249416 0.68295383 0.042826526 11642247
1.1261392 0.68534434 0.042789742 10720883
1.1273916 0.68595576 0.040306605 9143401
1.0860856 0.64440084 0.046098065 12434348
1.0880003 0.64752364 0.045848332 12499626
1.0901854 0.64863658 0.045924816 12433320
1.0927199 0.6510644 0.045716941 12433319
1.0949991 0.65295029 0.045696415 12629925
1.0952542 0.65564674 0.045470282 12431773
1.0987564 0.65760243 0.045032803 12498336
1.1005635 0.66048586 0.044778433 12497303
1.102545 0.66206914 0.044395931 12563866
1.1046028 0.66465068 0.044402014 12497043
1.1060706 0.66659904 0.043552782 12694932
1.1083214 0.66925895 0.043979615 12759434
1.1103411 0.67039496 0.044236802 12759688
1.112407 0.67295659 0.044695709 12758916
1.1179049 0.67972302 0.039836019 12893331
1.1202251 0.68223 0.040399641 13025176
1.12251 0.684021 0.040977791 12630689
1.1242688 0.68629545 0.040395375 10523262
1.1255901 0.68906009 0.039282937 10656651
1.0757711 0.63666457 0.045586839 12432809
1.0786047 0.63960695 0.045722619 12301735
1.081332 0.64130747 0.04574427 12367785
1.0822023 0.64426696 0.045616321 12367015
1.0844587 0.64537501 0.045777168 12499113
1.0861008 0.64753449 0.045622382 12367270
1.0881526 0.65018332 0.045657381 12235169
1.0912352 0.65246081 0.045695592 12300701
1.0922155 0.65544516 0.045239296 12299929
1.0948397 0.65736139 0.04491283 12563870
1.0962664 0.65913796 0.045352206 12102289
1.0977743 0.66123426 0.04412232 12629141
1.1001393 0.66481256 0.042570863 12497034
1.101887 0.66506714 0.042216226 12695182
1.1042423 0.6679014 0.041636832 12891782
1.1064248 0.66937292 0.040551551 12761229
1.1087483 0.67162585 0.040847588 12957567
1.1103268 0.6736865 0.039917916 12695177
1.112807 0.67666459 0.039525997 12695439
1.114028 0.67900914 0.039585028 13023621
1.1164389 0.68094444 0.038928725 12958616
1.1184638 0.68353403 0.039063916 13024927
1.1202165 0.68588156 0.039506927 12827547
1.1221894 0.68721545 0.039479148 10852735
1.125968 0.69021308 0.03689811 10393472
1.0645905 0.62856531 0.045509361 11906725
1.0666599 0.62906218 0.045884639 12104102
1.0685097 0.63273335 0.045306925 12169894
1.070472 0.63376856 0.045599841 12170407
1.073323 0.63599718 0.045580614 12301736
1.0736667 0.63922882 0.04536663 12235942
1.0761898 0.64045382 0.045243431 12301735
1.0785246 0.64361048 0.045236818 12235684
1.080333 0.64465678 0.045637239 12367527
1.0823724 0.64731157 0.043734401 12762281
1.0846672 0.64943111 0.041663557 13092530
1.0870559 0.65271586 0.040904716 12171176
1.0886027 0.65454686 0.041502632 13092267
1.0905073 0.65551245 0.041353166 12697256
1.0922588 0.65835333 0.040979803 12828325
1.0943313 0.66056263 0.040620916 12630685
1.0966212 0.66242194 0.040488441 12760981
1.0980443 0.66442394 0.040477782 12629908
1.1006789 0.66699815 0.039709799 12629136
1.1028093 0.6694417 0.039551474 12693638
1.1046784 0.67172819 0.039354775 12628358
1.1068166 0.67421174 0.0395969 12628100
1.10899 0.67613727 0.038848959 12694152
1.1104599 0.67801595 0.038768243 12759692
1.1126992 0.68088734 0.038176276 12892824
1.1147206 0.68298876 0.0382379 12958363
1.1163909 0.68466294 0.037925683 12892573
1.11876 0.68724597 0.036951695 12562835
1.1202698 0.68965304 0.036739014 11247232
1.1240458 0.69352865 0.035672463 11445909
1.0592548 0.62477767 0.045172114 11906978
1.0603938 0.62747753 0.045486778 11841186
1.0624824 0.62866324 0.045606229 11906723
1.0641842 0.63138604 0.045473367 11972515
1.0665206 0.63349473 0.044542171 12301218
1.0688065 0.63573623 0.044510264 12104101
1.0706574 0.63771892 0.042065915 13288868
1.0718346 0.63936263 0.042787172 12170669
1.0743742 0.6418258 0.042613275 12631474
1.0765176 0.64404047 0.041804913 12829105
1.0784876 0.64624119 0.041382361 12565420
1.0803318 0.64889503 0.041467853 12697259
1.0827451 0.65070802 0.041010521 12630954
1.084703 0.65307915 0.040613554 12762281
1.0872016 0.65544355 0.040611308 12631467
1.088819 0.65747392 0.040631287 12630176
1.0909202 0.65973711 0.040144473 12497299
1.0924923 0.66175127 0.039651193 12497817
1.0950611 0.66391706 0.039346572 12563863
1.0968007 0.66671562 0.039119322 12496264
1.0989008 0.66959757 0.038849317 12495488
1.1007056 0.6709348 0.038665339 12430983
1.1021324 0.67242402 0.038704917 12496255
1.1042435 0.67541885 0.038120013 12495747
1.1070125 0.67591596 0.037296381 12759435
1.1076632 0.67974508 0.036831617 12759435
1.1104569 0.68099463 0.037488442 12826005
1.1131945 0.68399203 0.03612195 12958107
1.114035 0.68803906 0.035549346 12628113
1.1160257 0.68763429 0.035820045 12760215
1.1179578 0.69004929 0.036304355 11181436
1.1234401 0.69518209 0.033094022 11182985
1.0544466 0.62313473 0.043447994 12630176
1.0568027 0.62592745 0.04377808 12695711
1.05866 0.62810922 0.042676751 12761505
1.0615895 0.63065612 0.042555992 13089948
1.062803 0.63253951 0.041963518 12301476
1.0644091 0.6350044 0.042199463 12696230
1.0670158 0.63691288 0.041865706 12367783
1.0685446 0.63904846 0.041851215 12630695
1.0706235 0.64147168 0.041579966 12696487
1.0729431 0.64340997 0.041659079 12696745
1.07443 0.64530152 0.040791761 12170150
1.0767422 0.6480484 0.040518988 12499112
1.0788385 0.6500178 0.040188212 12434095
1.0806228 0.65264547 0.040051475 12432804
1.082323 0.65525687 0.039834619 12366753
1.0847313 0.65626991 0.039854981 12366494
1.086911 0.65963674 0.039389271 12431770
1.0891368 0.66091752 0.039072543 12497560
1.0908635 0.66341972 0.038846727 12430221
1.0924287 0.66443145 0.038749393 12498072
1.0944424 0.66710329 0.038389824 12429699
1.1014205 0.67531788 0.037479673 12429184
1.1102868 0.6844089 0.035816543 12891543
1.1169723 0.69178045 0.031253133 8749935
1.1207757 0.69646704 0.031662662 10919813
1.0527428 0.62524402 0.042974994 12366751
1.0545659 0.62729406 0.04287836 12629662
1.0565829 0.62964463 0.041990455 12235426
1.0589327 0.6320101 0.04180567 12104356
1.0606606 0.63400418 0.041684207 12235684
1.0632164 0.63598454 0.040691499 11906981
1.0649555 0.63847303 0.040809143 12301221
1.0671155 0.64072227 0.040352851 12104101
1.0689986 0.64153516 0.040390208 12103328
1.0706636 0.64508283 0.040174738 12103326
1.07337 0.6471566 0.040193554 12235428
1.0743574 0.64896166 0.039794285 12168861
1.0773313 0.65136564 0.039398436 12365471
1.0780969 0.65294576 0.039160099 12234910
1.0853034 0.66103315 0.037931234 12365203
1.1054115 0.68298137 0.03104116 10260855
1.1067853 0.68374604 0.03087385 10392440
1.1086481 0.6865899 0.031105936 8815205
1.1113427 0.68862242 0.031230437 8552553
1.1136487 0.69163585 0.031160912 8815984
1.114285 0.69371903 0.031047693 9867901
1.1171409 0.69553584 0.030973999 10393729
1.1182911 0.69734275 0.031312905 11116936
1.0507541 0.62621737 0.041004471 11379346
1.0533407 0.62848443 0.040733375 11840677
1.0558348 0.63050699 0.040137887 11840673
1.0567112 0.6331284 0.039994918 11775134
1.0577148 0.63601375 0.039681047 11840670
1.0609945 0.63744652 0.040017217 11774880
1.062963 0.63925374 0.03954668 11972257
1.0656428 0.64227206 0.039573267 11905947
1.0946114 0.67425489 0.030921914 10589301
1.0965319 0.67719924 0.031249372 10720888
1.0993357 0.67823792 0.031134965 10786679
1.1009729 0.68152714 0.03104353 10194801
1.1030326 0.68416882 0.030880494 9011558
1.1055455 0.68584335 0.030936733 8420449
1.106619 0.68872792 0.030790806 7566423
1.1089096 0.68945003 0.030873979 8026973
1.1113899 0.69280922 0.031029493 9538678
1.0490962 0.62901866 0.039776035 11839387
1.0529985 0.63191205 0.040007219 11709086
1.0785648 0.66010141 0.03171654 10721662
1.080938 0.66402996 0.031442687 10458487
1.0832175 0.66504633 0.031196782 10524022
1.0849088 0.66788411 0.03127712 10458231
1.086992 0.66906571 0.03094995 10457971
1.0892582 0.67180026 0.030835133 10589557
1.0921416 0.6742022 0.031002646 10589560
1.0934159 0.67639083 0.03104827 10589562
1.0949953 0.67964816 0.030990774 9997681
1.0974244 0.68037045 0.03101629 10063471
1.1004245 0.68422508 0.030860551 8485468
1.0668743 0.65124464 0.03166987 10393473
1.0707288 0.65539891 0.03144224 10524801
1.0733523 0.65797198 0.031621918 10459007
1.0758524 0.66041154 0.031562436 10458490
1.0771797 0.66317439 0.031129401 10327161
1.0790689 0.66508019 0.031205587 10327161
1.0810294 0.66747487 0.030934094 10261368
1.0833471 0.66778898 0.031168103 10392439
1.0849489 0.67108095 0.031034429 10524027
1.0871835 0.67202812 0.030940881 10589818
1.0897536 0.67552567 0.030791787 10721661
1.0518959 0.63737643 0.032645855 10393997
1.0534078 0.63840687 0.032377392 10459534
1.0551593 0.64143515 0.032299351 10262152
1.0570244 0.64357376 0.032014549 10196100
1.0595872 0.64580035 0.031975143 10196354
1.0615842 0.64848793 0.031748995 10130559
1.0636442 0.65075487 0.03178785 10196095
1.0649185 0.65333855 0.031487659 10130303
1.0673587 0.65536296 0.031210929 10196096
1.0687282 0.65771997 0.031153157 10130045
1.0710659 0.65827471 0.031305406 10261628
1.0728061 0.6612705 0.031373352 10130042
1.0477579 0.63586652 0.031874344 10525324
1.0495511 0.63853192 0.032480642 10196617
1.0521082 0.64034426 0.032382675 10196616
1.0530945 0.64347684 0.032028504 9933441
1.0553271 0.64436442 0.031972744 9998974
1.0568687 0.6480583 0.031478837 9801337
1.0590432 0.64881492 0.03154349 9998716
1.0613678 0.65202343 0.031584732 9932924
1.0440484 0.63557327 0.030140474 6447986
1.045325 0.63789558 0.03123224 9999243
1.0469713 0.63916653 0.032009806 10196362
1.0421667 0.63765383 0.029875446 4409950
1.0397792 0.63889289 0.028783672 3621734
1.1562667 0.67953026 0.063940495 13355459
1.1601926 0.6833151 0.063927166 11382181
1.1510823 0.67695874 0.062756285 14408665
1.1537367 0.67952573 0.063587733 13684683
1.1547757 0.68346703 0.063058443 10789779
1.1574619 0.68335652 0.063568957 10921625
1.1638284 0.69053221 0.061317436 14408411
1.1457102 0.67658752 0.062253743 14211540
1.1484454 0.67666525 0.06253621 14342870
1.1491765 0.67946494 0.062983826 13684683
1.1537787 0.68376374 0.061488286 12434615
1.1568484 0.68837452 0.06054759 13224132
1.1591746 0.69025427 0.060806304 13355462
1.1614192 0.69150126 0.060129493 13882066
1.1684211 0.69910729 0.057801105 14671839
1.173701 0.70516318 0.056362297 14671839
1.1753868 0.70894468 0.056344405 14606046
1.1782469 0.70952296 0.056234486 14606046
1.1793216 0.71296811 0.056179523 14671839
1.1821057 0.71350026 0.056190439 14671839
1.183283 0.71770763 0.055559978 14737632
1.1851528 0.71804571 0.055541657 14737632
1.1872789 0.71985984 0.05436568 14606046
1.1890461 0.72385728 0.053922851 14803425
1.1914402 0.72458553 0.053142078 14408667
1.1422621 0.67539275 0.060039423 13684142
1.1434292 0.6763835 0.061139349 14079176
1.1493342 0.6831243 0.059397109 13816528
1.1524382 0.68457973 0.059527576 13882323
1.1534863 0.6879015 0.059408825 13355204
1.1588329 0.69267309 0.057996824 12828594
1.1607702 0.69314545 0.057534356 13092028
1.1616592 0.69663441 0.058724783 14540253
1.1638993 0.69835448 0.057605244 14606046
1.1656792 0.69914657 0.057373032 14606046
1.167905 0.70428723 0.056227788 14540253
1.1706113 0.70415157 0.056700028 14540253
1.1717336 0.70672512 0.055803597 14277081
1.1745274 0.70908189 0.055234618 14277081
1.1756318 0.71248055 0.055987984 14606046
1.1773932 0.71307629 0.054785661 14277081
1.1816249 0.71746051 0.054062255 14408667
1.1840568 0.72103965 0.053264119 14277081
1.185357 0.72278619 0.054440461 14606046
1.1871911 0.72391689 0.053688515 14342874
1.1899147 0.72780162 0.053432319 14671839
1.1395586 0.67561865 0.059313431 13486507
1.1444545 0.68079287 0.058641236 13619138
1.1464001 0.68194246 0.058981217 13750734
1.155519 0.69260359 0.056946024 12697264
1.1578455 0.69501662 0.054503635 12631205
1.1591748 0.69727296 0.055230923 13421772
1.162167 0.69843787 0.055656023 13882322
1.163385 0.70292187 0.054473959 14013909
1.1662199 0.70387554 0.05501958 14145495
1.1687155 0.70605993 0.054580227 13948116
1.169873 0.70943427 0.0545501 14013909
1.1717784 0.70960271 0.054531042 14013909
1.1741568 0.71311927 0.054268405 14079702
1.1776133 0.71725094 0.053388081 14145495
1.180913 0.72057831 0.053343683 14277081
1.1360739 0.67503166 0.058053948 12300414
1.1404649 0.67989445 0.056861736 13090956
1.1424017 0.6802128 0.057871923 13619123
1.1454179 0.68446636 0.054980651 13224393
1.1481119 0.68786025 0.054886572 13553357
1.1505225 0.68961191 0.05524312 13487307
1.1523885 0.69222844 0.054571852 13289669
1.154313 0.69476473 0.053979658 12829370
1.1562016 0.69556916 0.054156039 12631474
1.1578799 0.69832087 0.053077117 13355718
1.1603777 0.70154548 0.052219212 13619151
1.1614971 0.70263791 0.054708444 14013909
1.1803341 0.72313273 0.048490804 13816530
1.1822851 0.72582036 0.04828389 14145495
1.1849312 0.72717917 0.048268579 14342874
1.1865253 0.72976232 0.047876306 14277081
1.1321036 0.67370409 0.056391411 10653765
1.1362194 0.67843938 0.055246338 11969081
1.1384481 0.67914492 0.056091648 12694635
1.1425211 0.68448383 0.05426728 13290186
1.1447122 0.68706429 0.054246455 13421772
1.1460781 0.68978202 0.054184616 13421771
1.1481955 0.69152784 0.053989056 13224134
1.1505104 0.69303668 0.053913523 12960702
1.1521823 0.69594204 0.0537825 12105647
1.15434 0.69825357 0.052885503 12566197
1.1558926 0.69996202 0.052543133 13487563
1.1584036 0.70260561 0.051353913 13685197
1.159656 0.70457006 0.049857937 13092807
1.1612512 0.70662147 0.049618229 14079702
1.1645644 0.70897973 0.049170174 14145495
1.1662169 0.71139729 0.048982412 14145495
1.1682596 0.71362269 0.048690937 13948116
1.1707093 0.71605682 0.048532091 13816530
1.17242 0.71794981 0.048577059 13882323
1.1745038 0.71966863 0.048007399 13882323
1.1762397 0.72245872 0.047652423 14079702
1.1784564 0.72358429 0.047508687 14013909
1.1803126 0.72669804 0.047373492 13948116
1.1817688 0.72943252 0.047508247 14211288
1.1843286 0.73053867 0.047090124 13948116
1.1290653 0.67282534 0.055798128 10587456
1.1323658 0.6782161 0.05414186 11243032
1.1342487 0.67852259 0.055196658 11903291
1.1363024 0.68237692 0.053005934 13092790
1.1385871 0.68445611 0.052916225 13421769
1.1405704 0.68618578 0.052896209 13421771
1.1425571 0.68811667 0.053105518 13290186
1.144047 0.68977296 0.05265528 13290186
1.1463804 0.69276309 0.053584713 13092807
1.1493474 0.69529784 0.049963482 11908532
1.1500722 0.69608831 0.052833997 13158600
1.1530139 0.6999051 0.051757462 13092807
1.1555302 0.70203316 0.051692557 13355976
1.1566559 0.70416564 0.050629392 14013909
1.1577684 0.70653272 0.04927494 13553358
1.1602902 0.70816708 0.049065918 13619151
1.1624173 0.7094593 0.048506569 13816530
1.1642638 0.71291018 0.04821514 13750737
1.1661135 0.71460509 0.048308536 13816530
1.1678271 0.71671212 0.04783361 13750737
1.1710027 0.71929765 0.047185838 13684944
1.1729093 0.72277379 0.046700411 13553358
1.1741968 0.72288048 0.046613533 13750737
1.1762589 0.72574329 0.046622761 13948116
1.1784143 0.72738755 0.045919761 13816530
1.1803894 0.72994506 0.04556245 13684944
1.1829119 0.73175263 0.044861287 13553358
1.124727 0.67323661 0.052519724 11048041
1.126188 0.67306775 0.054120354 10784590
1.128515 0.67764437 0.051829718 12823131
1.1304628 0.67766845 0.053168986 12033336
1.1325862 0.68160844 0.05164507 12763018
1.1344677 0.68339646 0.051337115 13224110
1.1364254 0.68509024 0.051523 13356233
1.1375384 0.68676102 0.051931396 13027014
1.1433337 0.69195879 0.049039863 9408122
1.1444336 0.69496697 0.048957784 9408898
1.147351 0.69561505 0.049159087 11185064
1.1549383 0.70596325 0.048806883 13092807
1.1568518 0.70793301 0.048984867 13487564
1.158663 0.71009547 0.047370978 13487564
1.1604829 0.7112537 0.046310302 13092807
1.1623402 0.71380532 0.047031581 13355979
1.1647933 0.71669149 0.046044961 13487565
1.1672112 0.71965235 0.045147762 13619151
1.1683394 0.72002542 0.046152439 13553358
1.1702423 0.72302413 0.045520358 13421772
1.1729531 0.72644871 0.045297444 13487565
1.17487 0.72635376 0.045391738 13487565
1.176488 0.72982812 0.04482054 13290186
1.1769326 0.73139977 0.044418193 13750737
1.1810827 0.7334078 0.043203901 13290186
1.1231341 0.67434955 0.051342059 9733475
1.1266743 0.67761302 0.050617047 12098660
1.1293089 0.6806553 0.049754843 11706170
1.1309659 0.68252122 0.049952373 12695931
1.1327889 0.68450499 0.050329197 13158586
1.1342909 0.68756366 0.048123367 12500916
1.1362944 0.68909466 0.048407353 11381141
1.1385698 0.69138098 0.04884126 8946536
1.1404164 0.69332868 0.048540965 8355680
1.142277 0.69468772 0.04858993 8421995
1.1433609 0.69899452 0.047649056 12106164
1.1484616 0.70208859 0.046682835 12763841
1.1569206 0.71067119 0.047032394 13092807
1.1607052 0.71561337 0.045467887 13553358
1.1633444 0.71813321 0.042794086 12763842
1.1651187 0.71947968 0.043764025 13158600
1.168097 0.72404623 0.041693263 12763842
1.1702628 0.72486043 0.041650198 12895428
1.172034 0.72839522 0.041446969 12895428
1.1750716 0.72939408 0.041547477 12961221
1.1769617 0.73297381 0.04131221 12961221
1.1782258 0.73507148 0.04143367 13027014
1.1804203 0.73678643 0.041491266 13158599
1.1215665 0.67482215 0.049355552 9340010
1.1215034 0.67693007 0.050163526 9011302
1.1247133 0.679447 0.048903607 10718561
1.1275277 0.68211102 0.048775978 11574598
1.1289215 0.68432933 0.048439518 12170378
1.1306965 0.68549085 0.047948562 11843499
1.1330394 0.68824017 0.04858759 10920331
1.1448996 0.70192593 0.045888711 12500667
1.1464741 0.70350301 0.045164809 12698047
1.1515361 0.70812714 0.043372359 12763842
1.1537887 0.71014416 0.042457059 12829635
1.1569692 0.71483606 0.041782942 12763842
1.1589098 0.716694 0.041852489 12698049
1.1609488 0.71804011 0.042243637 12698049
1.1621443 0.72160065 0.041915659 12763842
1.1648686 0.72369522 0.041699417 12763842
1.1662953 0.7259655 0.041706704 12763842
1.1692148 0.7272352 0.041567393 12829635
1.1710217 0.73116273 0.041060582 12895428
1.1732252 0.73183656 0.04119473 12895428
1.1201388 0.67665112 0.047665462 10393214
1.1199596 0.67849737 0.048714243 9669499
1.1226897 0.68103069 0.047386259 11180930
1.125424 0.68292737 0.046738662 10326373
1.1268423 0.68471813 0.046919316 10853495
1.1484475 0.71078062 0.04242165 12698049
1.1505058 0.71127546 0.042727061 12763842
1.1533977 0.71344769 0.04187347 12763842
1.1544226 0.71653843 0.0417412 12698049
1.1573266 0.71768677 0.041607834 12698049
1.1591133 0.72078091 0.041701354 12698049
1.1150358 0.67575735 0.044772465 12562842
1.1175357 0.67817199 0.045883451 11840408
1.118533 0.67935658 0.046157096 11774355
1.120827 0.6812914 0.045774769 12825754
1.1233931 0.68431532 0.045759395 10326910
1.1248949 0.68626487 0.04503946 11641735
1.0999515 0.66275334 0.045453452 11970445
1.1036191 0.66707623 0.044820685 11970184
1.1056489 0.66709173 0.045359556 12101768
1.1074468 0.67107671 0.044745095 11904651
1.1088331 0.67213821 0.044781975 12364168
1.1108272 0.67492354 0.044577289 12627340
1.1133518 0.67675787 0.044632971 12496784
1.1148272 0.67940259 0.044627599 12431509
1.1168509 0.68151617 0.044246934 12825745
1.1188767 0.68223846 0.0449089 12890769
1.1222856 0.685835 0.042655215 11839365
1.1231365 0.68763769 0.042891067 11510410
1.1249528 0.68838382 0.04147996 10985358
1.0860898 0.64989001 0.046295621 12367524
1.0889573 0.65309703 0.046036422 12432026
1.0912261 0.65606171 0.045162514 12233878
1.0933263 0.65872109 0.045183584 12036239
1.0953854 0.66133201 0.045236338 11970442
1.0979306 0.66179132 0.045800261 11838858
1.0986052 0.66565824 0.04462637 11838598
1.1017721 0.66736525 0.044244274 12101508
1.1050961 0.67118573 0.044020534 12232838
1.1068404 0.67413723 0.044250265 12298635
1.1093961 0.67509288 0.044320665 12168085
1.1112115 0.67837 0.044440195 11905942
1.119158 0.68624169 0.040737685 11905156
1.120955 0.68880779 0.040594321 11444608
1.1227562 0.69099379 0.039852679 12037272
1.0754626 0.64291537 0.045381896 12103585
1.0794826 0.64695799 0.044988208 12169121
1.0814545 0.64806747 0.045629587 12301218
1.0840642 0.6505456 0.045450218 12168861
1.085111 0.65344292 0.045630362 12168341
1.0873625 0.6558907 0.045096606 12102291
1.0895667 0.65771604 0.045185074 11905167
1.0909905 0.66070765 0.044348322 12364425
1.092986 0.66121781 0.044806458 11970184
1.0949088 0.6643455 0.043839201 12495492
1.0980327 0.6678437 0.043459464 12231801
1.0991461 0.66805577 0.042275071 12363899
1.1016151 0.67073238 0.042762529 12232832
1.1025616 0.67200387 0.040905334 12429683
1.1065013 0.67706603 0.039671004 12430206
1.1093016 0.67970037 0.03890197 13022079
1.1105951 0.68136102 0.039150886 12825738
1.1139631 0.68429124 0.038749207 12826769
1.1154622 0.68690979 0.039176527 12365694
1.1176305 0.68866801 0.039344337 12036739
1.1195772 0.69054347 0.039024431 11247235
1.1198627 0.69262516 0.039151575 12694942
1.1217276 0.69515294 0.03756642 11380107
1.0629145 0.63257658 0.045656919 11972514
1.0657194 0.6352371 0.045853164 12104099
1.0696892 0.63921183 0.045063544 12103842
1.0710611 0.64224744 0.045128793 11971997
1.0731629 0.64251661 0.045147523 12103584
1.0749836 0.64569306 0.044911101 12103326
1.0773429 0.64800823 0.045098193 12037532
1.0798004 0.65053707 0.045066636 12102810
1.0817591 0.65381604 0.044966597 11970704
1.0830735 0.65415502 0.044785254 11839634
1.0850317 0.65653419 0.041256044 13090197
1.0865182 0.65834713 0.043009818 12234122
1.0893016 0.66039264 0.041114762 12826251
1.0908554 0.66359782 0.040489919 12562568
1.0931767 0.66591012 0.040593542 12693633
1.0951077 0.66751492 0.040725615 12232828
1.0972416 0.67006868 0.039527003 12298367
1.0995985 0.67193264 0.040171552 12363898
1.1013066 0.67479634 0.03938501 12429693
1.1031524 0.67682749 0.039561659 12561536
1.1057028 0.67847586 0.038874995 12626815
1.1074558 0.68077397 0.038923189 12693896
1.1092273 0.68365526 0.038592711 12628102
1.1116477 0.68531185 0.038071848 12562821
1.1138676 0.68734324 0.038059518 12431752
1.1151197 0.68959016 0.037218951 11246973
1.1170275 0.69146824 0.037824161 11115649
1.1202152 0.69583899 0.036710713 11314314
1.0576625 0.62959099 0.045927659 11840929
1.0594349 0.63173509 0.045514151 11840929
1.06159 0.63416052 0.045619138 11972257
1.063334 0.63623941 0.044982828 11840158
1.0655708 0.63872153 0.044897944 11971741
1.067035 0.64030284 0.044603009 11774362
1.068934 0.64247739 0.044443116 11905689
1.0717353 0.6452198 0.043778192 12432026
1.0731025 0.64641249 0.042107455 13155737
1.0751865 0.64901298 0.041309126 12629914
1.0775738 0.65152717 0.041217458 12563865
1.079128 0.65291941 0.041289899 13155475
1.0815724 0.65588021 0.040794235 12563862
1.0836371 0.65844774 0.040704176 12695187
1.0857748 0.66032028 0.040240847 12299662
1.0877316 0.66249233 0.040370286 12431243
1.0893224 0.6645745 0.039629057 12496782
1.0914373 0.66698635 0.039217316 12232835
1.0934782 0.66954172 0.039115429 12167040
1.0954878 0.67138773 0.038806036 12232575
1.0975897 0.67327058 0.038888246 12166266
1.0991334 0.67576021 0.038543694 12429441
1.1010541 0.67858195 0.038110856 12363137
1.1039257 0.67990059 0.038001444 12693124
1.1057409 0.68300825 0.037469469 12429700
1.1078033 0.68448782 0.036587909 12232579
1.1099638 0.68722886 0.036609001 12233085
1.1116507 0.68918204 0.036286116 11115385
1.1158885 0.69551486 0.035683896 11116936
1.1206512 0.69801182 0.033427633 11248521
1.1220565 0.69789511 0.03385397 11445645
1.0531294 0.62916791 0.044029165 12563352
1.0554206 0.62974513 0.045775518 11906722
1.0578752 0.63318628 0.043903656 12563611
1.0596552 0.63583767 0.042584885 12760731
1.061715 0.63786113 0.042269118 12695454
1.0638471 0.63956606 0.042069383 12761248
1.0659838 0.64213288 0.041692365 12432282
1.067698 0.64413595 0.041593935 12497561
1.0698329 0.64607525 0.041451346 12497556
1.0714376 0.64873159 0.040595703 12103321
1.073702 0.65101838 0.040901747 12563350
1.0756807 0.65292257 0.040186368 12365976
1.0777676 0.65524709 0.040174492 12365716
1.0797437 0.65722442 0.039939549 12234132
1.0815226 0.65966749 0.039756093 11970700
1.0833681 0.66148937 0.039354663 12299664
1.0856503 0.66396439 0.039053351 12167308
1.0879848 0.6667819 0.039023846 11969408
1.0905721 0.66952485 0.03907299 11837308
1.0914009 0.67041242 0.038319625 12101250
1.0942162 0.67384517 0.037906937 12099706
1.0959631 0.674335 0.03772454 12297339
1.097551 0.67839289 0.03721277 12363393
1.0992959 0.67882311 0.037068274 12494980
1.1028788 0.68259543 0.036751341 12166265
1.1064751 0.68731838 0.035688516 11378035
1.1082647 0.68781775 0.035391655 11772798
1.1126223 0.69515604 0.033344932 10787456
1.1154902 0.69731617 0.03189864 10919558
1.1180807 0.69853067 0.032863081 11117190
1.1187248 0.70061553 0.032796301 11182729
1.0495684 0.62796891 0.043613568 12235165
1.0513434 0.62983608 0.042942602 12300957
1.0535247 0.63230854 0.042390563 12367011
1.055479 0.63444567 0.042227779 12498080
1.0575906 0.63643706 0.041923661 12235683
1.059471 0.63882965 0.041160218 11840673
1.0617288 0.64157546 0.040837474 11971741
1.0634873 0.64297581 0.040555164 11971999
1.0658569 0.64537537 0.04049642 11839638
1.068087 0.64861858 0.039844386 11839637
1.0699105 0.65011358 0.039566997 11773332
1.0714184 0.65195346 0.039615728 11905687
1.0736477 0.65439826 0.03986723 11904915
1.0755765 0.65694094 0.039101057 11970962
1.0776408 0.65981603 0.038602337 11904392
1.0796431 0.66023958 0.038990311 11838343
1.0821809 0.66379213 0.03820017 11903877
1.104275 0.68769807 0.031011499 7302997
1.1074873 0.69200826 0.031453542 9669493
1.1101637 0.69368088 0.031967327 10261629
1.1130989 0.69523543 0.031584531 10787715
1.0498769 0.63166237 0.039981656 11774361
1.0518985 0.63398993 0.040535651 11577759
1.0542126 0.63537204 0.039983556 11511708
1.0557666 0.63823944 0.040102575 11511195
1.0579791 0.63916731 0.039977197 11708572
1.0589949 0.64280993 0.039173912 11576468
1.0621449 0.6455425 0.039635796 11444623
1.0634152 0.64587343 0.039175238 11576464
1.0655454 0.64901048 0.039356597 11444623
1.0934565 0.67961818 0.030589852 10063475
1.095986 0.68257332 0.031035865 8353626
1.0982589 0.68341076 0.030903615 8550748
1.0998251 0.68700421 0.030945854 7564628
1.1019523 0.68885756 0.030986018 8090716
1.1047779 0.69105029 0.031216489 9208943
1.0460088 0.63082862 0.039476231 10787213
1.0483569 0.63352418 0.039833043 11379088
1.0496309 0.6349746 0.039948009 11708829
1.0522336 0.6371206 0.040047899 11314074
1.0819287 0.66996682 0.031149335 10392441
1.0857276 0.67434633 0.030744964 10590079
1.0879868 0.67509139 0.030796554 10721405
1.0898763 0.67865145 0.030573932 10063989
1.0917838 0.68116677 0.030522147 8617059
1.0937335 0.68372893 0.030832231 7629907
1.0962496 0.68519688 0.03102533 7170119
1.0441864 0.63320863 0.037707109 5723982
1.0706512 0.66131651 0.030924164 10130044
1.073692 0.66455901 0.030994643 10064508
1.0763259 0.66711104 0.030845102 10195836
1.078949 0.66936487 0.030884983 10327165
1.0798883 0.67236865 0.030720962 10459009
1.0824556 0.67407453 0.030719901 10327422
1.0838032 0.67671353 0.030335059 9998714
1.08662 0.67751753 0.030511886 10064504
1.0877287 0.68076408 0.030278245 8354398
1.0500855 0.64236504 0.032213211 9867390
1.0546896 0.64718235 0.031489935 9669751
1.0577791 0.65084851 0.031504661 9669753
1.0598912 0.65194744 0.031246981 9801338
1.0622275 0.65547413 0.03108605 9801340
1.0642681 0.6577962 0.031078553 9932672
1.0663202 0.66023898 0.031041875 9998720
1.0680838 0.66205072 0.030830313 9998976
1.0708303 0.66398209 0.030710915 10064509
1.0717741 0.6668089 0.030730357 10130304
1.0738907 0.66773093 0.030656138 10196096
1.0768775 0.67122746 0.030727725 10327683
1.0440542 0.63884509 0.031333383 9735559
1.0463399 0.64180613 0.032104179 9670014
1.0480297 0.6443491 0.03205001 9341043
1.0510563 0.6456421 0.031821437 9472628
1.052354 0.64837891 0.031346161 9472373
1.0547482 0.65002871 0.031290486 9538167
1.0556943 0.6529153 0.031272024 9472120
1.0585847 0.65426773 0.031063216 9603959
1.0609492 0.65769196 0.030984472 9735549
1.0417368 0.63856155 0.030883588 5592918
1.0419805 0.64054942 0.0313005 8288370
1.0437207 0.64334762 0.031541385 9340794
1.0498011 0.64821047 0.031371713 9275250
1.0386162 0.64015687 0.029694175 3292496
1.1501822 0.68278736 0.062907599 10921367
1.1552885 0.68848109 0.061614111 12368818
1.1446611 0.67916703 0.062558949 13948114
1.1466105 0.68262112 0.062437348 11644838
1.150452 0.68701011 0.061918586 10264464
1.15341 0.68790448 0.061783999 11513765
1.1598837 0.69655395 0.058362633 14540253
1.1699255 0.70790339 0.056233466 14540253
1.1740162 0.71207762 0.056182958 14671839
1.1760103 0.71557045 0.056124784 14671839
1.1786427 0.7163372 0.055902049 14671839
1.1827002 0.72106707 0.055339262 14803425
1.1837054 0.72464526 0.055291343 14803425
1.1869063 0.72617447 0.054455493 14671839
1.1879836 0.72986639 0.054392882 14869472
1.139308 0.67697585 0.060709953 13882056
1.1410786 0.6795913 0.061500333 14145749
1.1421444 0.68309414 0.061337654 12960700
1.1450999 0.68323195 0.060891367 13355719
1.1462951 0.6866734 0.060793586 12105907
1.1494561 0.68739843 0.059701018 13223619
1.1522765 0.69239652 0.059289731 12697267
1.1540074 0.69465411 0.058986779 14079703
1.1569188 0.69574642 0.05856739 14408665
1.1610899 0.70153689 0.057239573 14474460
1.1643223 0.70323014 0.056465629 14474460
1.1672329 0.70753884 0.056095947 14474460
1.1680908 0.71117425 0.05599799 14474460
1.171237 0.71219927 0.055376366 14342874
1.1719811 0.71572125 0.055466838 14540253
1.1739174 0.71554005 0.055954494 14606046
1.1761122 0.71984518 0.055339724 14671839
1.179006 0.72062051 0.054574162 14540253
1.1811396 0.72416842 0.053203411 14211288
1.1825206 0.72445709 0.054266229 14474460
1.1844904 0.72741741 0.053368039 14277081
1.1867328 0.73072743 0.053168725 14342874
1.1346723 0.67661339 0.060198382 13750210
1.1366038 0.67849833 0.060376015 13882315
1.1384398 0.68071955 0.060021766 13816783
1.1411901 0.68272406 0.059159633 13619149
1.1425613 0.68348253 0.060258038 13684944
1.149688 0.69146538 0.058794066 11578522
1.1530309 0.6971724 0.056560919 13158337
1.1560569 0.69763923 0.056284945 13487305
1.1574403 0.70099914 0.05697149 14408667
1.1593552 0.70301139 0.054247592 14013909
1.1605465 0.70597017 0.056336761 14408667
1.1631378 0.70673263 0.055082388 14145495
1.1648743 0.70899129 0.054814339 13882323
1.1668063 0.71098483 0.054964773 14079702
1.1689998 0.71273172 0.054412797 13948116
1.1711439 0.71625757 0.054151028 14013909
1.174576 0.71734416 0.053291544 14079702
1.174821 0.72088027 0.052935109 14079702
1.1769499 0.72074127 0.053104676 14145495
1.1782008 0.72434247 0.052909914 14145495
1.1292341 0.67469943 0.058318958 12958613
1.1310004 0.67586827 0.059008904 13420202
1.1331599 0.67623794 0.059122987 13486256
1.1352051 0.6803683 0.057498548 13487534
1.1373338 0.68126041 0.058103636 13553343
1.1415439 0.68682957 0.055308066 13290185
1.1443678 0.69026214 0.055335559 13092548
1.1466627 0.69196194 0.054780927 13421255
1.1494548 0.69488776 0.054470204 12039344
1.150689 0.69695932 0.054549351 12894908
1.1542513 0.70201242 0.055081733 13882323
1.1574936 0.70285082 0.054545924 13948116
1.1587675 0.70681351 0.053799979 13816529
1.1618931 0.70945215 0.05437595 13882323
1.1818981 0.73090386 0.048017934 14474460
1.1835681 0.73320627 0.048045523 14606046
1.1269794 0.67461878 0.057268478 11905391
1.1314077 0.67948163 0.0556168 12694628
1.1323465 0.68067741 0.057224289 13422252
1.1375426 0.68577492 0.054931372 13158599
1.1391226 0.68756902 0.054307751 13487565
1.1410288 0.68990469 0.054416459 13355720
1.1430516 0.6920163 0.054589771 13618889
1.1447611 0.69401085 0.054059476 13158082
1.1473178 0.69602197 0.05381253 12960961
1.1491696 0.69837654 0.052623231 12895168
1.1511041 0.70092356 0.052303676 13487564
1.1536201 0.70286876 0.051313043 13355977
1.154879 0.70455575 0.05061182 13948116
1.1641897 0.71462584 0.049064912 14145495
1.1657927 0.71685469 0.049105279 14145495
1.1678653 0.71912634 0.048712209 13619151
1.169289 0.71925193 0.048663028 13948116
1.1711754 0.72286201 0.048057485 13882323
1.173317 0.72548497 0.047165915 14342874
1.175542 0.72725546 0.047246784 14079702
1.1782376 0.729895 0.04694169 14211288
1.1798501 0.73151481 0.047320582 14013909
1.1809744 0.73406374 0.047212243 14145495
1.1247118 0.67497027 0.055753954 10589014
1.1285385 0.67875785 0.054837193 11903303
1.1316955 0.68297803 0.052891575 13027005
1.1330025 0.6845876 0.053311635 13158854
1.1352799 0.68693894 0.053619228 13421514
1.137213 0.68953764 0.053513288 13290182
1.1388311 0.69125879 0.053458508 13092022
1.1415459 0.69343686 0.053439576 12960178
1.1435715 0.69657195 0.053057428 12763322
1.1456846 0.69763553 0.052836467 13487564
1.1468313 0.70075655 0.051681433 13158600
1.1484356 0.70201623 0.051845316 13487564
1.1516078 0.70439255 0.050559632 13553357
1.1529363 0.70680439 0.049420476 13224393
1.1553071 0.70870662 0.048991136 13816530
1.1582625 0.7104159 0.049083985 14079702
1.1588552 0.71315312 0.04854551 13816530
1.1609576 0.71552485 0.048259482 13750737
1.1631688 0.71708626 0.048700787 13882323
1.1655401 0.72000301 0.04771322 13750737
1.166932 0.72329944 0.047926299 13816530
1.169341 0.72340071 0.047280788 14013909
1.1709987 0.72665882 0.046327621 13882323
1.1726944 0.72864693 0.047014512 14013909
1.1754026 0.73069644 0.046142966 13948116
1.1773907 0.73311281 0.046086483 13882323
1.1798248 0.73503697 0.044805039 13553358
1.1226269 0.67585409 0.053813167 9142103
1.1264968 0.67983359 0.053838849 11574353
1.1288601 0.68419445 0.052068006 13224121
1.1312646 0.68605244 0.052375808 13421767
1.1336204 0.68726397 0.052582495 13290185
1.1363798 0.69172078 0.049248382 7171409
1.1498476 0.70583773 0.049631402 13421772
1.1520946 0.70815927 0.049656995 13684944
1.1540642 0.71066308 0.047855474 13487565
1.1556127 0.71215928 0.04814418 13619151
1.1578801 0.71434486 0.046505526 13355979
1.1592067 0.71723604 0.047024857 13553358
1.1619589 0.71855146 0.046318602 13355979
1.1632885 0.72055495 0.046438403 13619151
1.1663269 0.72335792 0.045652051 13487565
1.1677489 0.7265932 0.045242798 13355979
1.1691549 0.72673512 0.045064628 13684944
1.1717664 0.73006427 0.044949699 13487565
1.1733479 0.73299861 0.044614837 13290186
1.1760666 0.73503208 0.044544525 13619151
1.1211145 0.67713261 0.052438915 8945257
1.1246721 0.68084288 0.0516266 10126923
1.1260706 0.68393809 0.050599776 12169098
1.1274914 0.68576539 0.050097369 11710361
1.1296828 0.68738025 0.050171524 11052950
1.1323162 0.68994874 0.050179604 8224362
1.1341437 0.69155669 0.050178811 8488053
1.1358982 0.6940968 0.049398459 9146497
1.1373881 0.69512331 0.048990317 9343875
1.1389803 0.69717753 0.047963224 10659481
1.1412351 0.69925416 0.047010019 11382693
1.1496267 0.71071404 0.047465414 13092807
1.1512557 0.71061665 0.047605231 13421772
1.1535143 0.71387482 0.046599105 13290186
1.1558198 0.71528053 0.046307921 13619151
1.1564205 0.71753335 0.046195358 13158600
1.1590934 0.72050703 0.044875454 13355979
1.1610085 0.72276533 0.044364505 13553358
1.1633819 0.72344226 0.045283288 13355979
1.1653438 0.72639781 0.045102682 13619151
1.1683371 0.7299937 0.043021996 13027014
1.1693203 0.73058647 0.042957008 13224393
1.171392 0.73377872 0.041176595 12829635
1.174088 0.73549211 0.041238647 12895428
1.1755341 0.73760867 0.041378614 12895427
1.1770308 0.73993313 0.041409057 12961218
1.1196108 0.68036628 0.049789056 10129785
1.121601 0.68297392 0.049524516 9274470
1.1243172 0.68453294 0.048997015 9340527
1.1256871 0.68659699 0.049309675 11841174
1.1270883 0.68727452 0.0479072 13619126
1.135559 0.70035219 0.046691723 11908781
1.1556331 0.71976995 0.043139204 13092807
1.15697 0.72056329 0.041365527 12698049
1.1595694 0.72369158 0.041604377 12698049
1.1626444 0.72483659 0.041563518 12829635
1.1637628 0.72814453 0.041338529 12763842
1.1658758 0.73087603 0.0411883 12763842
1.1684926 0.73304582 0.040974993 12829635
1.1696171 0.73555553 0.041297387 12829634
1.1717714 0.73663354 0.041141093 12829635
1.174417 0.7398504 0.041346349 12895681
1.1174489 0.68103409 0.04855888 10787723
1.1208419 0.68394357 0.047378156 11575947
1.121923 0.68551242 0.047030557 11643027
1.1236422 0.68809009 0.046953738 13090726
1.1371557 0.70311821 0.045070313 12303536
1.1394615 0.70541239 0.044066876 12632250
1.1424031 0.70757508 0.043289322 12698047
1.144698 0.70957124 0.042475358 12698048
1.1460097 0.7114737 0.042248793 12632256
1.1480483 0.71424031 0.041775044 12566463
1.1500188 0.71647429 0.041614152 12632256
1.1520786 0.7185201 0.041623514 12698049
1.1539904 0.72075701 0.04136429 12632256
1.1558976 0.72257829 0.041440222 12632256
1.1570129 0.72570765 0.041352138 12632256
1.1599681 0.72707367 0.041168533 12698049
1.1633899 0.73078084 0.041201282 12763842
1.1148113 0.6813736 0.045288857 10328194
1.116063 0.68251991 0.046418756 10722184
1.1182437 0.68481362 0.046198942 11641220
1.1197729 0.68699843 0.045989648 12695715
1.1216747 0.68886131 0.044980701 12629662
1.1414014 0.71206105 0.041848656 12632256
1.1435871 0.71285015 0.041767262 12566463
1.1469643 0.71678448 0.041693036 12566463
1.1517487 0.72211254 0.040926501 12632256
1.1058619 0.67475581 0.044243339 12036240
1.1081651 0.67774153 0.044724155 12364428
1.1098942 0.67936736 0.044833805 11576202
1.1120417 0.68142545 0.044707309 11576194
1.1146455 0.68340498 0.045112673 11904131
1.115435 0.68706155 0.043592669 10721913
1.1179903 0.68914127 0.043057397 12497823
1.1198907 0.69048721 0.043506268 13024424
1.0902916 0.66188556 0.044710707 11378304
1.0952148 0.6654973 0.045010667 11246718
1.0960038 0.66882712 0.04396566 11837820
1.0980608 0.67038488 0.044097219 11772030
1.0999372 0.67239261 0.043903969 11969411
1.1027296 0.67455202 0.044055983 12232326
1.104725 0.67695463 0.044120025 12167046
1.1059425 0.67866778 0.044403255 11838598
1.1075337 0.6808337 0.044805381 10130040
1.111068 0.68678772 0.042642273 9932395
1.1132644 0.68843704 0.042068817 10195823
1.1157249 0.69012403 0.04126149 11773062
1.118021 0.69174659 0.040926792 12168080
1.1198494 0.69320512 0.040855527 13024418
1.0745044 0.64784777 0.045174658 12168859
1.0764278 0.65061671 0.045291916 12299671
1.0803148 0.65338886 0.045529097 12233361
1.0822295 0.65651166 0.045279428 12167049
1.0839937 0.65728176 0.044835486 11838857
1.0870237 0.66093749 0.044346627 11903875
1.0884053 0.66278541 0.04430173 11706493
1.0908927 0.66494888 0.043762863 11837819
1.0922247 0.66660798 0.043946031 11574648
1.0936878 0.66950196 0.04373838 11640184
1.0961533 0.67104536 0.04337623 12033909
1.09798 0.67405862 0.04360912 11903361
1.1078117 0.68616676 0.040022928 10392178
1.1105609 0.6872654 0.04036301 11246709
1.1121356 0.68912542 0.039787918 11049324
