# .PCD v0.7 - Point Cloud Data file format
VERSION 0.7
FIELDS x y z rgba
SIZE 4 4 4 4
TYPE F F F U
COUNT 1 1 1 1
WIDTH 1192
HEIGHT 1
VIEWPOINT 0 0 0 1 0 0 0
POINTS 1192
DATA ascii
1.1479027 0.71027321 0.098887354 5531545
1.1090735 0.66588175 0.10220003 7371682
1.1112963 0.66659284 0.10299966 7241127
1.1189793 0.67646885 0.10109639 4814000
1.1204767 0.67851943 0.10102795 4945589
1.122107 0.68117404 0.10118869 5011391
1.1236969 0.6839202 0.1015024 4680885
1.1430522 0.70660317 0.10035172 4681920
1.1454735 0.70854264 0.099357709 5401516
1.1474313 0.71021193 0.098373592 4016508
1.1483926 0.7130326 0.098264128 3754359
1.1069709 0.66556841 0.10120364 7239577
1.1129802 0.67432851 0.099153176 6717870
1.1149606 0.67567039 0.10002987 5141680
1.1166996 0.67776853 0.099698663 4880318
1.1180054 0.67989147 0.10028078 5011381
1.1200348 0.68089646 0.10045891 5143486
1.1219739 0.68341488 0.10066567 5076401
1.1011084 0.6630404 0.099070996 7896206
1.1039226 0.66503727 0.10008918 7436436
1.1097953 0.67258573 0.096804902 7110577
1.1110692 0.67424363 0.09863016 7440048
1.1131614 0.67745173 0.09779644 5602229
1.1145803 0.67807484 0.098246261 4946369
1.0980766 0.66176409 0.097731739 8355465
1.1049839 0.67231953 0.096658945 7437738
1.107399 0.67313099 0.096924692 7109804
1.108815 0.67546153 0.096245557 7900086
1.1106331 0.67714995 0.097223625 7047873
1.0947682 0.66038281 0.096034527 8091510
1.0960946 0.66187221 0.097072363 8421000
1.1034466 0.67239368 0.094998732 7437478
1.1050066 0.67482173 0.094918609 7241387
1.1064581 0.67607385 0.094663024 7374772
1.0974656 0.67076921 0.092999965 8094625
1.0996956 0.67144907 0.093253255 8028578
1.1012993 0.67331976 0.092699751 7831975
1.1028333 0.67539632 0.092830956 7701419
1.0939426 0.66933203 0.091577634 7830680
1.0959687 0.67030805 0.091661498 8290203
1.0976521 0.67232698 0.092710868 7962529
1.0998939 0.67529708 0.091880187 7832232
1.0922409 0.66949081 0.089876264 4802395
1.0930924 0.67116129 0.09023194 6184056
1.0807596 0.65775985 0.088270187 2236715
1.0727674 0.65009093 0.088297293 1316131
1.074185 0.65170389 0.087543175 1645608
1.0748029 0.65505815 0.087432012 2434860
1.0770497 0.65750015 0.086820558 2303020
1.0785094 0.65983504 0.086515948 2171437
1.0806648 0.66164285 0.087737933 2039594
1.0810632 0.66508943 0.087437853 2104872
1.0746371 0.65904468 0.086728945 2369071
1.0783104 0.66210771 0.087011293 2039852
1.0885521 0.67455077 0.085312903 1184813
1.0862494 0.676871 0.081212431 2500668
1.0548612 0.65211082 0.075915828 1446162
1.0559314 0.65370315 0.077196121 1446416
1.0592524 0.65709162 0.077266753 1644316
1.0530198 0.65303034 0.076085031 1511952
1.0586877 0.66003489 0.075234026 2038560
1.046741 0.65066445 0.073536351 1445650
1.0480537 0.65301311 0.073462382 1511439
1.0503445 0.65401679 0.073384538 1511696
1.056532 0.66056991 0.072418526 1972769
1.0453248 0.65313017 0.071466401 1642520
1.0546024 0.65939891 0.071020335 1972769
1.0521209 0.6626581 0.068353847 1972771
1.0436963 0.658153 0.067611709 1576475
1.049684 0.66305757 0.06820713 1973282
1.0437893 0.65944099 0.064666867 1444889
1.0393405 0.65866131 0.062419698 4010279
1.0382541 0.66034198 0.062135756 3549475
1.035105 0.66075611 0.060363442 5456176
1.1257002 0.67265856 0.11131856 7505078
1.1265408 0.67466837 0.11155301 8753089
1.1289693 0.67686307 0.11181304 9145786
1.1305956 0.67902523 0.11195372 7238552
1.1329274 0.68221503 0.11114562 6121609
1.1346576 0.68358421 0.11046447 6582938
1.1362865 0.68675733 0.10963202 7569836
1.1372613 0.68884981 0.10963614 7109296
1.1393187 0.69012403 0.10973667 5662115
1.1408285 0.69188905 0.1086852 6186626
1.1229386 0.67332739 0.10972948 4351139
1.1241533 0.67655355 0.11081378 7635637
1.1335132 0.68745196 0.10667336 5793435
1.1400664 0.69427681 0.10903156 5989778
1.1427643 0.69898194 0.10524392 6189732
1.1188642 0.67251921 0.10670902 5139886
1.1205771 0.6757254 0.10825145 4678305
1.126426 0.68376601 0.10619248 8294583
1.1288604 0.6844781 0.10668257 8753335
1.1305326 0.68646157 0.1069054 8029101
1.131488 0.68953866 0.10734893 5595298
1.1343498 0.69085306 0.10653611 5136795
1.135963 0.69396621 0.10572986 6386856
1.1380919 0.69634235 0.10502014 7965881
1.1396911 0.69864655 0.10518013 7176365
1.1410608 0.70121163 0.1048478 5729444
1.1432532 0.70275182 0.10503626 5334174
1.1453352 0.70576656 0.10493572 4740736
1.1139599 0.66945827 0.10560961 5008553
1.1152697 0.67214942 0.10631511 5008812
1.1167564 0.67412746 0.10669968 5073835
1.1187265 0.6752336 0.10697855 4942250
1.1241868 0.68317306 0.10455681 4941999
1.1266654 0.68573511 0.10512123 7504557
1.1286792 0.68814564 0.1038609 9543105
1.1307827 0.69012731 0.10420297 7964086
1.1324284 0.69258088 0.10430236 5464996
1.1341776 0.69534087 0.10474218 5136282
1.1355581 0.69797313 0.10421194 5926052
1.1377554 0.69987941 0.10323271 8228534
1.1395366 0.70234048 0.10311444 8362698
1.1403757 0.70425373 0.10222284 7901371
1.1094728 0.66838175 0.10482986 6847401
1.1118736 0.66962856 0.10535324 5402279
1.1129885 0.67178237 0.10619467 5008812
1.1209092 0.68111569 0.10309513 4681141
1.122437 0.6844703 0.10320981 5139376
1.1246848 0.68701833 0.10279864 6058677
1.1259586 0.68942612 0.10319141 6715572
1.1278366 0.69138134 0.10369653 7111352
1.1295421 0.69314075 0.10408179 7043248
1.1378318 0.70293206 0.10264251 8227759
1.14152 0.70748746 0.10132171 6126771
1.1432166 0.7103442 0.10075198 4943543
1.1454144 0.71241993 0.1005064 5400994
1.1465076 0.71489024 0.10027868 5466532
1.1485934 0.7170651 0.0997722 4018040
1.1059772 0.66765797 0.1033605 6977439
1.1126559 0.6763885 0.1009472 4879024
1.1153086 0.67965519 0.101603 4879537
1.1169295 0.68182975 0.10137382 5011133
1.1194639 0.68365413 0.10088535 5207988
1.1211303 0.6859445 0.1017319 4943029
1.1221597 0.68816131 0.10130098 4810675
1.1229124 0.69055414 0.10164797 4875172
1.1015861 0.66628218 0.10170084 7173525
1.1044337 0.66725743 0.10183701 7042457
1.1091481 0.67565864 0.099835366 6651825
1.1114872 0.6779834 0.10125542 4879281
1.1133995 0.67996478 0.10003573 4946366
1.1150471 0.68210173 0.10070814 5077175
1.1171701 0.68474495 0.10057156 5274043
1.1186241 0.68723536 0.10035473 5009080
1.1205872 0.68866146 0.10076717 4023216
1.0973567 0.66377282 0.099074274 7830158
1.0987327 0.66526532 0.099910572 7501455
1.1061977 0.67546415 0.098284215 6913711
1.1080871 0.67662334 0.099467769 6520497
1.1095529 0.6789692 0.098582074 5603006
1.1110685 0.68054748 0.10019489 5077963
1.0943655 0.6621815 0.097805128 8355729
1.0949646 0.66410178 0.098602772 7698833
1.0955352 0.66558349 0.099907205 7435664
1.1027234 0.67476499 0.097108707 7043496
1.1048392 0.67567146 0.09742029 7110061
1.1060151 0.67837787 0.097049609 7178426
1.0909264 0.6653735 0.096960187 6056068
1.0990261 0.67373884 0.095203638 6977442
1.1004133 0.67458451 0.095729306 7174564
1.1026392 0.67715645 0.0949312 7372716
1.1034672 0.67923176 0.095688447 7506616
1.0942508 0.67214084 0.093288988 6976412
1.0963616 0.6738466 0.094019085 7108253
1.0984582 0.67628902 0.093994662 7305890
1.1003984 0.6787672 0.09352538 7438505
1.0909114 0.67036957 0.092133865 4081502
1.0924342 0.67282015 0.092390075 5858181
1.0974785 0.68027669 0.091678023 7438499
1.0908471 0.67415106 0.08924976 2699855
1.0924189 0.67855048 0.089228421 6055561
1.0868161 0.67425585 0.087584198 1316652
1.0885189 0.6752435 0.088263467 461605
1.073598 0.66070843 0.087863609 2434355
1.0761385 0.66204309 0.087740734 2105389
1.0782937 0.66631269 0.086466163 2105131
1.0798578 0.66638327 0.086851925 2104872
1.0865364 0.67774546 0.086188212 1711412
1.0749842 0.66603935 0.086714178 2368047
1.0779856 0.66867453 0.08697322 2039083
1.0797898 0.67131168 0.085450053 2104873
1.0864667 0.67940629 0.086141497 1184814
1.0657201 0.65905797 0.08417657 3290185
1.0726295 0.66680431 0.084560066 3028557
1.0747508 0.66710907 0.084094718 2830665
1.0846783 0.68193489 0.08183594 2040120
1.0673231 0.66163218 0.082962498 3487568
1.0670762 0.6644358 0.083243698 3619668
1.0778995 0.67762977 0.082109451 2435137
1.0797722 0.67828095 0.081811577 2303296
1.0829107 0.68252975 0.081324041 2105914
1.0629227 0.66110009 0.080991536 2105901
1.0584644 0.66107643 0.079733521 1446937
1.052482 0.6548298 0.0774443 1446422
1.0470593 0.65403849 0.07559602 1511954
1.0502844 0.65491408 0.075528949 1511953
1.0464621 0.65322196 0.073681816 1446162
1.0433716 0.65589184 0.072375 1576979
1.0308636 0.6618824 0.060063466 5916730
1.1267853 0.67792338 0.11212748 9146810
1.1287415 0.68077195 0.112542 6317717
1.1305028 0.68297261 0.11265457 5002625
1.1326919 0.68551958 0.11198919 5990036
1.1344969 0.68791395 0.11061122 7042980
1.1227908 0.67744601 0.11010848 5137306
1.1249518 0.67969155 0.11197986 6648224
1.1279793 0.68322051 0.11285202 6120338
1.1311337 0.68759215 0.11243241 4477819
1.1327691 0.68926978 0.11150973 6254230
1.1343983 0.69232154 0.11074975 7240615
1.136608 0.6938839 0.10965429 7306927
1.1376038 0.69588077 0.1097282 6650030
1.1391774 0.69723785 0.10895884 5465249
1.1213481 0.67874491 0.10898064 4414098
1.1226196 0.68040013 0.10995187 4807822
1.1297073 0.68955004 0.10730794 6450861
1.1326528 0.69286537 0.10728095 4807059
1.1345389 0.6957534 0.10773878 5398937
1.1364487 0.69789398 0.10699216 7504302
1.1383328 0.7003085 0.10782959 6912939
1.1409975 0.69999802 0.10750362 6186640
1.1415966 0.70449078 0.10624236 5860512
1.1434605 0.70662558 0.10610631 6582167
1.1178234 0.67791462 0.10719553 4743840
1.1192173 0.68057477 0.10764246 5005979
1.1205286 0.68214828 0.10875238 4610190
1.1254739 0.68734205 0.10597768 5664682
1.1270165 0.68887079 0.1065983 5992364
1.1284101 0.6912728 0.10743983 6056874
1.1306312 0.69381344 0.10655241 6122150
1.132802 0.69643348 0.10643902 5004438
1.1341845 0.69887853 0.1062845 5663393
1.1363249 0.70058864 0.10555153 7176370
1.1389081 0.70364797 0.10573006 6781873
1.1398649 0.70559871 0.10557777 5532332
1.1418068 0.70800138 0.10562527 5663912
1.1445609 0.71006024 0.1043359 5070749
1.1444105 0.71258068 0.10510747 5793441
1.1081185 0.67022467 0.1067825 5270953
1.1095645 0.67184204 0.10689723 5008555
1.1117296 0.67365992 0.10706782 4943021
1.1134751 0.67603767 0.10710895 4745131
1.1154188 0.67741728 0.10734026 4217502
1.1168576 0.68051767 0.10742079 3625872
1.1234187 0.68881178 0.10424319 4611489
1.1250472 0.69084555 0.10481231 3626654
1.1267793 0.69313973 0.10436946 4548265
1.1289064 0.69572926 0.10464838 6715055
1.1310108 0.69687259 0.1051839 6121381
1.1334082 0.70080453 0.10489346 4806289
1.1349813 0.70224464 0.10490642 6057636
1.1363108 0.70423222 0.10418198 7372979
1.1383991 0.70699883 0.10360895 7637690
1.1395553 0.70982474 0.10300189 7112636
1.1413019 0.71227753 0.10234201 5733572
1.1442087 0.71431792 0.10112379 5402291
1.1458205 0.71622133 0.1019575 5859745
1.1467125 0.71923864 0.10155714 5796266
1.1052343 0.66927266 0.1050663 6847140
1.1061448 0.6703729 0.10575393 6190500
1.1182033 0.68568784 0.10200606 4022444
1.119791 0.68816757 0.10221882 4218536
1.1214191 0.68932283 0.10320152 4743075
1.1231412 0.69194591 0.10352023 3691414
1.1249824 0.69482088 0.10314813 2640782
1.1273755 0.6966024 0.10450888 5797810
1.1406754 0.71370053 0.10190046 6586026
1.1424595 0.71546423 0.10170683 5403317
1.1441027 0.7169497 0.10146175 5402548
1.1453741 0.72037637 0.10091732 5597354
1.1479082 0.72224367 0.10010093 5267851
1.1009736 0.66848302 0.10293958 7042454
1.1028522 0.66991574 0.10358132 6977695
1.1037197 0.67227101 0.10485281 6650023
1.109 0.67801225 0.10189022 4878772
1.1101894 0.67995948 0.10215567 4813490
1.1118246 0.68149406 0.10174717 4945590
1.113665 0.68444908 0.10183944 5142197
1.1160549 0.6851483 0.1018721 4943280
1.1169467 0.68851739 0.10185333 3955367
1.1190516 0.69093072 0.10129076 4283300
1.121215 0.69328785 0.10088933 4480413
1.1225114 0.69613117 0.10202192 3822479
1.0966682 0.66713202 0.10125181 7107216
1.098645 0.66889584 0.10171215 7107474
1.1000301 0.67142785 0.10290912 7108504
1.1062317 0.67822683 0.10043165 6060720
1.1082603 0.68044537 0.10125087 5010863
1.1101085 0.68311071 0.10049109 5077698
1.1117133 0.68563992 0.10048765 5209026
1.1139764 0.68823969 0.10056305 5207481
1.1160383 0.69004273 0.099930704 4482739
1.1170073 0.69253564 0.099824026 4480681
1.1196263 0.6945219 0.10017101 5334178
1.0938791 0.66536093 0.099818766 7238546
1.0944623 0.66760814 0.10054332 6909840
1.0957788 0.6702143 0.10110666 7041426
1.1027645 0.67739892 0.098586366 6978990
1.1045438 0.67993325 0.10016443 5929649
1.1065402 0.68181431 0.098431647 5274822
1.1089439 0.68439907 0.099758089 5275083
1.1117092 0.68973899 0.099443957 5340620
1.1172395 0.69531226 0.099230736 4940199
1.0906845 0.66647756 0.098257288 5924484
1.0923465 0.66884327 0.099174559 6449545
1.0988293 0.67630446 0.096051425 7502500
1.100907 0.67872059 0.097257629 7306667
1.1029489 0.68034142 0.097777233 7111860
1.1052201 0.68379879 0.098634332 5209288
1.0906708 0.66971153 0.098292649 5989247
1.096601 0.67726052 0.095043212 7173792
1.0985336 0.67949247 0.095942274 7371687
1.1008335 0.68145949 0.095810622 7570867
1.1029432 0.68398595 0.096477866 5799873
1.0941125 0.67626929 0.09332858 6713497
1.0947809 0.67875361 0.093898028 6779548
1.0968847 0.68109024 0.094247803 7502754
1.0982468 0.68326718 0.093736887 7898797
1.0988671 0.68542171 0.093663126 7571895
1.0911355 0.67706144 0.091567427 4412021
1.0923457 0.68031752 0.092598543 5990546
1.0961112 0.68371123 0.091228679 7635615
1.0899683 0.6779772 0.089521825 3490907
1.0922816 0.68114352 0.089570507 6055560
1.0929908 0.68477452 0.090335533 6516112
1.0900694 0.68374395 0.087592036 3687776
1.0897834 0.68485451 0.088004217 3492180
1.0733455 0.66545427 0.08698386 2368820
1.074708 0.66796625 0.087412417 2302253
1.0752355 0.67028165 0.087952808 2170667
1.0786669 0.67180288 0.087035328 2039079
1.0879503 0.6830076 0.085819393 396840
1.0878279 0.68614852 0.085975409 268065
1.0706121 0.66708851 0.084080875 3357264
1.0775843 0.67683375 0.084362641 2434880
1.0793324 0.67720824 0.084153727 2303039
1.0859644 0.68555194 0.083815262 1250862
1.0859791 0.68751389 0.084823087 856616
1.065469 0.66331822 0.083587065 3817044
1.0660899 0.66621196 0.084014907 3553877
1.0750337 0.67775756 0.083439976 2698562
1.0781519 0.67811191 0.082501516 3290187
1.083625 0.68515068 0.081708416 2039866
1.0843374 0.68837869 0.081730142 1974074
1.0871682 0.69066113 0.082226917 593962
1.0633937 0.66615343 0.083654687 3619672
1.0740817 0.68066961 0.080598593 3422035
1.0761613 0.67944169 0.081152603 3290448
1.0824622 0.68857706 0.081520036 1974330
1.0849409 0.6927743 0.080398291 1513775
1.0725455 0.6800198 0.081035018 3488085
1.0757214 0.68293315 0.080380514 3422032
1.0758128 0.6843493 0.07985504 3421775
1.0519046 0.65749294 0.079973027 1445904
1.0733844 0.68582815 0.078413323 3421777
1.0460608 0.65441716 0.077061191 1577490
1.0749494 0.68964863 0.075907588 3094859
1.0442582 0.65573704 0.075832918 1511954
1.0256948 0.66244102 0.060127765 6377797
1.0269343 0.66487169 0.060880214 5785661
1.0292734 0.66636932 0.061479136 4733496
1.0244708 0.66593623 0.060123786 6245700
1.125613 0.68261635 0.11288673 5924247
1.1269832 0.68548131 0.1132628 6383767
1.1288157 0.68818915 0.11302885 5593989
1.1307404 0.69130969 0.11293373 5068667
1.1323309 0.69248623 0.11241366 6253455
1.1224383 0.68231034 0.11080538 3558273
1.1235027 0.6846143 0.1123807 4347018
1.1339591 0.69590211 0.11143599 6977442
1.134902 0.6983676 0.11086999 7240870
1.1363848 0.70067966 0.11052728 6912426
1.1388036 0.70349973 0.10992685 5662623
1.1405224 0.70596051 0.10852247 5990548
1.1416433 0.70815408 0.11039512 7565942
1.1211362 0.68400866 0.10965653 3689090
1.1209828 0.68647885 0.10993068 3361157
1.1277362 0.6938169 0.10770285 6385066
1.1294631 0.69557017 0.10819247 6121379
1.131179 0.69764245 0.1085729 5332373
1.1331023 0.70006657 0.10807058 5530519
1.1348864 0.70211595 0.10783808 6648745
1.1363761 0.70456797 0.10735068 7372975
1.1384974 0.7073226 0.10660774 7176625
1.1403788 0.70938528 0.10632817 5992872
1.1423602 0.71122116 0.1062886 5926312
1.1429838 0.71364486 0.10675721 6582686
1.1107974 0.67551297 0.10776065 5205678
1.1145842 0.68039429 0.10722548 3296658
1.1182483 0.68472219 0.1078324 4412295
1.1195563 0.68790054 0.10887074 3294847
1.1242782 0.69262898 0.10669723 3297947
1.1255388 0.69414216 0.10715516 4612003
1.1275376 0.69647896 0.10822916 6188199
1.1292499 0.69924814 0.10634147 6714030
1.1311088 0.70113605 0.10636899 5661597
1.1327399 0.70323026 0.10610653 5662361
1.1346236 0.70596594 0.10623759 6583720
1.1361936 0.70856738 0.10511854 7111091
1.1386443 0.71097445 0.1060321 7242676
1.140977 0.71365154 0.10677837 5861288
1.143338 0.71499461 0.10577457 5728419
1.1450989 0.71817726 0.10481974 6712724
1.1063251 0.67259526 0.10703611 5337001
1.1068375 0.67482471 0.10766239 5074092
1.108622 0.6770432 0.10771264 5140141
1.1107498 0.6791079 0.10729739 5270956
1.1122949 0.68002629 0.10703482 4678054
1.1137744 0.68388325 0.10686453 4084366
1.1167336 0.68739033 0.10692866 5135242
1.1226161 0.69447011 0.10537517 2771602
1.1232303 0.69568372 0.10528924 2770572
1.1254373 0.69809258 0.10477178 3560082
1.1273383 0.69989121 0.10518707 5992620
1.1292078 0.70283818 0.10618019 6845611
1.1348369 0.71013176 0.10533039 6648489
1.1374869 0.71137494 0.10436514 7834035
1.1390485 0.71414316 0.10406142 7835583
1.1408765 0.71667022 0.10310037 6258877
1.1422867 0.71910191 0.10252158 5535412
1.1438645 0.7211647 0.10176125 5337012
1.1456606 0.72254038 0.10164197 5600949
1.1469859 0.72616524 0.10094662 6189223
1.1048363 0.67381799 0.10605696 5468070
1.1041322 0.6758188 0.10561782 5468073
1.1106368 0.68326414 0.10494862 4876715
1.1151991 0.68841553 0.10617064 5267087
1.1199875 0.69420797 0.10279037 4479128
1.1217973 0.69710243 0.10334016 3689867
1.1231987 0.70002073 0.1030356 3294853
1.1251414 0.70066458 0.10401124 3494285
1.1421044 0.72239578 0.10245132 4813496
1.1448637 0.72482669 0.10137054 5729711
1.1476973 0.72875512 0.10040618 6451357
1.1014868 0.67404437 0.10342041 6978209
1.1020271 0.67746586 0.10335311 6124709
1.1033596 0.67968428 0.1040259 5205418
1.1069824 0.68136287 0.10199246 4944816
1.1080992 0.68400985 0.1022346 4944819
1.1103324 0.6864801 0.10199222 5141681
1.1128644 0.68798524 0.1022007 4679856
1.1165051 0.69284618 0.1011726 4282787
1.1181614 0.69609213 0.1010361 5727912
1.119791 0.69830751 0.10130045 5662373
1.1210726 0.70030147 0.10128763 5333921
1.0970553 0.67296278 0.10149503 7239316
1.0991919 0.67561865 0.10206875 7371676
1.1007731 0.67851198 0.10249104 6452643
1.102856 0.68075567 0.10058375 5141426
1.1046351 0.68270272 0.10086927 4878769
1.1072099 0.6856972 0.10046802 5142456
1.1084881 0.68854958 0.10022612 5076927
1.1097544 0.68998182 0.099859715 5208505
1.1128056 0.69300628 0.10006094 4416945
1.1143482 0.69540924 0.098855913 3956133
1.1160245 0.69691205 0.099639103 4874662
1.1176727 0.6994167 0.099939466 5991084
1.1196434 0.70308352 0.099678263 5927086
1.092767 0.67092055 0.10009813 6449804
1.09413 0.67342067 0.10062173 6910352
1.0970052 0.67734671 0.10056019 7305368
1.0993905 0.68073815 0.10084705 6912161
1.102355 0.68182003 0.098921284 6257328
1.1024693 0.68537736 0.098119155 5076410
1.1045554 0.68683189 0.099531412 5010105
1.1060874 0.68797773 0.099694893 5010350
1.1073463 0.69137937 0.099223405 4813489
1.1101308 0.69467729 0.098823845 5075638
1.112126 0.69684428 0.097960144 4285360
1.1138265 0.69865149 0.098149613 4218017
1.1156367 0.70126837 0.097901553 5072808
1.1166456 0.70253789 0.098504603 5597867
1.0904869 0.67247152 0.098638132 5857664
1.0918819 0.67476755 0.099302754 6186628
1.0947767 0.67766339 0.099998549 6976147
1.0994819 0.68297124 0.096680999 7044526
1.0999517 0.68636304 0.096610576 5862573
1.1022471 0.68823242 0.097245947 5534899
1.1043996 0.69077104 0.097439304 5404084
1.1072172 0.69314021 0.097438172 5143239
1.1084957 0.69693178 0.09674634 4879538
1.1101087 0.69814986 0.097397864 5338822
1.110572 0.69998181 0.096325696 5270956
1.0889935 0.67527217 0.096715808 4608624
1.0904799 0.67796308 0.096937895 5725817
1.0963912 0.68331748 0.095116317 6912162
1.098079 0.68535012 0.095108837 7241130
1.100656 0.68619299 0.095082462 5930686
1.100456 0.6888299 0.09536007 5667259
1.1034919 0.69302547 0.0960242 5601213
1.1048694 0.69466281 0.096413642 5336742
1.0889876 0.68039966 0.095233113 5790061
1.0946307 0.68298471 0.093190223 6451100
1.0955459 0.68618101 0.093847156 7042972
1.097973 0.68882132 0.094048753 6257068
1.0990355 0.69137114 0.094381362 6125232
1.1017985 0.69425631 0.0947842 6190757
1.0868446 0.67992878 0.093353406 1777970
1.0927643 0.68471253 0.091679886 6253204
1.0949347 0.68616498 0.09148024 7700900
1.0954221 0.68919408 0.091767892 7109538
1.0967969 0.69157165 0.091627017 6650794
1.0909586 0.68712491 0.089798406 5529482
1.0920491 0.68939447 0.089110643 6581135
1.0930048 0.6917842 0.08945173 6779800
1.0954186 0.69279104 0.09084855 6779810
1.0845879 0.68418896 0.09029305 1249820
1.0894778 0.68705589 0.087622985 3821663
1.0895408 0.69007611 0.087438211 3819104
1.0904195 0.6928314 0.0879087 5527935
1.0931678 0.69504839 0.088985458 6911910
1.0716505 0.67067951 0.087786242 2434353
1.0876914 0.68849885 0.086462557 333857
1.089004 0.69192946 0.086269289 4215157
1.0910397 0.69410408 0.08700259 6318224
1.0908998 0.69550419 0.087002769 6517653
1.0691077 0.67143732 0.08819364 2763066
1.0862768 0.6933769 0.08377707 726311
1.088892 0.69605374 0.085451469 5002354
1.07015 0.67624843 0.084384829 3028303
1.0722849 0.67752594 0.083479494 2962251
1.0831846 0.69119889 0.081974745 1842744
1.0820782 0.69397378 0.082143307 1316658
1.0867649 0.69702733 0.082129076 594212
1.0680809 0.67839885 0.082893327 3356497
1.0701921 0.68120253 0.080406725 3554136
1.0721447 0.68361151 0.080292776 3487829
1.0833122 0.69585055 0.080659956 1382449
1.0845929 0.69732118 0.080564305 593445
1.0640234 0.67910802 0.080654398 3226446
1.0676959 0.68094254 0.080879837 3554135
1.0688881 0.68270791 0.079853594 3488086
1.0701041 0.68448979 0.079773739 3553622
1.0738187 0.68791425 0.07769762 3160394
1.0807527 0.69695568 0.079558313 1973820
1.0673484 0.68471354 0.078990057 3488341
1.0691816 0.68576568 0.078122586 3095118
1.0711464 0.68918306 0.077283576 3094860
1.0293542 0.66808379 0.065828562 1511703
1.0287938 0.66821754 0.063436225 2826280
1.0240384 0.66783917 0.060828716 6179648
1.0263469 0.66889101 0.061543241 5193533
1.0208193 0.66573 0.060232967 6903880
1.0216104 0.6669755 0.060980365 6771778
1.0237432 0.67090589 0.060792178 5916735
1.1290815 0.69130814 0.11369745 5462657
1.1242511 0.68857467 0.11369619 5069712
1.1267569 0.69001526 0.11423355 6120596
1.1281493 0.69322193 0.11435391 6383243
1.1305354 0.6948958 0.11362816 5857925
1.1313775 0.69739044 0.11318044 6121612
1.1329453 0.70000035 0.11264633 6977434
1.1353722 0.70218074 0.11214727 7307180
1.1361761 0.70485115 0.11185615 7175344
1.1384604 0.7064079 0.11107253 5728160
1.1408323 0.70939434 0.11047572 6909315
1.1219784 0.68653518 0.11194943 3427462
1.1217796 0.68880779 0.11244485 3427721
1.1311696 0.70050186 0.10935968 6449822
1.1331055 0.70405209 0.10894962 6252958
1.1392254 0.71025872 0.11068927 5727638
1.1413354 0.7146011 0.11057013 7368829
1.1186674 0.68920791 0.10899521 3425915
1.1206608 0.69009256 0.11060293 2967427
1.1257279 0.69827652 0.10842004 5269159
1.1279905 0.70048326 0.10874686 6450601
1.1301086 0.70302415 0.10931218 6516132
1.1312833 0.70472169 0.10842533 6254245
1.1335789 0.70719469 0.10841641 6386082
1.1356267 0.70970678 0.10823321 7767472
1.1369243 0.71206355 0.10781677 7899573
1.1390409 0.71420813 0.10725948 6847915
1.1404459 0.7169888 0.1068967 5401770
1.1427699 0.71867293 0.10579847 5992355
1.1165981 0.68937647 0.10763344 5989779
1.1185526 0.69208187 0.10911782 3425659
1.1239917 0.69891018 0.10790396 3954848
1.1253643 0.70167565 0.10735539 4612773
1.1276299 0.70415545 0.10663438 6912690
1.1300645 0.70644343 0.10680956 7041708
1.1322334 0.70872414 0.10712266 5924769
1.1339903 0.71124512 0.10668029 5794719
1.1356018 0.71339345 0.10586753 7570868
1.1368473 0.7157414 0.10588457 8031673
1.1389022 0.71774423 0.10412581 7507129
1.140264 0.72049052 0.10575026 5929147
1.1431749 0.72209656 0.10573518 5991841
1.1458893 0.72575527 0.10577869 7632275
1.1063098 0.67950022 0.10645957 5205420
1.1093529 0.68468922 0.10561632 5138858
1.1130264 0.68826294 0.10585707 4150158
1.1143736 0.69109005 0.10630754 5333142
1.115684 0.692967 0.10723601 6384026
1.1208163 0.69902569 0.10432264 3098504
1.1221151 0.70000279 0.10558331 2967690
1.1245086 0.7022416 0.10518241 3559825
1.1252229 0.70431149 0.10563262 4612256
1.1273134 0.70638072 0.10639644 7042733
1.1396223 0.72138482 0.10364342 6193333
1.1401988 0.72462654 0.10357407 5339837
1.1426566 0.72605693 0.1025508 5206715
1.1442932 0.72866559 0.10228279 5599410
1.1452181 0.73163068 0.1026565 6122922
1.1045865 0.68077797 0.10543601 5074094
1.1069753 0.68517685 0.1049277 5205418
1.1098835 0.68859553 0.10518858 4217243
1.1123681 0.69238251 0.10510325 3821704
1.1191646 0.70076782 0.10214619 6516908
1.1203614 0.70210862 0.10282126 5069726
1.1224703 0.7038368 0.10364623 3230606
1.1231174 0.70596182 0.10461387 2576276
1.1447285 0.73217481 0.10163949 5535158
1.1472423 0.7340638 0.10046914 6188962
1.1490952 0.73955309 0.099904031 7961748
1.1019315 0.68159163 0.10267583 5205159
1.103327 0.68376637 0.10341291 4876974
1.1047634 0.6877166 0.10298553 4943277
1.107939 0.69051188 0.10364963 5270440
1.1107085 0.6933738 0.1042892 4019345
1.1174703 0.7003203 0.10085447 6188461
1.1181591 0.70337999 0.10142201 5859496
1.1206551 0.70602804 0.10193467 4283550
1.1005487 0.68381768 0.10103181 5533089
1.101943 0.68635654 0.10155132 5008042
1.1032742 0.68906063 0.10193384 4680362
1.106279 0.6916247 0.10276297 5468072
1.1084931 0.6953814 0.099114195 5141172
1.1136667 0.69886202 0.099536434 3297943
1.1151909 0.70162833 0.099539623 4677536
1.1155872 0.7054531 0.099757552 5137570
1.118341 0.70648766 0.099636972 5598634
1.093334 0.67896211 0.09887071 6581384
1.0971259 0.682594 0.099346116 7174043
1.0983188 0.68461996 0.10017996 6715297
1.0996805 0.68754482 0.10044953 5992869
1.1017604 0.69013107 0.099321887 5270955
1.1053612 0.69339049 0.097866043 4681393
1.1116365 0.70063317 0.097593814 4349862
1.1132421 0.70355976 0.097704321 4021150
1.1151512 0.70577937 0.09769851 5204136
1.1161306 0.70825011 0.098071605 5401512
1.0917668 0.67998421 0.097831845 6252159
1.0939502 0.68292332 0.098396778 6909838
1.0953108 0.68678385 0.098370835 7896994
1.1030866 0.6959132 0.095895931 5008559
1.1057127 0.69784379 0.096135855 4879032
1.1077684 0.69940543 0.096339971 5076412
1.1089749 0.70258909 0.095927089 5469108
1.1111062 0.70507169 0.096403614 4810666
1.11315 0.70732784 0.096508667 5204909
1.1137474 0.71016914 0.096263498 5338303
1.0901685 0.68141741 0.096791953 6119799
1.091561 0.68456328 0.096948609 7172749
1.093097 0.68713772 0.097664639 8027808
1.0978774 0.69021511 0.094933778 6715823
1.0995014 0.69325554 0.094637364 6782645
1.1014079 0.69673139 0.094516397 6585008
1.1034822 0.69962871 0.09466733 5337520
1.1052299 0.70184821 0.09465076 4944310
1.1065634 0.7040776 0.09482494 5469878
1.1088099 0.70617485 0.09491159 5863347
1.1107471 0.70888048 0.094742686 5272241
1.0875446 0.6818198 0.094032779 4211279
1.0887847 0.68400759 0.094930395 5855862
1.0892656 0.68625897 0.095524445 6514559
1.0954521 0.6923728 0.092629418 7240618
1.097558 0.69429719 0.093357608 7372718
1.0996314 0.69717777 0.093342602 7570092
1.1009822 0.70064008 0.09292613 7110834
1.1034504 0.70212418 0.093467459 5665185
1.1042085 0.70561016 0.093231618 6322595
1.0859915 0.68357182 0.092699051 3487279
1.0873363 0.68724859 0.092641547 5197926
1.0922921 0.69318593 0.090284169 6911134
1.0941788 0.69318843 0.092484206 7502763
1.0961303 0.69722456 0.09142594 7832497
1.0980122 0.69892544 0.092277795 8293304
1.0992104 0.70096159 0.092232674 8950700
1.101476 0.70363754 0.092150241 7767722
1.0846074 0.68628347 0.090764895 2894890
1.0858903 0.68963975 0.090860754 4737092
1.0905039 0.69523585 0.088760972 6647189
1.0921991 0.69646209 0.090114787 7370922
1.0938127 0.69793743 0.089956388 7372206
1.0951669 0.70115441 0.089784473 8227254
1.0975953 0.70251459 0.090979725 9147058
1.0675694 0.66923374 0.08975184 2894396
1.0830969 0.68779331 0.088681415 2498858
1.084337 0.69151318 0.089454398 4670783
1.0887712 0.69558448 0.086182967 5594233
1.0900123 0.69817412 0.087235898 6187405
1.0920625 0.69971073 0.087832659 7108001
1.0660515 0.67026067 0.08913438 3157310
1.087136 0.69636869 0.086032912 4409945
1.0888368 0.69851464 0.085571781 5397365
1.0894771 0.70132935 0.086211875 5463674
1.090914 0.70350474 0.086054161 6976160
1.0643739 0.67173588 0.087889656 3288900
1.0843202 0.69706494 0.083375931 2698558
1.0864478 0.70047349 0.083692759 4672861
1.0873119 0.70210969 0.084427044 4674404
1.0817342 0.69730335 0.081789002 1776952
1.0829403 0.69832009 0.08231242 2566723
1.0843673 0.70161343 0.082095549 4474709
1.0624732 0.68055278 0.082527757 3487573
1.0650051 0.68218768 0.081322625 3619154
1.0666521 0.6837343 0.081076354 3553622
1.0762316 0.69763958 0.080862582 1974330
1.0789723 0.69825971 0.080783904 1645881
1.0809814 0.70007795 0.080990538 2961225
1.082592 0.70259571 0.08112894 4935269
1.0839705 0.70386875 0.081736147 5461096
1.0623194 0.68083036 0.08154577 3554130
1.0652546 0.68484116 0.079696372 3685210
1.0684001 0.68741214 0.079227373 3095372
1.0782404 0.70026851 0.079600334 1711422
1.0801957 0.70284927 0.079911217 4934501
1.0623362 0.6845246 0.080077097 3685466
1.0275503 0.66988945 0.064309955 1973010
1.0258541 0.67209136 0.06248939 3287334
1.0183463 0.66587806 0.061090246 7429966
1.0242854 0.673599 0.061160371 4865086
1.0217732 0.67441595 0.060127631 6179645
1.1247588 0.69252604 0.1150672 5923990
1.1265154 0.69469416 0.11524002 6844058
1.1282282 0.69745779 0.11503133 6514576
1.1303241 0.69991684 0.11444919 5661063
1.1318982 0.70115268 0.11375225 6911127
1.1215202 0.69027454 0.11338377 3625356
1.1222566 0.69305718 0.11445194 4347791
1.1309514 0.7029078 0.11462599 6648208
1.133523 0.70497167 0.11351801 8227254
1.1342953 0.7070843 0.11318953 7701685
1.1361845 0.70915866 0.11246985 6255531
1.1383101 0.71199208 0.11159503 5137825
1.1392946 0.71440917 0.11149941 5859219
1.1413091 0.7164982 0.1112632 7171974
1.1203406 0.69297802 0.11171056 2968709
1.1201434 0.69464374 0.11256865 3167117
1.1280276 0.70449823 0.10985895 6845358
1.1303114 0.70690823 0.10983682 6319007
1.1318945 0.70871788 0.10976708 6056608
1.1328841 0.71211451 0.11044854 6517413
1.1350657 0.7133466 0.10946707 7833005
1.1369205 0.71448183 0.10873851 8031406
1.1412761 0.72070163 0.1105776 7501713
1.1177944 0.69382393 0.1088659 4279163
1.1188136 0.69583958 0.11071694 2442106
1.1246111 0.70341784 0.10927451 4875174
1.1267571 0.70551413 0.10949752 6188969
1.1285992 0.70740998 0.10935259 6846384
1.1302686 0.71070594 0.10929944 5991075
1.1320108 0.71223813 0.10862693 5860258
1.1345935 0.71460837 0.10806596 7505336
1.1363665 0.71792978 0.10851416 6521012
1.1379819 0.71902323 0.10715201 6324412
1.1393422 0.7221278 0.10732241 5075377
1.1415491 0.72402 0.10689396 5730217
1.1429174 0.72674161 0.10670823 6188964
1.1439574 0.72801912 0.10640563 6450592
1.1458378 0.73050672 0.10587214 7697812
1.1162608 0.69460642 0.10825315 6186642
1.116773 0.69689655 0.10884304 4608389
1.1221769 0.70144659 0.1071258 3233175
1.1225851 0.70377636 0.10730025 3298974
1.1245253 0.70643079 0.10676946 4416168
1.1261977 0.70879912 0.1076915 5729964
1.1272314 0.71112174 0.10798872 6714283
1.1310108 0.71410602 0.10772559 5595547
1.1327738 0.71611047 0.10721131 6385827
1.1347803 0.71826792 0.10695152 7966395
1.1363232 0.72042537 0.10621212 6851005
1.1377081 0.72248626 0.10558707 5669314
1.1389055 0.72578651 0.10531384 5407181
1.1410129 0.72752178 0.10365885 5536190
1.1447484 0.73162645 0.10513228 7829888
1.113943 0.69654161 0.10608116 5398160
1.1146945 0.699471 0.10702729 5069448
1.1205144 0.70340908 0.10573129 2574471
1.1206329 0.70608139 0.10572192 2182548
1.1231314 0.70810568 0.10551302 2577566
1.137962 0.72584581 0.10417762 5536687
1.139868 0.72887158 0.10406198 5930942
1.1423702 0.73122847 0.10306564 5534905
1.1430492 0.73486012 0.1026949 5534393
1.1450682 0.73567009 0.10155937 5861808
1.1462097 0.73852909 0.10155879 6188967
1.1490674 0.74193573 0.10030694 7962263
1.1091588 0.69403344 0.10360853 4874660
1.1113884 0.69698787 0.10406093 4873873
1.1120237 0.70004016 0.10427168 4676240
1.1188686 0.70681363 0.10348737 3297432
1.1208889 0.70905679 0.10384201 1919892
1.1442345 0.73790324 0.10212937 5600956
1.147494 0.74159992 0.10099322 6386081
1.1491188 0.7443977 0.10084197 7831191
1.1047277 0.69276977 0.10179204 5468333
1.1079021 0.69605058 0.10216574 5467305
1.1092499 0.69863486 0.10276134 5664172
1.1105978 0.7012192 0.10335691 5532073
1.1172268 0.70611662 0.10145669 5596323
1.1174304 0.70847481 0.10135807 4020121
1.1183572 0.71045774 0.1011792 2642841
1.1500572 0.74747699 0.098133385 8816252
1.1003592 0.69158369 0.09996736 5730470
1.1032391 0.69399244 0.10081291 5336746
1.1055303 0.69732809 0.10107575 5862316
1.1067851 0.69967449 0.10175613 5730734
1.1150483 0.70979887 0.099248171 4152735
1.1162043 0.71189618 0.099622697 3298716
1.0966593 0.68918598 0.099075228 8028843
1.0989335 0.69276267 0.099052563 6781095
1.100209 0.69486356 0.09980461 6124457
1.1023797 0.69747758 0.10044594 5796526
1.1117061 0.70843685 0.097234309 5402545
1.1128259 0.710693 0.097557768 5205164
1.1147103 0.71328622 0.097752243 4154537
1.0915023 0.68735695 0.097350284 7764893
1.0928502 0.68994129 0.097945869 8488879
1.0943989 0.68964595 0.098408893 8751538
1.0958102 0.69350553 0.098151654 8226222
1.1043979 0.70391482 0.095080256 5469106
1.1070476 0.70714331 0.09523122 5733047
1.1096907 0.70956945 0.095659271 5470132
1.111433 0.7124747 0.095997274 5470392
1.1135025 0.71383721 0.096819222 4813250
1.0906236 0.69027972 0.096386939 7238806
1.101034 0.70112932 0.094295636 6519211
1.1030104 0.70447624 0.094096974 6257593
1.103977 0.70663679 0.094077468 6323892
1.1049457 0.70826912 0.093541726 6980521
1.107213 0.71059096 0.094630823 5602230
1.1088729 0.71362686 0.094319612 5143231
1.0891258 0.69180512 0.095156193 6120320
1.096218 0.70114845 0.091939867 8687791
1.0984715 0.70334715 0.092528746 7965109
1.1002547 0.70546055 0.09279412 8030897
1.1019776 0.70820707 0.093149334 7572153
1.1036941 0.70954764 0.093068197 6784184
1.10597 0.71234733 0.093422085 5799609
1.087198 0.69020587 0.092765927 5066846
1.0869972 0.69308543 0.092898473 5132896
1.0929035 0.69944978 0.091457337 7042984
1.0946901 0.70356333 0.092197493 7109803
1.0960573 0.70508564 0.090809524 8162479
1.098586 0.70707893 0.091754317 8425139
1.1008986 0.71074343 0.091637135 8491442
1.0856876 0.69312632 0.090630487 5263440
1.0855948 0.69640231 0.090461016 5066580
1.0910301 0.70126265 0.090089232 5924498
1.0928971 0.70283473 0.088713452 7174571
1.0945011 0.705944 0.089959413 7043492
1.081933 0.69305515 0.088187158 4604998
1.0834446 0.69556653 0.088728741 5262926
1.0845908 0.69742727 0.088252679 5131862
1.0876341 0.69949168 0.087694779 5199728
1.0884829 0.70247263 0.087027013 5331318
1.0904719 0.70466316 0.087801173 5398404
1.0916562 0.70638895 0.088532656 5595781
1.0769721 0.69269186 0.087810561 4473417
1.0794699 0.69342697 0.087581038 4604744
1.080819 0.69564706 0.088394269 5196878
1.0840513 0.69910896 0.086658821 5066334
1.0873572 0.70359242 0.085804775 4738660
1.0886686 0.7068873 0.086348921 3950430
1.0901738 0.70770872 0.087302431 5791614
1.0624331 0.67499185 0.086868644 3355202
1.0813563 0.70165777 0.083562717 5460835
1.0830247 0.70183843 0.085786164 4803162
1.0859454 0.70549279 0.083864197 4344153
1.0864501 0.70779788 0.084782392 3752273
1.0795259 0.70229638 0.082986385 5526630
1.0816938 0.7047199 0.082206309 5526633
1.0830544 0.70706546 0.082347393 4804450
1.0839032 0.70819712 0.083189085 4409433
1.060743 0.67969429 0.0831673 3553364
1.0749211 0.70126182 0.080795974 4474971
1.0781714 0.70338446 0.080230922 5001060
1.0795834 0.70569485 0.08073315 6448507
1.0809851 0.70817745 0.080896378 5330799
1.0585878 0.68317181 0.08017531 3553871
1.0614235 0.68501562 0.080213785 3619671
1.0620875 0.68793517 0.079995438 3619415
1.077341 0.70684218 0.08012785 7040136
1.0568057 0.68417954 0.079802558 3488336
1.0601757 0.68730152 0.078944996 3684948
1.0600561 0.68851089 0.079728112 3684693
1.0579534 0.68885815 0.077976584 3619410
1.0220664 0.67712694 0.060595945 5061942
1.2666762 0.56556129 0.28295788 9342634
1.2619736 0.56415451 0.2807655 8619166
1.264504 0.56546593 0.281362 9014183
1.2590085 0.56307107 0.27993235 8618650
1.2555329 0.56302762 0.27774087 8552085
1.2565471 0.56298602 0.2789754 9012371
1.2513324 0.56127268 0.27668628 8094113
1.2527387 0.56343687 0.27618814 8814739
1.24784 0.56233835 0.27359387 8028576
1.2441911 0.56213129 0.27188727 8027546
1.1212004 0.69514191 0.11436157 4216717
1.1232767 0.6969918 0.11537878 5070484
1.1250268 0.69870222 0.11584246 6450073
1.1274694 0.70136714 0.1157869 6186379
1.1292561 0.70393819 0.11573797 6056076
1.1307782 0.70635074 0.11542508 6911903
1.1323541 0.70902216 0.11492506 6190249
1.1350716 0.71194702 0.11332718 5468335
1.1365371 0.71302897 0.11278728 5270446
1.1197755 0.69595671 0.11366452 3561359
1.1210288 0.69847906 0.11498375 4019851
1.134948 0.71551281 0.11322924 5468851
1.1365676 0.71694595 0.11231112 5468080
1.138142 0.7180602 0.1116869 5466531
1.1392598 0.72186434 0.11110857 5860508
1.118404 0.69925517 0.11250527 2904971
1.125218 0.70676738 0.10994783 5072552
1.1264236 0.70918655 0.11106741 5662628
1.1291912 0.71111715 0.11092064 6122147
1.1303875 0.7140792 0.11064677 6649517
1.1324209 0.71626639 0.10989931 7243193
1.1339262 0.71845651 0.10966934 5994676
1.136543 0.72133625 0.10858466 5207479
1.1411209 0.72555012 0.10897331 6386079
1.1414356 0.72752404 0.11055121 6253702
1.1439627 0.73040509 0.10708936 6581919
1.1165522 0.69870633 0.10966672 2703995
1.1171683 0.70044607 0.11071368 1261435
1.1219382 0.70566499 0.1086712 3627943
1.1228657 0.70806623 0.10951377 3889570
1.1251677 0.71133208 0.10848881 4809636
1.1273233 0.71310914 0.10952125 6583727
1.1292608 0.7147311 0.10884866 6515880
1.131016 0.71649194 0.10840929 6451109
1.1322619 0.71978033 0.10839163 7177395
1.1345218 0.72189391 0.10741444 5537214
1.1362963 0.72414529 0.10861066 5077436
1.1380243 0.72633743 0.10727364 5405887
1.1398979 0.72885871 0.10741681 5798584
1.1421955 0.73114038 0.10750124 6190252
1.1438061 0.73396754 0.10671051 7437733
1.1454053 0.73585564 0.10669138 7764889
1.114809 0.70224863 0.10859565 2049409
1.1202132 0.70754987 0.10728484 2840737
1.1206994 0.7088601 0.10754502 2906275
1.123126 0.71110106 0.10700977 3365029
1.1251602 0.71364301 0.10877147 5464744
1.1329203 0.72388142 0.10753137 5273005
1.1352801 0.72507781 0.10635144 4945584
1.1359748 0.72872889 0.10597874 5405873
1.1386827 0.73040646 0.10509662 5996986
1.1397916 0.73356211 0.10481167 6062787
1.1414518 0.73468983 0.10374992 5470399
1.1433055 0.73713183 0.10359976 5796016
1.1461418 0.7398755 0.10362773 6779041
1.1469638 0.7428323 0.10374653 7040915
1.1132507 0.70113385 0.10568179 3886976
1.1130056 0.70333052 0.10632589 2772100
1.118605 0.70817512 0.10461788 1459853
1.1187677 0.71046007 0.10554546 2117274
1.1210462 0.71244925 0.1059678 3037095
1.1377211 0.73289579 0.10508537 6128304
1.1422019 0.73792392 0.10350613 5535934
1.1444318 0.74046552 0.10269363 5797043
1.1448711 0.7433852 0.10279839 5797044
1.1472182 0.74561822 0.10158414 6255268
1.1495166 0.74796563 0.10046932 7831444
1.1104085 0.70253575 0.10381478 4809634
1.1114074 0.70476365 0.10528588 3298197
1.1169903 0.70960665 0.10343744 1656718
1.1174232 0.71216857 0.10335715 2379163
1.1186014 0.71385515 0.10350832 2971816
1.1483436 0.75034797 0.10129103 7635880
1.1498615 0.752864 0.098877102 8423588
1.1066391 0.70238805 0.10195547 5469364
1.1082065 0.70494062 0.10270377 5206453
1.1100429 0.70638454 0.10414521 4548010
1.1154824 0.71273923 0.10170276 2838941
1.116371 0.71463728 0.1012446 3431336
1.1000198 0.69754201 0.10015172 6453166
1.1030179 0.70051014 0.10069212 5862834
1.1035739 0.70316404 0.1012015 5600949
1.105891 0.70562726 0.10193427 5338295
1.1141682 0.71452475 0.099495798 3825833
1.1149991 0.7165252 0.10013729 4352692
1.0955895 0.69603562 0.098480344 8226220
1.0970697 0.69697595 0.099150732 7700394
1.098896 0.69942713 0.10009515 6978732
1.1014618 0.70375669 0.10048065 5928372
1.1098777 0.7136358 0.09656927 5273521
1.1117777 0.71563452 0.098139331 4746927
1.1135232 0.71737063 0.098733887 4879817
1.0919819 0.69372916 0.097327217 7370396
1.0933371 0.69661772 0.097811624 7371168
1.0946022 0.69817591 0.099033862 7305639
1.1067116 0.71338999 0.09553048 5142706
1.1086226 0.71503538 0.095995009 5011639
1.110178 0.71711552 0.095532715 5011903
1.1111133 0.7189337 0.09639895 5077439
1.0882113 0.69398493 0.09481068 5790835
1.0896084 0.69555277 0.095910624 5593722
1.0910685 0.69707686 0.097074941 5660292
1.1006814 0.7092967 0.093352392 7965616
1.103163 0.71117932 0.094229266 6521267
1.1039321 0.71409988 0.094264179 5733558
1.1063811 0.71665609 0.094576105 5077951
1.1079657 0.71931225 0.094911709 5077425
1.0880551 0.69742614 0.094504401 5461357
1.0894073 0.69855368 0.09597072 5132914
1.0953735 0.7065348 0.09261705 6781357
1.096931 0.70799565 0.092400223 7373231
1.098684 0.7109924 0.092569724 7767988
1.1007454 0.71290404 0.092840418 7440310
1.1027369 0.71500492 0.093152672 6258876
1.1049403 0.71718198 0.09315446 5405361
1.0868099 0.69693774 0.092590973 5198175
1.0865475 0.69949698 0.092876822 5460835
1.0919266 0.7051267 0.090829521 5267600
1.0932906 0.70783395 0.091492936 5334170
1.0954379 0.70953393 0.091328815 6648995
1.0966237 0.71170926 0.091390356 7109803
1.0985451 0.7138508 0.092161328 7701936
1.1005782 0.71585369 0.092469797 7111602
1.0853013 0.69937271 0.090745762 5197398
1.0850544 0.70217621 0.091027036 5197402
1.0897475 0.70760894 0.08920458 5134198
1.0921359 0.70854872 0.089469582 5004671
1.0930111 0.71160746 0.089435086 5858695
1.0943066 0.7136634 0.090214893 6319253
1.0759314 0.69445193 0.088623866 5723224
1.0783451 0.69464666 0.088730812 5262416
1.0796509 0.69810152 0.088716105 4933962
1.082083 0.70043868 0.089134276 4736074
1.0880837 0.70585024 0.087924495 5331318
1.0896456 0.70991862 0.08810766 4148573
1.077134 0.69821459 0.088297233 5131081
1.0845876 0.7054584 0.085632563 4540503
1.0859723 0.70845175 0.085809737 3357770
1.0873644 0.7109623 0.086226463 3752531
1.0880947 0.71290058 0.086488858 3029053
1.0559318 0.67450666 0.088845298 3486786
1.0827994 0.70750839 0.084109366 4211281
1.0838332 0.7103827 0.083841205 3159619
1.0858263 0.71194577 0.084558234 3159363
1.0757858 0.70373708 0.081556141 5922163
1.0778767 0.70707268 0.081999078 5593199
1.0798169 0.70869446 0.082077205 5000545
1.0816422 0.7114836 0.08215186 3883348
1.0836189 0.71341813 0.083517879 2566968
1.0681977 0.69757265 0.082444116 3290698
1.0712373 0.70034039 0.081202045 4211546
1.0720204 0.70364666 0.08128579 6447992
1.0747033 0.70586455 0.081261486 6974853
1.0757992 0.70869148 0.080714092 6975627
1.0779634 0.71035171 0.080299184 5791868
1.0797395 0.71185434 0.081230938 4409955
1.0552701 0.68629348 0.081417337 3685463
1.0581995 0.68792188 0.08013016 3684949
1.0701761 0.70343405 0.081076846 6250362
1.0726478 0.70732707 0.080066115 8026772
1.0749979 0.71087205 0.079714596 7237519
1.0531176 0.68828934 0.079047337 3553620
1.0553932 0.68973792 0.079001591 3619156
1.015733 0.68092251 0.060189456 6772297
1.2647427 0.56633937 0.28433794 6973819
1.2669632 0.56792629 0.2847175 7171971
1.2595729 0.56430554 0.28220159 6447216
1.2611518 0.56534427 0.28272569 5921382
1.2630528 0.56619692 0.28332698 6711164
1.2557447 0.56290573 0.28063658 6513514
1.2577353 0.5639661 0.28118977 6315624
1.2597641 0.56503534 0.28142315 7169649
1.2521058 0.56209254 0.27936301 5197915
1.2541887 0.56290036 0.27971002 6184039
1.2502056 0.56230903 0.27756885 6250089
1.2518936 0.56341058 0.27803752 5985886
1.2464987 0.56135553 0.27581501 6514037
1.2485627 0.56324911 0.27596012 6380899
1.2499099 0.5646944 0.27752504 921615
1.2429875 0.56075859 0.27451214 6710636
1.244301 0.5624634 0.27464724 5592153
1.2457391 0.56360221 0.27342156 7827577
1.2408581 0.56134123 0.27285594 6381938
1.2428025 0.5632686 0.27248749 7170412
1.237911 0.56199706 0.27155563 6053223
1.2401779 0.56457675 0.27072656 6577507
1.2359418 0.56180763 0.2700083 6841462
1.2368832 0.56505853 0.2691485 6972253
1.2341633 0.56382275 0.26884025 5461334
1.234686 0.56568211 0.26726243 7432308
1.2332778 0.56649858 0.26670575 6379612
1.1237005 0.70149064 0.11670102 5463691
1.1252559 0.70327425 0.11678322 6580628
1.1271251 0.70560122 0.11708345 7107222
1.1282488 0.70864403 0.11665569 7503012
1.1298387 0.71000278 0.11602674 6189989
1.1208351 0.69981194 0.11556065 3953805
1.1213809 0.70129114 0.11665441 4215688
1.1235183 0.70364356 0.11740944 6317709
1.1297634 0.71291637 0.11621539 5204897
1.1320249 0.71356136 0.11475675 5336745
1.1331129 0.71635067 0.11450224 5206450
1.1348722 0.7185477 0.11334535 5403316
1.1364921 0.71985936 0.11249989 5336751
1.1188318 0.70192832 0.11465506 4151956
1.1269193 0.71268994 0.11192296 7042476
1.128715 0.71516907 0.11208755 7898032
1.1305881 0.71727026 0.11129829 7045041
1.1326718 0.71852106 0.11096881 6125223
1.1348578 0.72202456 0.11323556 5403316
1.1373197 0.72429889 0.11206678 5467821
1.1389492 0.72780055 0.11130171 5466268
1.1396163 0.72860622 0.11181949 5202576
1.1413326 0.73122752 0.11130349 5003647
1.1169226 0.70288551 0.11121252 3036301
1.1165549 0.7041986 0.11230834 3824536
1.1226006 0.70928413 0.11079453 3823517
1.1241664 0.71161705 0.11127844 5071779
1.1255288 0.71417463 0.11213969 7569843
1.1274055 0.71641326 0.11105163 8359358
1.1296529 0.71880949 0.11119053 7440315
1.1316636 0.72078085 0.11127417 5273010
1.1330856 0.72277772 0.11028731 4420542
1.1340849 0.72571862 0.10981832 4486587
1.1366581 0.72843403 0.10912032 5470899
1.1389728 0.7290352 0.10854353 5074875
1.1403297 0.73308825 0.10787496 5665968
1.1417534 0.73576224 0.10806909 5664942
1.1440333 0.73776603 0.10782659 6846119
1.1457622 0.74030316 0.10813487 7502490
1.1474785 0.74118334 0.10911644 8554144
1.1153271 0.70334756 0.11075312 2904718
1.1151285 0.70549887 0.11132103 3759002
1.1203743 0.71103317 0.10918361 3891113
1.1218545 0.71305585 0.10973451 4087721
1.1234864 0.71497214 0.10952148 5598124
1.1254961 0.7175082 0.10982658 8161204
1.1300777 0.72239399 0.10898472 7571626
1.1308845 0.72543478 0.1091755 5075880
1.1332679 0.72758949 0.10789868 4354480
1.1346287 0.72930604 0.10809931 5012930
1.1367831 0.73159611 0.10778512 5603520
1.1385887 0.73402971 0.10739152 5537479
1.1400592 0.73617637 0.1076217 5601722
1.1425329 0.73766851 0.10767099 6913199
1.1133935 0.70510453 0.10839587 3167127
1.1124707 0.70728362 0.10798019 4022436
1.118145 0.71279263 0.10703896 3694508
1.1194928 0.71434617 0.10721934 3628972
1.1215371 0.71656907 0.10766633 4613035
1.1357927 0.73496711 0.10635498 5865393
1.138165 0.73746121 0.10495679 5799600
1.1405475 0.73965174 0.10498966 5537218
1.1426877 0.74310291 0.10421993 5929921
1.1434846 0.745538 0.10408676 5732280
1.1457564 0.74617809 0.10346933 6058409
1.1487123 0.751499 0.10280079 8622257
1.1112267 0.70643103 0.10628451 3890851
1.1109827 0.70826352 0.10714625 4220329
1.1165341 0.71363902 0.10522412 3628460
1.1175597 0.71596086 0.10545099 3367088
1.1186099 0.71828496 0.10588866 3432367
1.1412656 0.74332732 0.10405152 5732785
1.1451993 0.74870545 0.10324422 5732021
1.1469442 0.74915117 0.1024653 6453419
1.1468219 0.75223148 0.10265765 7176630
1.10903 0.70795453 0.10438791 4680626
1.1095386 0.71004778 0.10572818 4352175
1.1147457 0.7158103 0.10362832 3957939
1.1163442 0.7162773 0.10274757 4023985
1.1162288 0.71908313 0.10323894 3564724
1.1045661 0.70702803 0.10226294 5273018
1.1063486 0.70884383 0.10336238 5010104
1.1128056 0.71713823 0.10020883 4483509
1.1142174 0.71847415 0.1020692 4353206
1.0998067 0.70317 0.10060985 6585009
1.101873 0.7061367 0.10115263 5732024
1.102455 0.70874804 0.1016594 5469882
1.1115348 0.71779346 0.0991752 4879533
1.1120887 0.71962357 0.10023545 4550323
1.1140177 0.72183001 0.10143667 3958961
1.0923103 0.69865775 0.098335281 6253204
1.095745 0.70191222 0.099628195 7502761
1.0974145 0.70355958 0.10010207 7306667
1.098886 0.70678484 0.10039105 6978734
1.1087382 0.71887308 0.097549796 4814257
1.1110876 0.72095025 0.098532334 4880062
1.1110481 0.72298366 0.098282069 4814001
1.0916206 0.70132786 0.097637504 5792137
1.0936126 0.70314789 0.098949745 6910879
