# .PCD v0.7 - Point Cloud Data file format
VERSION 0.7
FIELDS x y z rgba
SIZE 4 4 4 4
TYPE F F F U
COUNT 1 1 1 1
WIDTH 1171
HEIGHT 1
VIEWPOINT 0 0 0 1 0 0 0
POINTS 1171
DATA ascii
1.1248308 0.66434968 0.063145816 7238486
1.1293215 0.66846532 0.062967777 8553578
1.131047 0.67211604 0.063379645 7961188
1.1315389 0.6728363 0.062354207 8094568
1.1334007 0.67647803 0.062715054 8356203
1.1351899 0.67932826 0.061455607 8948593
1.1368542 0.68116575 0.061775148 9606526
1.1384306 0.68429089 0.061573327 10264202
1.1401576 0.68618476 0.060881793 9474932
1.1415848 0.68924195 0.060814977 12172198
1.1434785 0.69125724 0.060342968 11119507
1.145432 0.69359946 0.05954957 10724748
1.1474648 0.69623625 0.059382558 10724223
1.1500304 0.69865632 0.059862852 10395010
1.1518297 0.70144653 0.058273554 8750184
1.1513431 0.70364535 0.0592677 10197634
1.1531839 0.70541334 0.058320761 9474168
1.1557652 0.70876372 0.057199359 8487267
1.157923 0.71142113 0.057305455 8026709
1.1587076 0.71295083 0.05875659 7566412
1.1070895 0.64175725 0.066118479 6978938
1.1079593 0.64326984 0.066809833 7110267
1.1099699 0.64491254 0.066815734 7241337
1.1115495 0.64871728 0.066808462 7766650
1.1146908 0.65303117 0.06330061 9739404
1.117187 0.65643251 0.063145161 9081211
1.1185873 0.65876555 0.063468635 9212800
1.1203951 0.66062284 0.063129663 8817005
1.1216581 0.66417116 0.063034177 6975572
1.1229169 0.6660558 0.062881589 6711892
1.1254144 0.66801989 0.06279552 7304285
1.126833 0.67150533 0.062753439 7764844
1.1285975 0.67281979 0.062963009 7962474
1.1299659 0.67642391 0.06157589 8883062
1.1313674 0.67721307 0.059641421 8553325
1.1327367 0.68010598 0.060282648 8290151
1.1346275 0.68287873 0.061052859 8817265
1.1370387 0.68434691 0.058950245 7763793
1.1371906 0.68667114 0.060009658 7434831
1.1394923 0.68961126 0.059196949 8816216
1.142957 0.693232 0.059948862 9277037
1.1455265 0.69745344 0.058880746 11054220
1.1473322 0.69961464 0.058209717 10987658
1.1483953 0.70296437 0.057173967 10198658
1.149899 0.70526052 0.056381762 9803896
1.1522419 0.7076661 0.054697514 8355932
1.1521696 0.71027613 0.055447757 9605744
1.1541481 0.71155512 0.05432117 9144674
1.1563013 0.71487212 0.054466069 9079383
1.1578647 0.71681154 0.054676771 8289869
1.1603825 0.71930027 0.054877877 8486472
1.1031001 0.64025795 0.064963818 9279112
1.104767 0.6416446 0.06583941 7176060
1.1052043 0.64362377 0.066720366 7241858
1.1072555 0.6463818 0.062961817 8097413
1.1087935 0.64987952 0.063145638 8819850
1.1110673 0.65218902 0.063150287 8818816
1.1125543 0.65534794 0.063236594 9344645
1.1143788 0.65700042 0.063147664 9015421
1.115976 0.66009068 0.06313467 8751734
1.1182466 0.66191137 0.06224823 7896669
1.1188271 0.66439271 0.061799169 7370075
1.1207943 0.6669507 0.060738683 7435351
1.1224828 0.66912472 0.060156465 6185530
1.1240764 0.67140836 0.060233355 6119232
1.1262325 0.67441082 0.05982542 6513485
1.1269085 0.67611426 0.060127378 6382146
1.1289783 0.67876488 0.06007272 7764078
1.1305782 0.68157768 0.059549451 8684411
1.1332661 0.68493986 0.059202433 8487275
1.1351016 0.68507296 0.058689475 7632212
1.1357211 0.68901753 0.058149397 8290144
1.1373315 0.69261932 0.057770729 8947818
1.1402762 0.69253409 0.057173014 10329229
1.1410336 0.69596744 0.057071328 10263687
1.1428001 0.698367 0.056325257 10790031
1.1446081 0.70107353 0.055388212 10987153
1.1454356 0.70436394 0.055451214 11184791
1.1473082 0.70568383 0.054132044 10001023
1.1499538 0.70895046 0.054904044 10264197
1.1519339 0.71056551 0.053977847 10396299
1.1525662 0.71393758 0.053724289 9804160
1.1545 0.71536535 0.053899586 8751462
1.156347 0.71843326 0.051772237 9804146
1.0993598 0.63960296 0.064042091 10725005
1.1001869 0.64037949 0.065033019 9542023
1.1019269 0.64411348 0.06198138 8229768
1.1037962 0.64538598 0.062626302 8097929
1.1055431 0.6482302 0.063231289 8425606
1.1070807 0.65099597 0.062468231 8161660
1.1085775 0.65288156 0.062440395 8424315
1.1106389 0.65542614 0.061442137 8357747
1.1123356 0.6582408 0.060580492 8686197
1.1142348 0.65995055 0.06078279 8948597
1.1148543 0.66332906 0.060641408 8751471
1.1167161 0.66610491 0.060424864 7961956
1.1184504 0.66718698 0.059883773 7238233
1.1204019 0.67058492 0.059931755 4409882
1.1232677 0.67402869 0.059833169 4079395
1.1240047 0.67521417 0.06045872 5790025
1.1471846 0.70866179 0.054677248 10987412
1.1496603 0.71190464 0.053071976 9671551
1.150352 0.71464622 0.052184701 9868930
1.1522977 0.71721029 0.051323354 9803132
1.154125 0.720388 0.049982727 8816742
1.1554298 0.72194195 0.051127255 8355934
1.1562793 0.72410738 0.051873446 7961699
1.0950358 0.63860995 0.061587214 11051910
1.0967193 0.63927567 0.062828064 10855298
1.0993053 0.64421403 0.061574519 8886925
1.1012244 0.64754891 0.061561108 8425598
1.1035793 0.6498993 0.061706424 7373430
1.104779 0.65193093 0.060259402 7832695
1.1070998 0.65423745 0.060707271 8160632
1.1086795 0.65631628 0.060968935 8489329
1.1098332 0.65909863 0.06077081 8751988
1.1107125 0.66192108 0.060420454 8948858
1.093043 0.63923168 0.061957717 10986632
1.0943874 0.64159513 0.059204102 12369572
1.0959539 0.64306724 0.060818911 10727322
1.0971785 0.64681339 0.05945456 10592895
1.0988955 0.64749253 0.060316503 9541751
1.1007117 0.65077806 0.059221148 8030329
1.1031442 0.65288907 0.060253859 8029816
1.1053234 0.65650654 0.060102224 8357755
1.0910329 0.63978106 0.059532523 10460552
1.0918972 0.64227498 0.059730411 12172710
1.0929288 0.6439926 0.06035924 10727576
1.095391 0.64752245 0.058394253 10461573
1.0977757 0.64926839 0.058662057 8753537
1.0987896 0.65159982 0.058860064 8359286
1.0899189 0.64443731 0.057228446 10328440
1.0923612 0.6458106 0.057130039 11512198
1.0931364 0.64801401 0.05760926 10592905
1.0955005 0.65082437 0.057011664 10001275
1.0913877 0.64961517 0.055432796 11249277
1.0873958 0.64855909 0.053988755 9405031
1.0808642 0.6662885 0.041050911 3154951
1.0802553 0.67057282 0.040842712 4932371
1.081026 0.6729877 0.040153861 2961430
1.0826651 0.67475462 0.039109826 2764056
1.0843993 0.67533368 0.039422095 2698775
1.0862104 0.67779672 0.03812021 2305830
1.054584 0.63581699 0.043510675 1578506
1.0614777 0.646595 0.041443229 2236946
1.0624149 0.64807117 0.040930629 2433810
1.0643567 0.6507327 0.041415691 2236690
1.0669075 0.65246165 0.040952682 2171158
1.0704912 0.65901464 0.039961338 2236434
1.0721593 0.65959442 0.039998591 2236433
1.0750777 0.66585863 0.038948178 2039572
1.076544 0.66717505 0.038162768 1907732
1.0792894 0.67289841 0.039843261 2961437
1.0856781 0.68056822 0.038690209 2043166
1.0515742 0.63489085 0.043358326 1380875
1.0536125 0.63695419 0.043818951 1710091
1.055534 0.64241767 0.042678833 2105102
1.0588576 0.64421707 0.040612578 2434056
1.0597041 0.64619052 0.041795254 2433804
1.0606718 0.64891547 0.042223394 2368018
1.0627614 0.65011239 0.041433632 2302735
1.0681084 0.65873897 0.0395509 2236694
1.0691178 0.66227376 0.040007114 2236436
1.0716699 0.66375768 0.039543211 2301972
1.0732797 0.66548252 0.038869798 2236696
1.0745826 0.66981697 0.038711965 2105112
1.0760516 0.66990596 0.038650453 1973778
1.0492744 0.63710225 0.041951656 1314826
1.0560327 0.64555597 0.03889358 2367751
1.0570891 0.64792693 0.03951782 2499589
1.0583925 0.65018457 0.037828207 2433799
1.0453033 0.63582003 0.041083992 1183748
1.0465748 0.63673067 0.039229393 1183493
1.0494882 0.64340103 0.038787007 1841410
1.051388 0.64357746 0.03767705 1906945
1.0534545 0.64755714 0.037971377 2236164
1.054726 0.65002167 0.038380563 2499337
1.0595217 0.65701735 0.035026848 2433800
1.0759101 0.68270385 0.032676399 4472604
1.0440013 0.63606668 0.038633585 1183748
1.0434042 0.63859391 0.038927853 1184005
1.050904 0.64463902 0.036922872 1972225
1.0509534 0.64698422 0.037679613 2170370
1.0529816 0.64987129 0.038035393 2565126
1.055607 0.65732527 0.03480351 2433546
1.0572964 0.6576066 0.034592509 2302224
1.0601654 0.66087389 0.034420192 2367759
1.0469854 0.64608431 0.035412073 1840898
1.0481716 0.64895523 0.036279023 2104326
1.0575488 0.66168523 0.034092426 2302479
1.0458082 0.64808941 0.035317183 1841413
1.0453286 0.64996958 0.033981979 1907205
1.0497645 0.65750587 0.033224523 2368267
1.0243394 0.66556925 0.013819516 5262622
1.1380768 0.67783445 0.066831589 7106914
1.1402384 0.68180496 0.066903174 7041119
1.1419122 0.68258947 0.066721261 7172971
1.1435788 0.68415141 0.06603384 8291709
1.1465141 0.69029307 0.065051734 9739407
1.1482582 0.69226432 0.064201176 9936012
1.1250541 0.66311312 0.067016304 4212287
1.128039 0.66720986 0.067181468 4738869
1.1295228 0.6676662 0.067189932 6119752
1.1309383 0.6719197 0.067004859 6646624
1.1333631 0.67274868 0.066861093 7961715
1.1347287 0.67675662 0.06683284 8356477
1.1353647 0.68104696 0.066616774 8290939
1.1377988 0.68132365 0.066869557 8422523
1.1416843 0.68728542 0.066131711 6844252
1.1433351 0.68872488 0.06537503 7305574
1.1448619 0.69148898 0.065123618 8555897
1.1462889 0.69376159 0.065186024 9739663
1.1488397 0.69585919 0.064360261 10001801
1.1515162 0.69922507 0.062852502 9541247
1.1522149 0.7015357 0.0627262 9409662
1.152935 0.70417327 0.062449992 9804164
1.1544474 0.70620167 0.062491357 9409409
1.1561763 0.70852017 0.061463356 8290928
1.1577582 0.71052772 0.061669827 7961705
1.1596009 0.7132352 0.060506225 8027744
1.1593111 0.7157222 0.061090171 8291435
1.1187489 0.65797937 0.066845894 7831415
1.12015 0.66112816 0.067316353 5265486
1.1225793 0.66240704 0.066954315 4344387
1.123979 0.6661694 0.067062795 4015425
1.1264266 0.66671205 0.067130983 4081197
1.1269319 0.67073631 0.06698215 4803904
1.1293261 0.671422 0.066954374 4672835
1.1314634 0.67592382 0.06681478 4805445
1.1367567 0.68416846 0.063089848 9145468
1.1394647 0.68883997 0.06186825 11186329
1.1413665 0.69025725 0.062033057 7501139
1.1421067 0.69415939 0.062118292 7172419
1.1440285 0.69486451 0.061731339 8619864
1.1461048 0.69638753 0.061018169 10264191
1.1467228 0.6999622 0.061204791 10461310
1.1494238 0.70171344 0.060378611 10987406
1.1493831 0.70530534 0.06054157 11118733
1.1531429 0.709005 0.05848372 10263680
1.1558229 0.71299857 0.058612764 9737334
1.1566776 0.71608341 0.059032381 9934707
1.1585166 0.71617419 0.059027553 8092760
1.1605814 0.71802497 0.058027029 8421200
1.1080551 0.64747441 0.067062676 7832448
1.1096389 0.64842224 0.066757321 7700861
1.1117477 0.65204453 0.067095339 8029048
1.1141391 0.65428102 0.067217052 8028791
1.1163561 0.65668023 0.067235529 8028537
1.1160859 0.66059911 0.066945195 6779244
1.1184648 0.66067111 0.067210734 5923677
1.1215155 0.66550469 0.066925406 3556414
1.1284702 0.67631674 0.062928438 6580817
1.1306336 0.68005753 0.062465847 6317395
1.1329634 0.68127364 0.062430501 8751480
1.1340253 0.68421066 0.062678814 8356975
1.1356802 0.68651497 0.061753392 9540990
1.1371344 0.68940818 0.06191963 9211768
1.1392622 0.6923908 0.061851799 10725765
1.1402938 0.69363964 0.061083376 9803633
1.1429403 0.69616973 0.060443997 11185801
1.1435931 0.69913089 0.061008811 10659454
1.1450293 0.7013132 0.059541583 12040863
1.14691 0.70324159 0.059506536 11448211
1.1478109 0.70673406 0.058231354 11975336
1.1503807 0.70760429 0.058198214 11053714
1.1518838 0.71083236 0.059589744 11052945
1.155792 0.71698868 0.055610895 8685660
1.1568203 0.71870399 0.056967735 9803368
1.1586463 0.72010458 0.055950701 8158536
1.1035795 0.64369869 0.066383362 7110273
1.1049247 0.64676553 0.066867054 8227207
1.1062436 0.64848554 0.067208648 8227204
1.1084601 0.65137577 0.066864729 8094846
1.1114144 0.65532929 0.067146003 8094840
1.1133704 0.65923023 0.063267231 8751735
1.1165783 0.66330862 0.063124299 7239005
1.119446 0.66740537 0.063172102 4542254
1.1212289 0.67082489 0.062642455 5462088
1.1233518 0.67226338 0.06286335 5462085
1.1250062 0.67548698 0.062782407 6185552
1.1257074 0.67807293 0.062674165 5858390
1.1279616 0.68038535 0.062307835 7830636
1.1300452 0.6829465 0.061443686 7896170
1.1315114 0.68512833 0.061296523 7172187
1.1331685 0.68793499 0.060723066 8422252
1.1351995 0.68927121 0.060929418 9277059
1.1370885 0.69328296 0.060484707 9342333
1.1382552 0.69582897 0.057737827 8882277
1.1398661 0.6975652 0.059791028 8421714
1.1399897 0.69902229 0.057619274 9277040
1.1426551 0.70151991 0.059384704 8487764
1.1448615 0.70614612 0.058792472 10987636
1.1461444 0.70655036 0.057879508 11842974
1.1485875 0.7093389 0.057735503 11974814
1.1496882 0.71205658 0.056531847 11448206
1.151686 0.71412271 0.056081176 11185554
1.1535053 0.71713006 0.056378126 10330244
1.1543894 0.71946847 0.056752861 11053188
1.09856 0.64302182 0.065986693 7439229
1.1006588 0.64443326 0.066188931 7242116
1.1023444 0.64669263 0.066504478 7767430
1.1054012 0.65204477 0.063782573 9214092
1.1073461 0.65507746 0.06317699 9081731
1.1101873 0.65652001 0.063298166 9607818
1.1109512 0.65895998 0.063241243 8949628
1.1121274 0.66234756 0.06317234 8095088
1.1147019 0.66348326 0.063102365 6910555
1.1157557 0.66709048 0.062755406 4739647
1.1182604 0.66947979 0.061703742 4804670
1.1191928 0.67190552 0.062018454 4738362
1.1210588 0.67423749 0.06127274 5066811
1.1221921 0.67627472 0.061096013 5461052
1.1241139 0.67942053 0.060271978 5921345
1.1262854 0.68049341 0.06006825 5132078
1.1273926 0.68375111 0.060100436 5592900
1.1293253 0.6851632 0.059857845 7894642
1.1309936 0.68907964 0.059150815 8158323
1.1327256 0.69277763 0.058621943 9539462
1.1344712 0.69307429 0.057985485 8881776
1.135384 0.69575119 0.058390319 9079414
1.1381598 0.69909406 0.057913184 8487775
1.1400228 0.70232862 0.057836652 9212008
1.1419356 0.70287108 0.057160616 11119756
1.1436623 0.705311 0.056496918 11447963
1.1462154 0.71094012 0.05564189 11645346
1.1471133 0.7143333 0.055506468 11711139
1.149501 0.71660841 0.05421114 11316631
1.1509733 0.71847975 0.05437088 11250582
1.152468 0.72082025 0.052490175 10329479
1.1535803 0.72327363 0.053101122 10001024
1.1546252 0.72597194 0.053437948 10001289
1.09579 0.64093101 0.064538121 10067846
1.0961987 0.64307332 0.065426409 7833724
1.1010344 0.64892274 0.063078582 9148817
1.1027539 0.65078783 0.063360751 8885385
1.1032741 0.65259564 0.062767208 8621957
1.1049378 0.65540642 0.063004196 9016196
1.1067955 0.65878081 0.062826276 8950146
1.1086628 0.66083455 0.061873555 8818553
1.1105685 0.66296399 0.061741948 8160361
1.1118976 0.66533321 0.061234176 7436899
1.1136856 0.66703773 0.060808659 7370592
1.1152458 0.67006528 0.061197102 4673856
1.1172848 0.67298651 0.060485005 4343605
1.1191938 0.67578298 0.060341954 4868913
1.1197641 0.67662227 0.060388684 5658440
1.121944 0.67928696 0.060380399 6052935
1.1252596 0.68322551 0.059447706 5132348
1.0915174 0.6403966 0.063380778 10461836
1.0936761 0.64234656 0.065412104 8622206
1.0949897 0.64461124 0.061538517 9150609
1.0966353 0.64733177 0.062276542 8426897
1.0984364 0.64922547 0.062321126 8557450
1.0995409 0.65201962 0.062619567 8293764
1.1015699 0.65455389 0.061671495 8359041
1.1034968 0.65701228 0.06083256 8752510
1.1054556 0.66005784 0.060490251 8686458
1.1064537 0.66167492 0.060605705 8686454
1.1083789 0.66433674 0.061022103 7700327
1.11006 0.66767311 0.060807645 6977375
1.0876768 0.63952911 0.062737167 6581860
1.0893934 0.63963854 0.063089013 9277573
1.0911797 0.64443099 0.060998082 9610385
1.0923024 0.64574039 0.061749518 8493199
1.0940515 0.6481244 0.061589479 8820102
1.0963519 0.65075815 0.060764313 7571063
1.0971853 0.65279412 0.059502244 7570809
1.0988944 0.65482724 0.060405254 8030337
1.1003853 0.65807354 0.060345352 8095611
1.1031387 0.66025054 0.060489237 8423292
1.1048685 0.66299391 0.060589015 8226419
1.0902551 0.6464864 0.059503436 10329219
1.0919007 0.64962804 0.058436513 9081730
1.0932276 0.65217608 0.059408307 7767936
1.0955368 0.65399635 0.059754908 7505018
1.088232 0.64843607 0.058459997 9672320
1.0897527 0.65062642 0.057839215 9803906
1.0924546 0.65283573 0.058346868 8424821
1.0859346 0.64990461 0.056426883 8814445
1.0775555 0.6715821 0.04025656 3224355
1.0805786 0.67731303 0.040125191 3618331
1.0827593 0.67910701 0.040017724 3092504
1.0836307 0.68116426 0.040564477 2632209
1.085829 0.6837073 0.040260553 2635813
1.0531471 0.64095491 0.043212116 1973515
1.0585296 0.6483314 0.04280889 2499086
1.0599201 0.65099299 0.042480946 2237197
1.0622816 0.65227115 0.042207897 2302480
1.0668539 0.6606698 0.040183425 2301979
1.0718826 0.66818953 0.039174616 2170648
1.0723163 0.67127216 0.039695263 2630938
1.0748602 0.67173409 0.039667487 2960415
1.0762016 0.67494357 0.040261507 4210731
1.0467749 0.63532931 0.043493032 1315335
1.0484816 0.63611364 0.043448746 1380875
1.049624 0.64016205 0.043110609 1512714
1.0513434 0.64037383 0.043352842 1775883
1.0517637 0.64488888 0.04286176 2039568
1.0549484 0.64666194 0.042319477 2236696
1.0645723 0.66392469 0.040156245 2236697
1.0678444 0.66602421 0.039739013 2302489
1.0692229 0.66876733 0.039486885 2301976
1.0706141 0.67093778 0.039521337 2433560
1.0840178 0.69188023 0.035259008 5529668
1.047769 0.64068639 0.042320669 1577995
1.049039 0.64428377 0.042750835 1907722
1.0662738 0.66716337 0.038664043 2236952
1.0774226 0.68601668 0.033120513 4933405
1.0790721 0.68797994 0.034474015 4144931
1.0822283 0.68983448 0.033938766 3356700
1.0820216 0.69219816 0.034866095 2173452
1.0418922 0.6378504 0.039289117 1315590
1.0430514 0.639117 0.04068619 1249540
1.0506203 0.64990032 0.03809309 2236166
1.0520077 0.65312934 0.039003313 2564367
1.0755849 0.68568087 0.033124447 4735521
1.0755725 0.68882275 0.033643246 4801314
1.0412506 0.64070553 0.039158344 1315076
1.0471363 0.6479274 0.036888838 1972995
1.0499704 0.65446997 0.03796804 2498577
1.0535302 0.65723169 0.035301745 2433289
1.0546499 0.65915346 0.036055207 2368008
1.0733879 0.68792033 0.031693101 5393197
1.0406426 0.64548218 0.038223803 1315075
1.0454198 0.65319169 0.035057843 2236942
1.0514429 0.65795803 0.034786105 2368003
1.0438414 0.65231454 0.034562171 1841411
1.0470278 0.65843052 0.033471286 2302471
1.0483732 0.65965801 0.034653902 2237194
1.0206773 0.66611278 0.016881108 6247990
1.1383324 0.6852662 0.066713572 9014403
1.1400061 0.68605077 0.066531777 7633000
1.1413918 0.69099951 0.0659917 7173469
1.1429528 0.69186497 0.065837085 6910807
1.1460466 0.69735301 0.065251946 9936785
1.1485415 0.69936836 0.064439356 10264977
1.1490674 0.70288134 0.064611614 10265229
1.1525408 0.70571899 0.063566029 10199184
1.1572315 0.7141968 0.062531352 9343618
1.1281939 0.67464137 0.067014933 4277811
1.131191 0.67961782 0.066633642 3357746
1.1336749 0.68014002 0.066729426 6910834
1.1349297 0.68353373 0.067090154 6713451
1.1354544 0.68761945 0.066900313 6319479
1.1380229 0.68910313 0.066505253 9344138
1.1396408 0.68980575 0.066336632 8488820
1.1411281 0.6942634 0.066207528 8423280
1.1435595 0.6957674 0.065736353 8292468
1.1442274 0.69995636 0.065403283 9673350
1.1466253 0.70121413 0.065157771 10264980
1.1507416 0.70628041 0.063999057 10199438
1.1523454 0.70849252 0.064055204 10330771
1.1541121 0.7105459 0.063053966 10199183
1.1555918 0.71316671 0.062849939 9804172
1.1565692 0.71726173 0.060588002 10658438
1.1581669 0.71739233 0.060568452 9408368
1.1189787 0.66463423 0.067096055 3292736
1.1211832 0.66925901 0.066867828 4804687
1.1236545 0.67035365 0.066676974 5198925
1.1241953 0.67388797 0.06666398 6053711
1.1258032 0.67393577 0.066932678 6119244
1.1271344 0.67806602 0.06688875 5658691
1.1308697 0.68245244 0.066971362 2700062
1.1347526 0.68807805 0.06299746 7829879
1.1374867 0.69278932 0.062133312 9410161
1.1385936 0.69471383 0.062090039 10067589
1.1407976 0.69743943 0.062185109 8422239
1.1420197 0.69906151 0.061131656 12699315
1.143587 0.70235497 0.061308086 11185808
1.1455405 0.70365071 0.061314702 10329727
1.147279 0.70872343 0.060763001 11184782
1.1490679 0.70893729 0.060552359 11250322
1.1517737 0.71407616 0.059950471 11053199
1.1540632 0.71707499 0.059831619 11382682
1.1563866 0.72046864 0.059657037 11053192
1.1089325 0.65503192 0.066941082 8029050
1.1102664 0.65842628 0.067137361 6780525
1.1129005 0.65931696 0.067125201 6977134
1.1132898 0.66272759 0.067220926 4741725
1.1156857 0.66376066 0.067084551 3951186
1.1161805 0.66717845 0.067167044 3555403
1.119415 0.66818798 0.067144394 4410183
1.1198772 0.67155778 0.067295253 4935492
1.1224873 0.67334878 0.066709101 5396045
1.1256477 0.68015546 0.062474847 6315841
1.1284553 0.68372035 0.062754154 4934954
1.1305165 0.68593729 0.062118769 10461861
1.131767 0.68776774 0.06285888 6909789
1.132859 0.69147336 0.062198758 8094058
1.1349797 0.69323468 0.062037885 8751491
1.1370988 0.69646192 0.062088907 9344378
1.1390798 0.69879997 0.061739743 11317656
1.1401854 0.7018559 0.06114161 10264194
1.1417977 0.70226395 0.061519146 11185297
1.1430821 0.70609939 0.060382843 11909275
1.1454022 0.70852554 0.060194969 12238246
1.1463299 0.71144021 0.0588516 12171935
1.1485515 0.71337855 0.05924964 12369835
1.1505041 0.71575165 0.058782578 12567213
1.1520793 0.71912944 0.057015598 11579539
1.1544755 0.72068739 0.05862546 11447707
1.101162 0.64907408 0.066829741 7372927
1.1032581 0.65058064 0.067105532 7504251
1.1050009 0.65307188 0.067335069 7372150
1.1063626 0.65581489 0.067014098 7043440
1.1077824 0.65790403 0.067041516 6517609
1.1098795 0.66185379 0.067092121 5137251
1.111659 0.66259754 0.067103028 4939618
1.119776 0.67551255 0.062637806 5263679
1.1214349 0.67749381 0.062752903 5922378
1.1233205 0.67906773 0.062812865 5857092
1.1244966 0.68239605 0.062246919 5658943
1.125959 0.68419909 0.062384605 6054982
1.1280894 0.68744785 0.0620085 5791043
1.129915 0.69074047 0.061376691 5594429
1.1306353 0.69267428 0.062032163 3422995
1.132829 0.69387412 0.060562968 6384951
1.1349467 0.69754344 0.061104834 7239523
1.1364412 0.69999939 0.059309244 9606268
1.1383605 0.70154005 0.059179246 9277041
1.1397436 0.70534384 0.059219122 10132347
1.1416318 0.70617551 0.057458758 11119504
1.1434027 0.70978761 0.058326304 11250825
1.1452121 0.71346337 0.056469858 11777444
1.1472551 0.71467334 0.057836533 11250567
1.1482447 0.71788228 0.058078587 10264441
1.1497817 0.7189554 0.056839406 11448472
1.1514254 0.72149611 0.056450486 11579800
1.1543132 0.72653341 0.055986404 11185045
1.095736 0.64510942 0.066268981 6650491
1.0974705 0.64717829 0.066741884 7044739
1.0995598 0.64849377 0.067067504 7372933
1.0999769 0.65194535 0.067156613 6058098
1.1073997 0.66263109 0.062962294 7306599
1.1086291 0.66308486 0.063395381 7044716
1.1109377 0.66603684 0.063065827 5465430
1.1119758 0.66793394 0.062942028 4148805
1.1142156 0.67135191 0.06256336 4477010
1.1160851 0.67393005 0.062477708 5527630
1.1176301 0.67619085 0.061728954 5921612
1.118722 0.67954409 0.061706901 5592896
1.1205615 0.68031675 0.061696112 6908750
1.1220529 0.68338108 0.061138809 6513487
1.1243058 0.68689156 0.060508668 6578765
1.1267052 0.69043684 0.059952617 5264439
1.1295981 0.69359523 0.05977422 5330747
1.1315238 0.69636381 0.058772624 8092528
1.1323377 0.69975674 0.058657408 8750719
1.1342304 0.70101166 0.058533072 10197647
1.1361389 0.702389 0.058477998 9671809
1.1372457 0.70596659 0.0584746 10329479
1.1395769 0.70971572 0.057886899 11250323
1.1415751 0.70964509 0.057552576 11579545
1.1433209 0.71324825 0.056995988 11711392
1.1453468 0.71627909 0.05709815 11185301
1.1469338 0.71796668 0.055339277 11513755
1.1472483 0.72045553 0.056214511 11448728
1.1511748 0.72540605 0.054798067 11645862
1.0901215 0.64185643 0.066300392 8687750
1.0922562 0.64338493 0.066118658 8227457
1.0944587 0.64695811 0.067052186 7175551
1.0965673 0.65073776 0.0630638 8754831
1.0981486 0.65286791 0.063270628 9083794
1.0999504 0.65512341 0.062915802 8096641
1.1023879 0.65804422 0.062937081 7505015
1.1037802 0.6609807 0.062809289 7307380
1.1051298 0.66241604 0.062900543 7044721
1.106109 0.66533804 0.062201619 6255204
1.1083978 0.6677078 0.062212467 5399900
1.1108789 0.67069626 0.061373889 4807509
1.112031 0.67306864 0.061727822 4672586
1.1140828 0.6744436 0.061354756 4278599
1.1150396 0.67738271 0.061069667 5263944
1.116719 0.68049842 0.060739994 5066560
1.1192096 0.68357933 0.060718656 5658434
1.1221064 0.68751693 0.059522927 6973783
1.1238008 0.69111907 0.059124053 6118987
1.1264708 0.69413412 0.058817029 4540974
1.1285877 0.69675666 0.059041798 4672814
1.0870851 0.64088666 0.064881802 5858133
1.0887978 0.64113861 0.065343976 8095359
1.0915143 0.64818442 0.062234879 8492692
1.0930728 0.6502322 0.062592447 8360073
1.0942986 0.65207434 0.062920332 7833729
1.0963626 0.65424812 0.062975109 7307901
1.0976135 0.65724659 0.062444985 6584945
1.0994601 0.65844828 0.062931597 6321776
1.1015871 0.66130793 0.061867356 6781813
1.1027306 0.66409385 0.061231732 6321513
1.1042472 0.6671136 0.060819685 6123364
1.1059092 0.66939461 0.060789406 5860708
1.1079774 0.67141843 0.06087923 4940125
1.1101674 0.6748867 0.060603499 4478300
1.1130781 0.67769027 0.060759366 3950144
1.0893481 0.64806306 0.062183022 8556932
1.0908375 0.65015185 0.063007534 8754571
1.0926988 0.65235007 0.063559353 8227194
1.09413 0.65589988 0.060205758 7701629
1.0956923 0.6581437 0.060914278 6781040
1.0973272 0.66109931 0.060540438 5795433
1.0995096 0.66264117 0.060516953 5860971
1.1003851 0.66480929 0.06050545 5663589
1.1026723 0.66706544 0.060688555 5794922
1.1044251 0.66989124 0.060637593 5597541
1.0871298 0.64730698 0.061758041 6778457
1.0886679 0.65261257 0.059684217 8424319
1.0907965 0.65400493 0.060310841 8096128
1.0918055 0.656847 0.060438454 7832704
1.0935867 0.6592226 0.060743272 6583922
1.0849981 0.65042806 0.05925858 8619896
1.0862949 0.6526323 0.059230864 7633766
1.0881879 0.68615568 0.044087052 2964009
1.0802103 0.67963576 0.040873051 3486746
1.0824831 0.68280923 0.041388869 2697240
1.0840427 0.68460464 0.041951597 2106640
1.0860612 0.68578351 0.042390883 1976081
1.0736446 0.67446184 0.040110588 4342065
1.0750185 0.67707866 0.040949941 4737070
1.0776485 0.67848063 0.040685415 4079394
1.0789773 0.68189389 0.041355669 3552794
1.0810897 0.68404412 0.042416692 2894111
1.0859816 0.69330454 0.039517522 3028509
1.0629311 0.66121781 0.041416883 2236956
1.0711489 0.67496699 0.04003185 3881252
1.0732036 0.67682534 0.040803254 4802863
1.0754743 0.68073463 0.04095757 4671537
1.0831708 0.69301105 0.037694693 2830346
1.0859314 0.69351745 0.036839426 5397319
1.0486194 0.64697438 0.043293655 2105360
1.0520587 0.65005714 0.042111397 2302478
1.0516617 0.65283012 0.042503476 2171148
1.0592141 0.66230631 0.040057003 2237201
1.0606062 0.66455549 0.040963948 2302232
1.0624075 0.66562641 0.040824831 2302746
1.0638891 0.66923195 0.039168179 2302488
1.0663428 0.6705718 0.038909435 2368020
1.0675925 0.67359722 0.039488614 2499605
1.068915 0.67658168 0.040122986 4012580
1.0765083 0.68853199 0.036544919 4933420
1.0791515 0.69093728 0.035370469 3618074
1.0799173 0.69295722 0.03675437 2894094
1.0498427 0.65478611 0.040908098 2236428
1.0540258 0.6589694 0.04136759 2170382
1.0557096 0.66040874 0.040748477 2236435
1.0577778 0.66493106 0.040443718 2367768
1.0633713 0.6731081 0.039082587 2368533
1.0649893 0.6738106 0.038913965 2434067
1.0753715 0.69139135 0.034351468 4867877
1.0775993 0.69299334 0.03476572 4145181
1.0795749 0.6961019 0.03589803 3487759
1.071402 0.6847592 0.033980846 5854525
1.0734127 0.69087434 0.03347522 5262122
1.0760262 0.69592917 0.033477008 4342300
1.0389748 0.64416516 0.038912058 1446407
1.0419664 0.64822185 0.0388574 1052418
1.0458015 0.65543497 0.036207318 2236680
1.0696328 0.69062138 0.032357693 5656888
1.0710289 0.69145823 0.032339573 5590576
1.0385022 0.64894319 0.037799597 1380872
1.0404016 0.65218008 0.037132561 2302221
1.0422 0.65521538 0.035544097 2038789
1.0440577 0.65713906 0.036774993 2302216
1.0450557 0.65950501 0.035795152 2236941
1.0468309 0.66103923 0.034445226 2368008
1.0478667 0.66394395 0.034130275 2302733
1.0498781 0.66587007 0.03488791 2237194
1.0614243 0.68038613 0.032875538 2433803
1.0673624 0.69094938 0.032636702 5393979
1.0711508 0.69525993 0.031082392 6382415
1.0720942 0.69844913 0.031008303 5855809
1.0366905 0.64938462 0.037435472 1446406
1.0400705 0.65612561 0.034857213 2103815
1.0457144 0.6651181 0.033849359 2368787
1.0476928 0.66704464 0.034469545 2171405
1.0200834 0.66933453 0.016957879 5590314
1.0172875 0.67081571 0.015486896 7234616
1.0185943 0.67330945 0.016414881 5655600
1.0158896 0.67401397 0.015429258 7168568
1.0121844 0.67817152 0.01196444 8286518
1.1394587 0.6939286 0.06617111 9278342
1.1425308 0.69908935 0.065735817 9344124
1.144631 0.70277309 0.066039681 10264975
1.1471425 0.70478833 0.065295875 10199188
1.1480522 0.70690119 0.065591097 9344137
1.150156 0.70843506 0.0658167 9475720
1.1524465 0.71185172 0.06488657 10199183
1.1542037 0.71468413 0.064895213 10462100
1.1284057 0.68190998 0.066834331 5658948
1.131376 0.68651104 0.066785872 3555638
1.1326877 0.69013631 0.067060709 3029542
1.1352147 0.69131303 0.066856682 5202021
1.136761 0.69417918 0.06656456 7897726
1.1374538 0.69665372 0.066294551 8687482
1.1400402 0.69789255 0.065967381 9738630
1.1413857 0.70192027 0.065980434 10067336
1.1451575 0.70616353 0.066211522 9738637
1.1505567 0.71571946 0.061227739 10462334
1.1530998 0.71895462 0.062005997 11842977
1.1537912 0.72206068 0.061992288 11316370
1.1174231 0.67034042 0.067554414 4671820
1.1187556 0.67397976 0.067751467 3818042
1.1203781 0.67513239 0.067364573 4673096
1.1230315 0.67649424 0.066948891 5856337
1.1243991 0.68072671 0.066811562 7237478
1.1258454 0.68310177 0.066833258 7303268
1.1273315 0.68543637 0.066772461 6711642
1.1303144 0.69026923 0.066576123 5528140
1.1370376 0.69948161 0.062400997 11449753
1.1384991 0.70247018 0.062129438 12501676
1.141276 0.70591396 0.061906815 10723976
1.1431571 0.70882577 0.060661674 12830644
1.1456503 0.71241486 0.061404288 10527111
1.1477288 0.71523523 0.06143266 8883052
1.1491175 0.71741509 0.06170404 12107179
1.1512723 0.71825349 0.06142509 11646622
1.1083014 0.66111082 0.067178428 5137511
1.1104102 0.66473329 0.067516446 4742248
1.1128931 0.66550058 0.067613065 4280669
1.1134045 0.66960728 0.067244649 3950929
1.1150521 0.67209828 0.067448497 3489090
1.1171091 0.67372745 0.067564309 3620411
1.1209452 0.67932093 0.066983044 4738635
1.1286386 0.69237745 0.062365174 5462595
1.1303453 0.69516122 0.06261605 8225650
1.1322951 0.695907 0.062222481 6843737
1.1334796 0.69774938 0.062378466 11974822
1.1348813 0.70117831 0.061558664 7238752
1.1365981 0.70289636 0.062053323 11514780
1.1387765 0.70615768 0.061579943 11514781
1.1406096 0.7090764 0.061309934 12501932
1.1418858 0.71126699 0.061359942 10725003
1.1439025 0.71284711 0.059740007 11317655
1.1453459 0.71535051 0.060041368 12239020
1.1467915 0.71810126 0.059615552 10527618
1.1495458 0.72053969 0.058862925 9804401
1.1551149 0.73104614 0.056712866 11250069
1.0974379 0.65084994 0.067436397 6518137
1.1020336 0.65642667 0.066927254 5203563
1.1036973 0.65655649 0.06718272 5794926
1.1041765 0.66017246 0.067039192 5400425
1.1058953 0.66263664 0.067250073 5531757
1.1079488 0.66429329 0.067269921 5202797
1.1100454 0.66836548 0.067320883 4873321
1.1195858 0.68359596 0.062409997 6316883
1.122581 0.68524182 0.062930942 6515027
1.1239184 0.68772686 0.062542617 5923146
1.1249573 0.6904397 0.062517226 6646099
1.1266448 0.69287223 0.062068999 6251337
1.1279147 0.69584394 0.062400937 6908759
1.1297348 0.69713616 0.06119132 5396275
1.1311216 0.70006704 0.061761737 6514511
1.1332054 0.70109594 0.062306046 12303534
1.1354063 0.70508575 0.060768425 7699274
1.1364863 0.70887661 0.060081124 10593155
1.1387191 0.70970768 0.059013784 10921353
1.1404147 0.71279323 0.05856514 11250839
1.1420543 0.71356231 0.058900476 10921857
1.1431042 0.71740735 0.058171988 10658689
1.1443193 0.7196573 0.058588207 9277808
1.1474704 0.72359759 0.056967854 11054741
1.1514761 0.72692525 0.056668162 12040102
1.1524169 0.72964346 0.057066381 11842722
1.153316 0.73146224 0.057763517 11907742
1.0887917 0.64227343 0.067820311 6648939
1.0909625 0.64569151 0.068288386 6911351
1.0925916 0.64751863 0.067574143 7306362
1.0949659 0.64987779 0.067627609 6780795
1.0953945 0.65337038 0.067641377 5531502
1.0970782 0.65480971 0.067022204 5203563
1.0992208 0.65671217 0.066924095 5203567
1.1009183 0.65893114 0.067163944 5466479
1.1088483 0.67019093 0.06299454 5203303
1.1111102 0.67412245 0.062678397 4871766
1.1131773 0.67764455 0.06240803 4213312
1.1146946 0.67832434 0.062808931 3752755
1.1155956 0.68105412 0.062125862 5067336
1.1173167 0.68347883 0.062328935 5659466
1.1195812 0.68701673 0.061854839 5855821
1.1212846 0.68797183 0.062666237 6711643
1.1227329 0.690974 0.061288893 7105371
1.1239448 0.69423866 0.060417235 6974043
1.1265728 0.69715112 0.060180664 6513744
1.1295428 0.69961846 0.059255123 5396804
1.1316793 0.70356101 0.059550762 6119236
1.1333861 0.70645678 0.058856606 10000509
1.1338277 0.71033788 0.058686256 11052682
1.1357476 0.71010309 0.058515906 11250328
1.1376846 0.71305221 0.058493674 11185052
1.1391935 0.71714485 0.057704091 11053720
1.141046 0.71715534 0.0572595 11119255
1.0942683 0.65549988 0.063989401 7240309
1.0959736 0.65726644 0.063220382 6780783
1.0984317 0.66068679 0.063401401 4940642
1.1004996 0.664271 0.06294924 5927798
1.1026928 0.66564864 0.063153028 5927278
1.1040348 0.66860175 0.063104033 5927022
1.1059369 0.67042148 0.062930167 5531753
1.1069837 0.67350149 0.062231123 4873565
1.1086735 0.67522371 0.062447488 4740953
1.1112068 0.67811823 0.061878443 4345934
1.1129128 0.68070734 0.061750889 3621691
1.1139398 0.68239963 0.061823189 4344382
1.1156092 0.68524468 0.060022831 4145713
1.1165893 0.68754566 0.061028779 2764833
1.1178144 0.68929291 0.059247792 6446937
1.1199214 0.69162941 0.059547186 7236965
1.1217206 0.6950894 0.059086442 7369060
1.1245785 0.69747055 0.059423804 6842461
1.1264758 0.7004599 0.059483945 6382673
1.1282331 0.70373559 0.059214771 5461826
1.0883956 0.6504097 0.063642561 9148809
1.0903512 0.65227652 0.063795328 8359039
1.0918611 0.65424716 0.063924551 6912623
1.0927309 0.65759969 0.062581301 6584692
1.0946462 0.65926063 0.063179612 5730160
1.0964786 0.66035229 0.062924087 5730159
1.0981754 0.66428465 0.062765241 5927281
1.1002266 0.66737258 0.062875986 6322036
1.1013399 0.6686762 0.061278403 5795435
1.1027942 0.67180127 0.060814977 6057577
1.1047629 0.67401576 0.060783565 5728871
1.106684 0.67590404 0.060544789 5071461
1.1081469 0.67941296 0.060292184 4873309
1.1096158 0.68167448 0.060653508 5004635
1.1117499 0.68254375 0.060288727 3686446
1.1128566 0.6857751 0.060030043 3489328
1.1149944 0.68958461 0.059379816 4079665
1.085073 0.64917016 0.063128352 9081995
1.0865617 0.65030015 0.063173413 8425347
1.0879416 0.65408283 0.06332314 8030839
1.0892773 0.65531719 0.062423587 6845795
1.0903509 0.65708017 0.061806083 7042911
1.0927175 0.66068524 0.061609507 6452597
1.0944461 0.66293073 0.06107229 5795180
1.0968858 0.66570425 0.060377598 5269352
1.0976417 0.66906977 0.060227633 6123118
1.0995786 0.67050672 0.060662746 6254441
1.1002774 0.67291439 0.0600034 6977649
1.1031249 0.67572391 0.060307801 6714988
1.0864694 0.65469605 0.060914457 6383692
1.087207 0.65647388 0.061432183 6581084
1.0896285 0.66030574 0.060604751 6780018
1.0919049 0.66276699 0.060500085 6188390
1.0936679 0.66711903 0.059868217 5597547
1.0954472 0.67103481 0.059376955 6057331
1.0907865 0.66595119 0.058884621 5531238
1.0929565 0.6732344 0.057216108 4283750
1.0859144 0.66691518 0.056420088 6055255
1.0907605 0.67261457 0.05621469 4413003
1.0885533 0.67089254 0.055140853 5266248
1.0905974 0.68108606 0.049800158 4544347
1.090031 0.68410301 0.050233543 925461
1.0900826 0.68639433 0.048771679 1585968
1.0864871 0.68494987 0.048104405 3818272
1.088691 0.68606716 0.046923339 1647901
1.085192 0.68511164 0.046670318 2566668
1.0858265 0.68643034 0.043902993 1843720
1.0881724 0.68875849 0.047053695 1844747
1.0832688 0.6860894 0.044370592 3223580
1.0868784 0.69076449 0.043441772 2436628
1.0793192 0.68420029 0.041969299 3223324
1.0811946 0.68716359 0.043670893 3354405
1.0832119 0.69266868 0.04243511 3684628
1.0726995 0.67988396 0.041003466 4934450
1.0750248 0.68448913 0.04078269 4802862
1.0775572 0.685256 0.041085541 4210466
1.0780292 0.68831944 0.041269839 3815452
1.0818051 0.69401836 0.03969723 3684893
1.0663576 0.67622244 0.039972484 2959637
1.0676415 0.67900264 0.040688455 4867880
1.0701963 0.67925948 0.04094851 5000240
1.071419 0.68308228 0.041063249 5065521
1.0746995 0.68783492 0.040867984 4803119
1.0797653 0.69537222 0.038735271 3684124
1.0481282 0.64946067 0.043780506 2170891
1.0491574 0.65575713 0.042528987 2236432
1.0508896 0.65539646 0.043057919 2171149
1.0536273 0.66006517 0.04270184 2236435
1.0543833 0.66231358 0.042937279 2301721
1.0564436 0.66416103 0.042907357 2367774
1.0584961 0.66584694 0.042345762 2302742
1.0601646 0.66908598 0.040716171 2302746
1.0616159 0.6714645 0.039645791 2303001
1.062796 0.67522526 0.039952457 2433812
1.0645823 0.67592889 0.039743423 2433810
1.0649626 0.67915446 0.040168107 3814932
1.0688841 0.68280518 0.040762007 5196852
1.0760278 0.69285768 0.036378741 5130541
1.0769627 0.69649458 0.036700308 4210467
1.047238 0.65456235 0.042914391 2170894
1.0486606 0.65803856 0.043235004 2171152
1.0501488 0.65894473 0.043025196 2171154
1.0594485 0.67365617 0.040316105 2302745
1.0610197 0.67517644 0.039724231 2302487
1.0740089 0.69309342 0.036136508 5393458
1.0750167 0.69837028 0.034524441 4933662
1.067861 0.69090247 0.03520757 5857879
1.0699776 0.69228864 0.034823716 5986620
1.0707181 0.69618738 0.033878863 5591084
1.0725944 0.69871622 0.033264279 5328176
1.0387032 0.65030611 0.03953594 1315336
1.040139 0.65519917 0.037347555 2236938
1.0660843 0.6920523 0.034594119 5657137
1.0682487 0.69447613 0.033279955 5459764
1.0696088 0.69716585 0.032620072 5197113
1.0707558 0.69925117 0.033367336 5131577
1.0351101 0.65206933 0.037966013 1511944
1.0400349 0.6575644 0.037959456 2368529
1.0414795 0.65929073 0.036598444 2237204
1.0440645 0.66486323 0.034390211 2236949
1.045773 0.66727966 0.034639955 2237202
1.0457646 0.66894919 0.035881758 2171664
1.0647848 0.69534642 0.032392144 5591352
1.0382369 0.6572783 0.035408854 1972744
1.0424633 0.66473031 0.035137773 2237203
1.0438532 0.66751444 0.034810305 2237206
1.0203443 0.6766355 0.019456267 3550734
1.0189459 0.67565584 0.017317235 4668454
1.0161928 0.67683041 0.016017139 6510900
1.0183953 0.67879492 0.017819762 4668966
1.0132954 0.67710423 0.015331447 7497781
1.0164863 0.68091416 0.016100943 5984570
1.0115395 0.68102419 0.012561679 8155188
1.1489952 0.71077502 0.066354871 8751996
1.1504303 0.71367854 0.066962063 9409667
1.1526145 0.71644694 0.066480219 10593941
1.1388649 0.70045727 0.066327631 9936523
1.1419262 0.70448601 0.066644013 9804933
1.142452 0.70763785 0.066973031 9213829
1.1457261 0.70937014 0.066554606 8555136
1.1470408 0.71229374 0.067154467 8357245
1.1505096 0.71877015 0.064445257 12830644
1.1278539 0.68933809 0.066691935 6974820
1.1316714 0.6943382 0.066513777 5198667
1.1340861 0.69451249 0.06680727 3621437
1.1346686 0.69894588 0.06649524 5004101
1.1361996 0.70119894 0.066496253 7832948
1.1377001 0.70330858 0.066613376 9147526
1.1400023 0.70687038 0.067013979 9016449
1.1477211 0.71824008 0.063204467 11383454
1.1492822 0.72058582 0.062962115 9606263
1.1515536 0.72309589 0.062507272 11580059
1.1176428 0.67767036 0.067408383 2765357
1.1206772 0.68309617 0.066946387 4146759
1.1232307 0.6839664 0.066844523 6645863
1.1237478 0.68754083 0.066982627 6317923
1.1262027 0.68863559 0.066723049 6975335
1.1267295 0.69298732 0.066424251 7303527
1.1292522 0.69371414 0.066438496 7171940
1.1305521 0.69774878 0.066426098 6579808
1.1393104 0.71002805 0.061732888 10658954
1.1408114 0.71366847 0.061889529 9869951
1.1424572 0.71457589 0.061593533 10331020
1.1444805 0.71714473 0.062416375 10594194
1.1465826 0.72063434 0.062846601 8817526
1.1517746 0.72993934 0.05922091 11710365
1.1536331 0.73272413 0.05936265 11248772
1.1570852 0.73445225 0.060428619 11182979
1.1076348 0.66768014 0.067279816 5334382
1.1097043 0.67158908 0.067337036 4807782
1.1122322 0.67227471 0.067495406 4608854
1.1135828 0.67626894 0.06744647 3884615
1.1165621 0.6815238 0.067203403 3619641
1.1203018 0.68619621 0.067188561 3423032
1.1242626 0.69234228 0.066396832 6909289
1.1313789 0.70186245 0.062382519 10857111
1.1333193 0.70516002 0.061887622 7962467
1.1354052 0.70821261 0.061745048 10463631
1.1369653 0.71064866 0.061933458 11186846
1.1384345 0.71304482 0.061804175 10528918
1.1401594 0.71599132 0.062196493 9937041
1.1419144 0.7186439 0.061078072 10199692
1.1435556 0.71977186 0.059862494 9475702
1.1519561 0.73193711 0.060272515 10852986
1.1013936 0.66232848 0.067287505 6320755
1.1051472 0.66754657 0.066931129 6123379
1.1064196 0.67102277 0.066996992 5465961
1.1094847 0.67526257 0.067252219 4807523
1.1132312 0.68065095 0.066910148 5068375
1.1180177 0.68713808 0.063012123 8027255
1.1195362 0.68996346 0.062726557 8618870
1.1211891 0.69123662 0.062841594 6645593
1.1233419 0.69477332 0.062453806 7304036
1.1249732 0.69720888 0.061928213 7501159
1.1261907 0.7003355 0.062053621 7368804
1.1285098 0.70193172 0.06187135 6909003
1.1297692 0.70524514 0.061743498 8290417
1.1316139 0.70728689 0.061265171 6646356
1.1336017 0.70953268 0.061065733 6779215
1.1365384 0.71375233 0.059012651 10658697
1.1388164 0.716892 0.059466541 10067324
1.1396341 0.72011995 0.059859037 9015928
1.0919399 0.65208721 0.067813158 4939098
1.0936478 0.6526264 0.067768097 5596775
1.0941206 0.65652853 0.06748122 4479844
1.0958638 0.65931451 0.067141593 4808294
1.0972879 0.66185343 0.066950798 5531768
1.099475 0.66563994 0.067124903 6846586
1.1011487 0.66642451 0.066943049 7241086
1.1025376 0.66873872 0.066723824 6977915
1.1039593 0.67105281 0.066642106 6451825
1.108793 0.67839789 0.062589169 4215117
1.1113894 0.68192208 0.062482715 3688261
1.1126633 0.68409246 0.062399864 3554861
1.1138327 0.68651688 0.062506258 4344123
1.1155999 0.68840265 0.062740684 4606521
1.1174136 0.69045746 0.062388599 4211501
1.1194441 0.69389224 0.062189937 4672563
1.1205013 0.69680876 0.061964333 6711629
1.1224086 0.69845366 0.061291993 7303264
1.1241915 0.70122159 0.060251892 7894892
1.1262733 0.70401073 0.059467554 7171683
1.1274914 0.70567447 0.060293794 7237215
1.1298108 0.70916975 0.06022948 5791561
1.1310856 0.71017909 0.059380352 7632205
1.1327125 0.71395379 0.059198081 8225125
1.1360343 0.71754849 0.058487356 10002064
1.0973287 0.66602564 0.064622998 6452344
1.0983498 0.66826177 0.062746584 6847606
1.1002789 0.6698426 0.062905192 6912881
1.1023866 0.67293584 0.062854469 6124146
1.1038766 0.67525822 0.062356412 5992048
1.105207 0.67780876 0.062539518 5597287
1.1072327 0.68060869 0.062532127 4807773
1.1088755 0.68293279 0.061742902 4740433
1.1101995 0.68523264 0.06210649 4937805
1.1116266 0.68778956 0.060147882 4607551
1.1138568 0.68985844 0.061325967 5395777
1.1163337 0.69422257 0.060122907 4342570
1.1182218 0.69741821 0.059531212 5987659
1.1203758 0.69989789 0.059783161 7697256
1.122159 0.7019062 0.060086727 7434596
1.1241509 0.70448995 0.059541583 8026479
1.1261609 0.70739841 0.059574544 7566186
1.1281524 0.71067441 0.059539974 5198905
1.1330318 0.71903276 0.057805181 9804686
1.0921901 0.66171712 0.063519835 4809310
1.0950606 0.66630727 0.062477291 6189429
1.0965669 0.66956025 0.062522829 6583928
1.0983907 0.67136478 0.062743425 6583921
1.1001434 0.67333424 0.062424064 6583919
1.1014894 0.67651725 0.061738253 6320492
1.103792 0.67884374 0.060275555 5794404
1.1051208 0.68146014 0.061174333 5268576
1.1068349 0.68313193 0.060233355 5202017
1.1083349 0.68595624 0.060243011 5267809
1.1093526 0.6885137 0.059967875 5463383
1.1118571 0.6911869 0.059869647 5264188
1.113282 0.69429255 0.059037387 4211237
1.1153429 0.69695592 0.059275806 4145965
1.0858176 0.65554422 0.062672496 6451805
1.0869296 0.65910321 0.062195182 6320219
1.0891814 0.66150331 0.061987221 5926769
1.0896306 0.66450715 0.061704099 6452340
1.0923777 0.66728324 0.06175375 5794928
1.0937924 0.67013615 0.061202228 7043963
1.0957918 0.67273223 0.061018884 6057841
1.0969641 0.67512131 0.060476065 6385774
1.0994208 0.67750204 0.060255229 6714474
1.0997119 0.68007624 0.060045481 6320232
1.1023948 0.68203479 0.060302734 5268574
1.103963 0.68558991 0.059582591 4939871
1.1062407 0.68672252 0.059947371 5136736
1.1064961 0.68921703 0.059091568 5529183
1.0849627 0.66015571 0.061942339 4740163
1.092231 0.67163152 0.059350133 5859433
1.0942469 0.67400765 0.059889555 6451062
1.0947824 0.67597467 0.058456421 5662054
1.0972333 0.67882043 0.059583187 6320235
1.0849937 0.66665608 0.059258282 5069636
1.0869873 0.66752028 0.060163379 5267291
1.0900314 0.67105418 0.057840645 5464675
1.0921828 0.67545354 0.057879269 5070691
1.0914488 0.67698455 0.056713402 2965057
1.0941994 0.68068999 0.057624757 4215890
1.087799 0.67047697 0.056193709 5332568
1.0872165 0.67332655 0.057793915 6122595
1.0894907 0.67558533 0.057180285 4806219
1.0922256 0.68226349 0.05413866 3427138
1.0868299 0.67615175 0.05476588 4476997
1.0902839 0.68229795 0.053223133 2833452
1.0837522 0.67827171 0.051145971 4739135
1.0878687 0.68457752 0.051626086 1317139
1.0900942 0.68597686 0.051531315 794643
1.0910583 0.68863225 0.052396417 3096874
1.0863191 0.6854738 0.049891055 2303511
1.0886601 0.68652594 0.050022304 1516561
1.0879786 0.68981242 0.048993111 1646345
1.0829575 0.68341482 0.050184309 4343608
1.0840594 0.68613338 0.048738003 3421470
1.0860736 0.6898123 0.046250641 2633225
1.0857171 0.6910702 0.048011541 3356435
1.0814108 0.68778765 0.046565413 3814950
1.0835252 0.69159234 0.047302425 4144417
1.0850556 0.69199848 0.04618454 3290641
1.0800517 0.68893462 0.043403625 3552033
1.0805608 0.69183314 0.044233084 3946786
1.0824249 0.6951915 0.043792963 3947809
1.0758485 0.68739593 0.045645177 4739126
1.0783012 0.68966305 0.042807221 3815198
1.0779564 0.69325256 0.043188512 3816234
1.0793636 0.6952216 0.042418778 4144413
1.0718806 0.68657458 0.041214526 5000248
1.0758432 0.691616 0.041146994 4539431
1.0768251 0.6944176 0.04109931 4079911
1.080162 0.69678402 0.040339887 4144153
1.0527065 0.6645875 0.04416889 2367259
1.0544171 0.66389966 0.044847548 2367516
1.0663053 0.68211901 0.040761352 5065502
1.0675743 0.6856153 0.040937066 5131571
1.0700711 0.68652606 0.040848732 5065782
1.0705408 0.69007969 0.041034639 5000249
1.073339 0.69148248 0.040729642 4868661
1.0746248 0.69593972 0.040503442 4803116
1.0774436 0.69795972 0.038813233 4472608
1.0767541 0.69946432 0.039563715 4933409
1.0558288 0.6689778 0.042192757 2302489
1.057719 0.67278945 0.040511131 2236950
1.0598142 0.67614585 0.041033566 2302485
1.0612848 0.67931914 0.040433049 2433300
1.0627172 0.68179667 0.040276408 3749142
1.0640461 0.68449509 0.04105413 5065512
1.0686922 0.69297659 0.038721204 5461572
1.0705022 0.69290286 0.039086461 5593414
1.0750227 0.69837892 0.038013577 4933672
1.0468117 0.66068959 0.04128468 2171408
1.0573924 0.67674899 0.040234506 2302232
1.0586478 0.67997932 0.040594637 2236696
1.067296 0.6925683 0.036728323 5396035
1.0722439 0.69957566 0.036174238 5065781
1.0642452 0.6938231 0.035427094 5658433
1.0665808 0.69675994 0.03360039 5591090
1.0696077 0.70066112 0.034245849 5525557
1.0624936 0.69312048 0.035409629 5855555
1.065069 0.6966086 0.033853769 5525816
1.0658062 0.69978273 0.033950329 5591350
1.0681245 0.70046234 0.033565164 5656619
1.0321028 0.65413487 0.038473964 1774600
1.0343695 0.6560533 0.038933992 1577992
1.0392698 0.6620127 0.037352741 2237202
1.0407667 0.66651028 0.037512243 2237203
1.0439175 0.66914344 0.036107302 2237203
1.0315421 0.65735674 0.038688242 1708805
1.0449564 0.6767869 0.034929097 2237205
1.02979 0.65980446 0.036641598 1905670
1.019477 0.6803447 0.019890487 4142105
1.0175922 0.68156397 0.018745661 4931620
1.0137872 0.68049395 0.015729725 6774323
1.0108726 0.68089032 0.014975667 7826752
1.0130787 0.68453288 0.015472174 6576940
1.0156975 0.68552518 0.015645742 6049850
1.0102262 0.68472505 0.014848232 7629375
1.0109614 0.68436843 0.012707591 7825970
1.0077596 0.68513095 0.011877835 8549430
1.0094041 0.68846524 0.01225394 7892271
1.2287567 0.5231362 0.20384359 10195294
1.2320969 0.52543759 0.20421037 10196578
1.2269607 0.52374476 0.20231253 10524774
1.2228487 0.52156413 0.20133123 10327911
1.1437798 0.7109499 0.067388773 8621442
1.1459436 0.71477675 0.067713976 8488830
1.1475054 0.7159667 0.068250716 8818047
1.1525382 0.72280717 0.068912029 11579293
1.1365306 0.7057097 0.067117453 8621705
1.1380322 0.70720559 0.067596495 8490628
1.1404366 0.7098307 0.067534208 8359299
1.1418834 0.71277535 0.068066001 8424836
1.1443268 0.71382922 0.067881823 8226946
1.1475468 0.71880972 0.066574395 11975333
1.1483616 0.72276247 0.063878596 9737854
1.1496854 0.72380388 0.065708399 11579803
