# .PCD v0.7 - Point Cloud Data file format
VERSION 0.7
FIELDS x y z rgba
SIZE 4 4 4 4
TYPE F F F U
COUNT 1 1 1 1
WIDTH 1199
HEIGHT 1
VIEWPOINT 0 0 0 1 0 0 0
POINTS 1199
DATA ascii
1.2102295 0.55876702 0.29089504 1908516
1.2129521 0.55924654 0.29055947 2369067
1.2209918 0.5637604 0.28772184 2238249
1.2237589 0.5648706 0.28701964 2238255
1.2258371 0.56644338 0.28599203 2436653
1.2276773 0.56782269 0.28457573 2370607
1.2301222 0.56985158 0.28330913 2173757
1.2327055 0.5711993 0.28134149 2436940
1.2008725 0.55757958 0.29015148 1382179
1.2033705 0.55805391 0.29008511 1382693
1.2060361 0.55842137 0.28953829 1645861
1.208096 0.55896956 0.28997076 2106157
1.1967349 0.55789858 0.28920934 1251620
1.1993419 0.55814433 0.28923097 1448485
1.2019106 0.55880839 0.28817457 1645605
1.1959976 0.55856043 0.28787211 1382955
1.198122 0.55921853 0.2871182 1645610
1.192216 0.55976182 0.2870833 1252141
1.1939312 0.55940336 0.28564075 1580072
1.1961977 0.55969965 0.28505701 1777453
1.1905404 0.56041825 0.28457233 1317162
1.1925777 0.56092709 0.2839382 1580333
1.1883847 0.56121272 0.28263831 1119785
1.1902404 0.56219256 0.28191993 1515048
1.0597298 0.671067 0.12334269 6515054
1.0622011 0.6731022 0.12331444 5592399
1.0539607 0.67059338 0.12399104 4803395
1.0556686 0.67113614 0.12275974 4803397
1.05803 0.67213333 0.12179998 5264210
1.0598087 0.67265737 0.12162767 4935248
1.0634176 0.67464834 0.12198773 6645091
1.0489424 0.67013496 0.1221775 5065031
1.0517972 0.6700151 0.12171584 5197385
1.0552084 0.67178142 0.12040173 4539973
1.0571647 0.67296284 0.11984974 4737865
1.058821 0.67451459 0.11835593 5527640
1.0463043 0.67062449 0.12265328 5789005
1.0475221 0.67054415 0.12026402 5131330
1.0509259 0.67266691 0.11727096 5066058
1.0450647 0.67157656 0.11946081 6249818
1.0467355 0.67122483 0.11866039 5328711
1.0490555 0.67417705 0.11768931 4671301
1.0443105 0.6719979 0.11653881 6710377
1.0465021 0.67518961 0.11529751 5329488
1.0454912 0.67655128 0.11141798 5790043
1.0438168 0.6781587 0.11169557 6579814
1.0977339 0.71472406 0.080102488 5663382
1.0973005 0.71781766 0.079206109 5399949
1.0953482 0.71937013 0.076380089 5269397
1.0925082 0.71917188 0.073650673 5335957
1.0937793 0.72050971 0.075753435 5203858
1.0882273 0.71880263 0.074164838 5006994
1.0907329 0.72092038 0.074643448 5269652
1.0965472 0.72233272 0.071321249 6193331
1.0978255 0.72462654 0.070694685 5599647
1.1046616 0.72731888 0.068524197 5531539
1.081444 0.71821952 0.07290411 5006736
1.08407 0.71965015 0.072761551 5138324
1.0863965 0.72155511 0.072460204 5072785
1.0914963 0.72343469 0.070096523 5141933
1.0948507 0.72435445 0.070107743 5534887
1.0954581 0.7266711 0.070215642 5929135
1.1004916 0.72771716 0.066243172 6125219
1.0673571 0.71268201 0.075304121 5991310
1.0691695 0.71470881 0.074887887 5925513
1.0718123 0.71615171 0.074812919 5926284
1.0745037 0.71730101 0.073927566 5467022
1.0771948 0.71763146 0.073524073 5204114
1.0797348 0.71804279 0.07314387 5072784
1.0822799 0.72177458 0.07199955 5204631
1.083447 0.72227883 0.070109308 5402781
1.0878184 0.72492015 0.068308756 5141932
1.0902926 0.72521222 0.068344265 5140388
1.0922698 0.72635257 0.068854392 5139610
1.0947489 0.72821099 0.066709176 5402527
1.0976988 0.72820151 0.066376328 5796766
1.1007875 0.73031014 0.066882864 5664669
1.066528 0.71429336 0.075479463 5728139
1.074047 0.71869427 0.069569796 8226720
1.0789577 0.72131091 0.070204556 6913442
1.0816756 0.72090167 0.069397986 6585503
1.0831622 0.72407281 0.067190275 4876693
1.0859159 0.72563165 0.06747359 4942748
1.0886552 0.72571063 0.067140535 5140391
1.0918758 0.72765708 0.065854087 5074332
1.0951043 0.72984505 0.065064907 5666215
1.0685289 0.71887577 0.070221201 5926030
1.072325 0.71893972 0.069551095 6123408
1.0744087 0.72192913 0.069484219 8161445
1.0765816 0.72363698 0.068442971 5270161
1.0803726 0.72405088 0.067599654 4941714
1.083995 0.72695518 0.065384492 5205403
1.0870953 0.727916 0.064664885 5139610
1.0896518 0.73045969 0.063141182 5009057
1.0926671 0.72943705 0.063530788 5403559
1.0636225 0.7192893 0.070602655 5465992
1.0652773 0.71927923 0.068732351 6057877
1.0674701 0.72051525 0.067828327 7437982
1.0702319 0.72114491 0.067700788 7963807
1.0726763 0.72261328 0.066168115 7503770
1.0745047 0.72364193 0.064818457 7306904
1.0771915 0.72608191 0.064569995 6058387
1.0802567 0.72661233 0.063758582 5664403
1.0823358 0.72749484 0.064112112 5205141
1.0855708 0.72968096 0.062087681 5074330
1.0877544 0.73002672 0.062623411 5074591
1.0633726 0.72113067 0.066605061 6452380
1.0658165 0.72123468 0.066736817 7372449
1.073248 0.72646362 0.064881712 7570336
1.0759909 0.72764963 0.063347667 7176094
1.0796592 0.72844923 0.061872873 6189974
1.0823836 0.72957104 0.061724532 5468055
1.0839744 0.72884291 0.060642246 6059161
1.0605428 0.72093523 0.065501362 6255502
1.0615503 0.72195262 0.065507621 6189971
1.0527813 0.71926194 0.065745443 7898795
1.0550432 0.72143054 0.064968348 7702434
1.0580796 0.72080237 0.064985096 5468807
1.0504587 0.71939403 0.065009981 8162485
1.0567017 0.72310346 0.061360542 1456715
1.0587106 0.72461706 0.062283393 5468287
1.0525848 0.72550642 0.060183074 5663118
1.0547189 0.72426444 0.060760077 3164013
1.048274 0.72451895 0.058151726 5858177
1.0511267 0.72495717 0.058206361 4083821
1.0336305 0.71827984 0.061300222 2434352
1.0331225 0.7197237 0.058574956 2630710
1.026082 0.71927983 0.058482599 2565946
1.0289541 0.72029567 0.056558002 2565683
1.0307691 0.72099757 0.057751048 2630966
1.0142473 0.71534765 0.059747327 2763571
1.0165496 0.7173472 0.059175793 2500656
1.0185486 0.717749 0.058748338 2632247
1.0220454 0.72079617 0.056723911 2565939
1.0238041 0.72092289 0.058257658 2697524
1.0065063 0.71371466 0.059769336 2238767
1.0154753 0.71631533 0.057930458 2631992
1.0203177 0.72045088 0.056998972 2697786
1.0240355 0.72196728 0.055714916 2566199
1.2190545 0.56131309 0.29249039 3027272
1.2089993 0.55998385 0.29444572 2500653
1.211359 0.56038034 0.29352131 2105642
1.2136549 0.56141567 0.29348561 2566450
1.2163956 0.56219459 0.29301396 2829621
1.2188491 0.56317288 0.29217374 2895668
1.2214619 0.56464708 0.29158685 2895667
1.2238286 0.56605428 0.29063541 2895926
1.2266719 0.56733918 0.2901479 2961468
1.2284808 0.56729382 0.28918311 2830396
1.2047726 0.55985934 0.29360637 1382692
1.2068768 0.56014216 0.2933847 1711396
1.209605 0.56055957 0.29292583 2040359
1.2115117 0.56183237 0.29340455 2435117
1.2204837 0.5658868 0.28965402 2304298
1.2228179 0.56690621 0.2887674 2172968
1.22552 0.56866533 0.28793895 2765615
1.2276469 0.57043958 0.28640014 2239542
1.2297016 0.57167804 0.28511935 2305348
1.2006539 0.55912971 0.29207763 1382435
1.2030251 0.55992895 0.292319 1382692
1.205554 0.5606246 0.29204419 1645861
1.196485 0.55951357 0.29112607 1514026
1.1988717 0.5601458 0.29134277 1514280
1.2015564 0.56044769 0.29067016 1514531
1.1931869 0.55978 0.28924194 1383469
1.1950169 0.56034577 0.28993362 1514027
1.1972921 0.56123066 0.28926677 1645865
1.1912861 0.56082141 0.28845748 1317419
1.193435 0.56194937 0.28789231 1645866
1.1950976 0.56229937 0.28797129 1777453
1.1888685 0.56180882 0.28666538 1251625
1.1915573 0.56312448 0.28550991 1646123
1.1874075 0.56282848 0.28512034 1251117
1.1894875 0.56400716 0.28438345 1645867
1.0569953 0.66858965 0.13217923 5789272
1.0585304 0.66829652 0.13243864 6645865
1.055716 0.66899079 0.1302072 5263432
1.060205 0.67158461 0.12890399 6975090
1.0536758 0.67022717 0.12790482 5131074
1.0564253 0.67168552 0.12654163 4934729
1.0587282 0.67314219 0.12558722 5461846
1.0607855 0.67363781 0.12512799 4540749
1.0506012 0.67121542 0.12661076 5197132
1.0527128 0.67164218 0.12494372 5000263
1.0556659 0.67267609 0.12454163 4606020
1.0576285 0.67396569 0.12351802 4409155
1.0600518 0.67448837 0.1225671 6185057
1.0465788 0.67062229 0.12515116 5854542
1.0489397 0.67146862 0.12481721 5263180
1.051365 0.67241722 0.12283218 5066319
1.0530831 0.67446673 0.12254672 4934725
1.0554339 0.67404747 0.12114322 4474182
1.0447316 0.67145157 0.12308376 6512992
1.0479677 0.67471755 0.12267694 4737610
1.0500944 0.67600369 0.12087229 4671814
1.0460467 0.67683542 0.11959238 6053215
1.0477268 0.67577803 0.11958396 4737612
1.0449734 0.67592496 0.11836182 6316899
1.0465376 0.67679048 0.11821869 5132895
1.0437571 0.67749739 0.11530998 6777453
1.0966338 0.71962351 0.079120189 5399176
1.0921663 0.72237724 0.076597646 5400209
1.093751 0.72203416 0.077779055 5333901
1.0878502 0.72170502 0.07451053 5072530
1.0906003 0.72297591 0.076364622 5268622
1.0860007 0.72376645 0.07393536 5203602
1.088653 0.72423077 0.074812919 5466004
1.0930247 0.7267499 0.070443153 5666990
1.0710484 0.71842241 0.07548137 5663116
1.0738498 0.7195906 0.074602038 5400975
1.075923 0.72124755 0.074730173 4875150
1.0783706 0.721995 0.073732272 5072785
1.0811013 0.72370696 0.072438866 5006738
1.0833126 0.724271 0.073039055 5072534
1.0902355 0.72749448 0.069269821 5272228
1.0926356 0.72779769 0.069857478 5336735
1.0948668 0.72993475 0.067921609 5600164
1.0970215 0.73127079 0.06740877 5401496
1.0990595 0.73170745 0.068396568 5400718
1.0653392 0.71716404 0.075812832 5859211
1.0684372 0.71766692 0.076164052 5728138
1.0753607 0.72352105 0.072916865 5533081
1.0775712 0.72389328 0.071182877 5665436
1.0799954 0.72544348 0.071316227 5073562
1.0828719 0.72729713 0.069121376 5271460
1.086476 0.72765762 0.069247782 5271716
1.088939 0.72883874 0.069055796 5140128
1.0902805 0.73051214 0.067316696 5139355
1.0929099 0.73033887 0.067970157 5205147
1.0742849 0.72339553 0.070236444 6190232
1.081665 0.72741199 0.068182528 4810646
1.0840216 0.72889841 0.067342505 5073820
1.0868877 0.72980291 0.066768587 5074077
1.0889107 0.73089427 0.065395579 5074081
1.0916471 0.73230857 0.063673422 5271973
1.0641323 0.72214818 0.07106629 5926023
1.0670136 0.72246438 0.070339859 5926543
1.0701305 0.72386879 0.069753408 6715801
1.0722339 0.72500718 0.068633646 5664146
1.0747551 0.72691089 0.067956671 5270422
1.0773271 0.72799218 0.06739141 4942231
1.0800666 0.72946358 0.066275015 4942488
1.0826036 0.72898155 0.065403774 5008283
1.0850337 0.73190039 0.064189121 4942754
1.087281 0.73184335 0.064818904 4943012
1.0623506 0.72232467 0.071112081 5859974
1.0637317 0.72247052 0.067999199 7372445
1.0657749 0.72426724 0.068590701 8161961
1.0684237 0.72486609 0.067840636 7439009
1.0733713 0.72872579 0.065550774 6059421
1.0759882 0.7300024 0.063957766 5665177
1.0787743 0.73056525 0.064006418 5074075
1.0815279 0.73120219 0.063445255 4943005
1.0584093 0.72178221 0.066723183 8359593
1.0623633 0.7233662 0.067588538 8227758
1.0639687 0.72503769 0.067918062 7767714
1.0714343 0.72764295 0.064457536 7833250
1.0712804 0.72922301 0.065690279 6322333
1.051116 0.72111064 0.068457022 10002104
1.0528455 0.72159451 0.067712232 10331324
1.0557293 0.72312081 0.066981599 9673401
1.0581112 0.72413778 0.067333251 8819117
1.0598817 0.72568935 0.065403521 7832735
1.0504586 0.72113645 0.066248626 10594500
1.0569043 0.72659576 0.0634152 8884909
1.0563823 0.72668493 0.061013151 6190214
1.0504084 0.72759753 0.059388544 9081260
1.0484192 0.72813344 0.05919924 10199227
1.0186785 0.72063643 0.059006188 2697016
1.0237815 0.72382176 0.058773804 2105908
1.0203843 0.72213799 0.058008615 2763064
1.0219667 0.72308493 0.056846742 2763319
1.2078172 0.56194663 0.29668188 2368819
1.2101641 0.56221163 0.29603535 2237736
1.2129565 0.56312591 0.29558274 2566448
1.2157263 0.5643515 0.29524967 2829877
1.2184663 0.56534821 0.29420123 2829875
1.2211386 0.56693757 0.29303727 2830132
1.2235531 0.56829137 0.29232478 2830393
1.2259455 0.56918049 0.29147711 2961727
1.2041537 0.56124222 0.29569915 1448744
1.2066462 0.56226563 0.2954219 1645603
1.2092347 0.56296808 0.29505178 2237482
1.2117375 0.56336641 0.29447606 2764084
1.2204553 0.56783223 0.2913996 2500655
1.2230297 0.56999838 0.29072934 2501424
1.2248462 0.57036543 0.28958422 2436402
1.2271808 0.57246304 0.28768373 2370876
1.2291304 0.57294965 0.28621683 2436676
1.1999526 0.56122404 0.2947517 1317157
1.2023996 0.56214648 0.29423979 1317410
1.204596 0.56252301 0.29393744 1711656
1.1961844 0.56127942 0.29350117 1448232
1.1986177 0.56240314 0.29290232 1514534
1.200897 0.56277555 0.29321283 1580583
1.1921729 0.56252778 0.29177463 1580849
1.1946857 0.5627594 0.29162636 1580332
1.1965008 0.56295252 0.29147917 1646122
1.1909224 0.56295842 0.29049855 1449002
1.1931159 0.56402934 0.29004359 1711916
1.1884737 0.56430888 0.28869489 1382954
1.1906235 0.56511325 0.28762341 1777453
1.1862941 0.56487495 0.28722543 1185572
1.1883087 0.56542879 0.2864455 1842733
1.0550435 0.66806889 0.136318 4868161
1.0577182 0.66840434 0.13536242 6053214
1.0537329 0.66871166 0.13416202 5131082
1.0559641 0.66920567 0.13306712 5131854
1.0598428 0.67109096 0.13268742 6580586
1.0529491 0.66968215 0.1324309 5262664
1.0531923 0.67201215 0.13207041 4934991
1.0574261 0.67274404 0.13085447 4869707
1.0591857 0.67395061 0.12937255 5725015
1.0485498 0.66977835 0.13142204 5065803
1.0515078 0.67039949 0.13049155 5328974
1.0533041 0.67238456 0.13022256 4869197
1.0564942 0.67321956 0.12852253 4606276
1.0596489 0.67392588 0.12760727 5330000
1.061325 0.67525065 0.12603234 5330516
1.0462178 0.67087734 0.12977327 5986902
1.0500237 0.67157137 0.12791294 5198165
1.0527091 0.67240298 0.12716088 4869452
1.0540893 0.67521459 0.12658128 4737604
1.0571663 0.67578495 0.12591995 4408644
1.045192 0.67206085 0.12652212 6776162
1.0479269 0.67427683 0.12650578 4868935
1.0504996 0.67561942 0.12510943 4803400
1.0446656 0.6743291 0.12616895 7631477
1.0467628 0.67645192 0.12416449 5330267
1.048852 0.67654753 0.12302947 4738126
1.0460018 0.67754591 0.12154762 5790566
1.0471148 0.67782259 0.12109421 5132636
1.0437944 0.67869407 0.11982156 6579821
1.0449857 0.67890054 0.11926249 5856621
1.0847731 0.72504592 0.074678212 5531793
1.0779241 0.72479641 0.075261131 5530509
1.0821664 0.72557825 0.075422168 5596552
1.0676969 0.72148114 0.076990694 6384004
1.0703659 0.72207129 0.076397687 5990273
1.0728157 0.72231841 0.075255498 5597583
1.0757056 0.72439176 0.075559437 5595786
1.0772957 0.72603297 0.072899938 5532566
1.0810294 0.72747475 0.071551293 5533348
1.0829022 0.72711372 0.071664095 5335700
1.0849158 0.72947413 0.070112601 5072789
1.0662336 0.72211826 0.075577438 5595271
1.0747167 0.72664392 0.070772424 5203860
1.0807903 0.73009115 0.069822654 5072529
1.0873002 0.73143691 0.067848995 5139099
1.0892851 0.73290569 0.066417098 5139361
1.0673845 0.72425336 0.071075648 6123925
1.0700521 0.72667003 0.069571614 5400719
1.0719978 0.72680956 0.069279134 5269650
1.0735735 0.72892576 0.070016593 5268621
1.0774803 0.72949588 0.068634525 4875925
1.0798346 0.73283845 0.067065969 5270170
1.0823543 0.73292506 0.066823825 5139100
1.0843735 0.73276335 0.066123456 5008032
1.0642869 0.72497576 0.071476862 5925500
1.0653535 0.72631472 0.069577605 6255508
1.0682003 0.72744286 0.069452897 5729164
1.070497 0.72893888 0.070158571 5662606
1.0735484 0.73125046 0.066084757 5204892
1.0754713 0.73254651 0.065921262 5204632
1.0774633 0.73227108 0.065655306 5008284
1.0624138 0.72512764 0.068662822 8030120
1.0694181 0.72987705 0.066558033 6058908
1.0713632 0.73083544 0.066635475 5467031
1.0541935 0.72456402 0.067870975 9541558
1.0590618 0.72789031 0.066487461 7569571
1.0612965 0.72909164 0.066744044 7241114
1.0572544 0.72797012 0.065631911 8555942
1.0528054 0.73090988 0.063441128 9738672
1.2079456 0.56302249 0.29763889 2762804
1.2101156 0.56439286 0.2975955 1974565
1.2126805 0.56563896 0.29738027 2566702
1.2151533 0.56674862 0.29718298 2764082
1.2178377 0.56786591 0.29627168 2829875
1.2201978 0.56887954 0.29502884 2895926
1.2226952 0.56976068 0.29494697 2896190
1.2035656 0.56307167 0.29758912 1776683
1.2061312 0.56435663 0.29731631 1645861
1.2085841 0.56515682 0.29688132 2303536
1.2106544 0.5659436 0.2967239 2830137
1.2199094 0.57086122 0.29320827 2304307
1.2220339 0.57139337 0.29242942 2436149
1.2242874 0.57239163 0.29101542 2436667
1.1997007 0.56341136 0.29692098 1382695
1.2019315 0.56436765 0.29618189 1580072
1.2044231 0.56486136 0.29648826 2106674
1.1961824 0.56308931 0.29580444 1580074
1.1980698 0.56459451 0.29509908 1646122
1.1918763 0.56455779 0.29394871 1646129
1.1939267 0.56478834 0.29372191 1711915
1.1958296 0.56489909 0.29397848 1843243
1.1901512 0.56463456 0.29261148 1514794
1.1920788 0.56610471 0.29190201 1777712
1.1864126 0.56616282 0.28938025 1448749
1.1879079 0.56628013 0.2902838 1645868
1.1902441 0.56736583 0.29034552 1777709
1.1876334 0.5682652 0.28958026 1908782
1.0549479 0.66872531 0.1377037 5065794
1.0570507 0.66942072 0.13778894 5460819
1.0600735 0.67185706 0.1360933 6777712
1.0519704 0.67015433 0.13700862 5460040
1.0533513 0.67015201 0.13668649 5000258
1.0558705 0.67246288 0.1363 4803654
1.0581458 0.67314363 0.13498737 5132878
1.0439516 0.66618413 0.13819057 7631991
1.0497656 0.67140031 0.13478285 5329492
1.052188 0.67149901 0.13461846 5132111
1.0545549 0.67369968 0.13319843 5000521
1.0573639 0.673913 0.13282344 4672067
1.0595912 0.6751979 0.13195635 5264460
1.0511264 0.6717003 0.13260952 5263699
1.0536913 0.67457795 0.13155353 5000519
1.0556011 0.67491138 0.13067959 4671554
1.0576992 0.676337 0.12959723 4408640
1.0482798 0.67598146 0.13001902 4803411
1.0513099 0.67579073 0.12919313 5000521
1.0452167 0.67497438 0.12907198 6513519
1.0478978 0.67653906 0.12803972 5132374
1.0494534 0.67653012 0.12730482 4869453
1.0471643 0.67738378 0.1253566 5461594
1.0446402 0.67846572 0.12409224 6842472
1.0470414 0.67851871 0.12362686 5198432
1.0432324 0.67950404 0.12122254 5988465
1.0773851 0.7306748 0.070887744 5399431
1.0648921 0.72799712 0.07092458 5991046
1.067902 0.72976381 0.070180312 6056579
1.0510684 0.73136878 0.063868612 9212842
1.2098851 0.56711513 0.29928112 2040621
1.2120582 0.56801909 0.29909134 2567221
1.2149206 0.56926674 0.2988767 2698805
1.2175226 0.5702914 0.29781446 2830136
1.2203716 0.57121724 0.29678464 2896446
1.2033653 0.56604302 0.29945186 1054496
1.2056372 0.56666487 0.29905942 1777452
1.2082127 0.56746233 0.29907978 2238004
1.2199609 0.5727098 0.29441461 2173748
1.2208686 0.57388824 0.29428729 2502459
1.2229998 0.57394493 0.29313025 2634815
1.1990091 0.56568891 0.29804516 1514280
1.2015231 0.56643587 0.29837281 1580585
1.2035624 0.56773669 0.29914442 2106422
1.1952924 0.56566668 0.29739621 1580077
1.1971109 0.56630826 0.2971628 1711659
1.1922553 0.56598717 0.29616049 1711924
1.1934325 0.56680614 0.29587457 1711918
1.1896125 0.56703985 0.29455188 1580588
1.1911813 0.56834185 0.2936343 1909041
1.1865669 0.56744009 0.29258928 1580331
1.1883806 0.56942451 0.29177317 1777711
1.0563962 0.6702705 0.14387001 4737607
1.0582632 0.67099136 0.14319575 5593436
1.0605967 0.67306852 0.14095508 6580590
1.0532094 0.6709618 0.1418068 5001049
1.0553629 0.6710031 0.14106043 4868938
1.0569564 0.6725564 0.14015563 4869192
1.0593641 0.67382687 0.13873468 5461590
1.051237 0.67095596 0.13846894 5592668
1.0537007 0.67197371 0.13848904 5131849
1.0556904 0.67348683 0.13800672 4868932
1.0583788 0.67472607 0.13649248 4803398
1.0517702 0.67422223 0.13670966 4934985
1.0545121 0.67407566 0.13539892 5065797
1.0479332 0.67545974 0.13528441 5198943
1.0495046 0.67536491 0.13509157 4737614
1.0511174 0.67588419 0.13218576 4935246
1.046507 0.67552811 0.13329871 5856872
1.0485817 0.67621732 0.13249654 4868946
1.0452303 0.67534196 0.13102549 5988461
1.0467271 0.67798722 0.13113143 6316132
1.2088993 0.56907374 0.30126143 1975600
1.2114593 0.57029057 0.30085167 2765378
1.2137551 0.57136244 0.30029953 2831174
1.2162042 0.5726133 0.29968548 2830916
1.2182657 0.57249427 0.29872972 2830657
1.2026818 0.5679642 0.30113837 1382689
1.2050011 0.56888437 0.30127656 1909294
1.2078474 0.56986791 0.30107087 2435897
1.2101351 0.5705182 0.3009477 2962759
1.2197337 0.57546192 0.29582325 2502970
1.1964157 0.56820512 0.30130073 1054234
1.1986618 0.56810099 0.30064723 1382947
1.2011349 0.56846184 0.30042276 1777450
1.1951225 0.56801903 0.29929069 1448741
1.1968517 0.56831622 0.29932007 1645866
1.1911595 0.56848973 0.29740715 1645867
1.1925582 0.56871289 0.2978293 1645869
1.1870438 0.56980371 0.29733384 1580336
1.1886052 0.56926364 0.29632527 1777456
1.1904516 0.56989855 0.29575631 1711922
1.1863705 0.56908524 0.29482022 1383214
1.1878031 0.57115775 0.29371375 1909296
1.0568964 0.66990918 0.14921416 4672060
1.0571653 0.67072165 0.14643274 5132362
1.0596384 0.67257631 0.14511651 6054503
1.0615126 0.67324257 0.14574583 7107199
1.0521704 0.67211437 0.14563458 5198426
1.0553151 0.67213291 0.14511198 4869194
1.0579334 0.67319095 0.14424914 4540485
1.0603 0.67403972 0.14308232 5396566
1.0494031 0.67246914 0.14360097 6186091
1.0512499 0.67199379 0.14244547 5462115
1.054101 0.67229325 0.14296971 4869458
1.056842 0.67416811 0.14182003 4671813
1.0589993 0.67519259 0.14126134 5001034
1.0616758 0.67570168 0.14000246 7172462
1.0522898 0.67488295 0.14056785 4803653
1.0549247 0.67503911 0.13979681 5131595
1.0464079 0.67536682 0.14027485 6054511
1.0485471 0.67565644 0.13900572 5132893
1.0494909 0.67582208 0.13727009 4737614
1.0451018 0.67559028 0.13767555 6186096
1.0470372 0.67559338 0.13800269 5988717
1.0437268 0.67733282 0.13407759 6317682
1.0458002 0.67677128 0.13447243 6120048
1.0470326 0.68151808 0.13115437 6185059
1.2089514 0.57188046 0.3032192 2435382
1.2110186 0.57252628 0.30260441 2699843
1.1992925 0.56959414 0.30421191 1053720
1.202013 0.5702644 0.30350912 1711395
1.2046914 0.57102853 0.30332831 2237741
1.2072105 0.5714609 0.30270582 2435380
1.210008 0.57357955 0.30225644 2897220
1.2125524 0.57379234 0.30116481 3095635
1.1950182 0.56946695 0.30357018 987674
1.197992 0.56994534 0.30279374 1448227
1.2009242 0.57035768 0.30257744 2040364
1.1939349 0.570086 0.30143526 1316899
1.1964592 0.57002115 0.30107141 1448484
1.1909572 0.57031387 0.30051401 1382692
1.1921363 0.57044852 0.3002671 1580329
1.1865065 0.57101268 0.29758286 1251888
1.188627 0.57183909 0.29839876 1514538
1.1906942 0.57060879 0.29786146 1646123
1.1879709 0.57203001 0.2958453 1515056
1.0567213 0.67029381 0.15166862 4868409
1.0582724 0.67077953 0.15211572 5526601
1.0606854 0.67363381 0.1497325 5725280
1.0553544 0.67044842 0.14998521 5000001
1.0572879 0.67357653 0.14889459 4606275
1.0591367 0.67357105 0.14776428 4606534
1.0611665 0.6747998 0.14695689 5988194
1.0554664 0.67356777 0.14718266 4868936
1.0580562 0.67502081 0.14594683 4671812
1.0594951 0.67599964 0.14453137 5461328
1.0502783 0.67223746 0.14579187 5791596
1.0511006 0.67451906 0.14635567 5067097
1.0537174 0.67520905 0.14451131 5000516
1.056568 0.67561895 0.14315265 4934471
1.0450069 0.67405128 0.14345703 6317940
1.0461011 0.67537326 0.14468174 6185843
1.0491371 0.67544204 0.14306682 5067101
1.0467259 0.67516571 0.14260046 6054253
1.0500574 0.67697382 0.14165671 4540487
1.0444261 0.67823493 0.1384761 6252146
1.288677 0.59381974 0.30287367 10661321
1.2057319 0.57390577 0.3068077 2303276
1.2082217 0.57428032 0.3053734 2369327
1.2099073 0.57434201 0.30466679 2501949
1.1986454 0.57121986 0.30658457 1119511
1.2014898 0.57205904 0.30555415 1908773
1.2041864 0.5729093 0.30534118 2303272
1.2068275 0.57400197 0.30472565 2501167
1.1930747 0.57082516 0.30610752 922136
1.1951696 0.57116991 0.30542931 1185310
1.1974736 0.5716114 0.30514807 1514019
1.1998023 0.5715645 0.30454072 1908519
1.1912932 0.57124788 0.30410972 1119518
1.1931002 0.57175022 0.30411536 1251107
1.1894938 0.5720197 0.30246028 1448487
1.1874932 0.57358688 0.30105042 1579818
1.0559549 0.66929024 0.15852109 5197893
1.0583767 0.66975492 0.15804981 5264467
1.0568454 0.67026186 0.15550509 5000511
1.058013 0.67033589 0.15411216 5395277
1.0612091 0.67321908 0.15313099 6712690
1.0585161 0.67495632 0.15292539 4212288
1.0602516 0.67435837 0.15239994 4935500
1.0561861 0.67440438 0.15053169 4934726
1.0585682 0.67592311 0.14974599 4606532
1.0610507 0.67716396 0.14907418 6251618
1.050212 0.67382568 0.15070263 5725542
1.0520703 0.67487675 0.14954133 5066836
1.0545092 0.67626923 0.14838921 5197385
1.0456882 0.67495912 0.14985794 6383476
1.0481865 0.67624259 0.14833054 5527910
1.0499175 0.67624992 0.14710432 4935513
1.0530187 0.67593312 0.1473196 5000520
1.0466722 0.67625058 0.14634073 6054255
1.0492686 0.67609894 0.14556733 5198687
1.2897283 0.59476447 0.30583218 10858697
1.2044046 0.57481182 0.30867985 2105639
1.2070526 0.57585573 0.30775052 2171943
1.1962478 0.57255614 0.30902281 1185047
1.1984144 0.5730927 0.30844533 1645598
1.2013104 0.57378829 0.30777568 1908772
1.2039577 0.57484663 0.30724961 2106153
1.2067405 0.57675219 0.30733323 2171430
1.1914086 0.57197928 0.30831584 856599
1.194398 0.57290107 0.30785692 1251103
1.1968591 0.57293683 0.30704311 1579553
1.1884509 0.57297319 0.30734321 922395
1.190384 0.57310069 0.30634898 1251362
1.1926026 0.57267618 0.30648261 1448486
1.186915 0.57347846 0.30495408 1514023
1.188215 0.57331491 0.30438536 1448486
1.0559353 0.6708467 0.16027948 5197381
1.0574167 0.67020404 0.15969047 4737346
1.0618801 0.67472225 0.15811853 6975601
1.0556306 0.67402303 0.1571517 5066312
1.0584 0.6742835 0.15692624 4672067
1.0607442 0.67513543 0.15569369 5988447
1.0517901 0.67358941 0.15560506 5330782
1.054161 0.67458665 0.15566695 5066317
1.0577255 0.67544806 0.1545748 4671812
1.0595657 0.67679721 0.15291971 5001289
1.0612624 0.67743039 0.15230408 6383202
1.0502914 0.67517209 0.15339974 5198427
1.053093 0.67473727 0.15336633 5001037
1.0558097 0.67651218 0.15354568 5328460
1.0574563 0.67702132 0.15089242 4737346
1.0490408 0.67600125 0.15178698 5264737
1.0552824 0.677683 0.15035662 5394508
1.0450613 0.67659587 0.15082905 6317935
1.0477014 0.67685497 0.15034035 5988462
1.2900395 0.59570479 0.31073228 10464200
1.2900491 0.59614772 0.30814722 10267335
1.2018497 0.57538754 0.31093538 1908516
1.2042092 0.57699138 0.31075796 2040359
1.2058318 0.57729024 0.30942595 2040100
1.1929828 0.57384974 0.31172648 922390
1.1952944 0.57408327 0.31133971 1251101
1.1982551 0.57484424 0.31084707 1645602
1.2006145 0.57582092 0.31014389 1974312
1.2022303 0.57727158 0.31055707 2106151
1.1893016 0.57335877 0.31098297 856088
1.1910849 0.57419705 0.31031266 922395
1.1940948 0.57461321 0.30986479 1579814
1.187524 0.57438481 0.30932516 1053981
1.1891485 0.57477301 0.30830333 1514537
1.1862351 0.57533765 0.30684221 1514538
1.0598384 0.67246348 0.16155881 6448486
1.0632555 0.67486393 0.16157806 7436153
1.0538316 0.67363 0.16226536 4935248
1.0577269 0.67347199 0.16172165 4540233
1.0598704 0.67479992 0.16116399 4737862
1.0620215 0.6752134 0.16039987 6844014
1.0517124 0.67291617 0.16085485 5462627
1.0531175 0.6730808 0.16039768 5067861
1.0552298 0.67299527 0.16025214 4935757
1.0591142 0.67541331 0.15863922 4540483
1.0604947 0.67539954 0.1586401 5462878
1.0513434 0.67386472 0.15796241 5462623
1.0559412 0.67629778 0.15599458 5131591
1.0494848 0.67671639 0.15612084 5132895
1.0461619 0.67697519 0.15407407 6449522
1.0481821 0.67622089 0.15522055 5856875
1.2892236 0.59514481 0.31482953 10923719
1.2900462 0.59675258 0.31302303 10201542
1.1983657 0.57673502 0.31413093 1382430
1.2010778 0.57764244 0.31342363 2040102
1.2031214 0.57867283 0.31318811 2106667
1.1924418 0.57532811 0.31380054 1185051
1.1948955 0.57604015 0.31374604 1579811
1.1974643 0.57627356 0.31279328 1777447
1.2006729 0.57717067 0.31237352 1909027
1.1860977 0.57429081 0.31374797 856614
1.1884981 0.57514185 0.31338233 856345
1.1906912 0.57584167 0.31254423 1185567
1.1930546 0.5759533 0.31132677 1711659
1.1852438 0.57543916 0.31205159 1053983
1.1871688 0.57625985 0.31135383 1251363
1.1887106 0.57591677 0.31027889 1448742
1.1840155 0.57688159 0.31005052 1514538
1.1857897 0.57614398 0.30897337 1580074
1.0622804 0.67527419 0.16635737 6976638
1.058432 0.67465693 0.16553688 4474433
1.0606966 0.67570978 0.1651466 5331029
1.0629349 0.67632937 0.1638051 7370620
1.0534053 0.67344642 0.16570032 4936025
1.0571316 0.675744 0.1630509 4802888
1.0597609 0.67577982 0.16262382 4738633
1.0623668 0.6768505 0.16145964 7042172
1.050239 0.67615235 0.16278522 5330786
1.0523101 0.67364019 0.1626461 5067868
1.0487697 0.67705244 0.1610665 5791084
1.050505 0.67682034 0.15995048 4869722
1.0470555 0.67788786 0.15819958 6251892
1.0491377 0.67732382 0.15844472 5527909
1.0458618 0.67927927 0.15698892 6449526
1.2903455 0.59843284 0.31634456 9806785
1.1957864 0.57779986 0.31717932 1251101
1.1984003 0.57832873 0.31621444 1777186
1.2006048 0.57902789 0.31577021 2106152
1.18707 0.57627702 0.31765911 856346
1.1892561 0.57636064 0.31687221 1053721
1.1919943 0.57691067 0.31634483 1448481
1.1950229 0.57741427 0.31580454 1711657
1.1962569 0.57867187 0.31580284 2171694
1.1860147 0.5761553 0.31583133 725019
1.1881528 0.57681453 0.31553715 1053983
1.1902751 0.57711309 0.31455448 1580327
1.1840773 0.57742697 0.31391978 1317159
1.1865218 0.57755888 0.31366542 1448748
1.1824019 0.57823813 0.31251758 1514792
1.0603869 0.67473572 0.17200239 4803145
1.062678 0.67557126 0.17068236 6976123
1.0527258 0.67184138 0.17241804 5791857
1.0541309 0.67200601 0.17196086 5133400
1.0593157 0.67567164 0.16995507 4737862
1.0614727 0.67576396 0.16827302 5726049
1.0530092 0.67297459 0.16947609 5462627
1.0543357 0.6737206 0.16863702 4935507
1.0586485 0.6759966 0.16739872 4474434
1.0609524 0.67602694 0.16670272 5067347
1.0514596 0.67675644 0.16688474 4737878
1.0495788 0.67690396 0.16540606 5527653
1.0512834 0.67761141 0.16492304 4672084
1.0500505 0.67843968 0.16241762 5330272
1.2912434 0.59911627 0.32052305 9937598
1.2902466 0.59965926 0.31823218 9938369
1.189877 0.5782972 0.32113969 1185307
1.192714 0.57860082 0.31989005 1711398
1.1951045 0.57900542 0.31898725 1514271
1.1980217 0.58023542 0.31833285 2105893
1.1866808 0.57770586 0.31968912 922392
1.1891555 0.57789797 0.31907642 1382687
1.1913378 0.57811886 0.31874773 1777189
1.1822205 0.57824129 0.31881836 988444
1.1850933 0.57771236 0.31822038 922397
1.1868024 0.57822269 0.31689227 1448488
1.181388 0.57881987 0.31670171 1120030
1.183357 0.57916343 0.31605542 1448746
1.1820318 0.57937884 0.31451371 1580327
1.0621214 0.67517483 0.17615069 6054756
1.0626898 0.67441797 0.17410903 6976380
1.0538502 0.67296267 0.17667006 4936540
1.0603131 0.67581367 0.17393532 4738117
1.0528848 0.6726293 0.17371571 5331560
1.0594884 0.67699516 0.17141123 4080698
1.0504258 0.67513734 0.17221341 5593187
1.051445 0.67571586 0.17381407 5067101
1.0483707 0.67578036 0.17079975 6448755
1.0505674 0.67723727 0.16842838 5132637
1.048167 0.67723614 0.16829184 6185840
1.2895094 0.59909976 0.32566312 10595012
1.2923813 0.59990668 0.32440588 9279670
1.2911881 0.59998256 0.32263783 9740734
1.1879698 0.5786863 0.32284439 1185053
1.1901697 0.57949549 0.32273656 1645603
1.1925073 0.58001631 0.322108 1514017
1.1951241 0.58095825 0.3213945 1842723
1.1974308 0.58180606 0.32102445 2106155
1.1990811 0.58241165 0.31900412 1777962
1.1836517 0.57878107 0.32258031 790555
1.1860504 0.57891715 0.32184145 1119772
1.1884619 0.57923335 0.32167745 1645602
1.1821059 0.57925189 0.32078108 922398
1.1841908 0.57959962 0.31994209 1316902
1.181156 0.5805397 0.31837291 1514283
1.1820706 0.58009875 0.3174085 1514280
1.0545157 0.67230713 0.18239598 5199710
1.0623285 0.67501599 0.18018061 5857381
1.0542247 0.67183816 0.18085152 5463140
1.059463 0.67536551 0.17913507 4540223
1.0610605 0.67623824 0.1772238 4935498
1.0516164 0.6761167 0.17610423 5132895
1.0498421 0.67690921 0.17385247 5659495
1.2918334 0.60013455 0.32899973 10397637
1.2897973 0.600622 0.32747629 10332354
1.292155 0.60098737 0.32660139 9082803
1.1868029 0.58049798 0.32544458 1316898
1.1893407 0.5808996 0.32500997 1711397
1.1921751 0.58168483 0.32467785 1448222
1.1950268 0.58269382 0.32393324 1909029
1.1832576 0.58036458 0.32469532 987932
1.1856108 0.58063024 0.32421544 1382690
1.17951 0.58051234 0.32356679 1250844
1.1816056 0.58075607 0.32277355 1119523
1.1836642 0.58083314 0.32176068 1382952
1.1780267 0.58335066 0.32146305 1449518
1.1799082 0.58211601 0.32052296 1580079
1.0614465 0.67587698 0.18496569 4739150
1.0636108 0.67589158 0.18409798 7108223
1.0541141 0.6728301 0.18440093 5396835
1.0604187 0.67605042 0.18258679 4475203
1.0619781 0.67643505 0.18176946 5133393
1.0639652 0.67740971 0.18227755 7238772
1.0510091 0.67752099 0.17843282 5133151
1.2930754 0.60122007 0.33370981 9739704
1.2912538 0.60189652 0.33123198 10266047
1.2930118 0.60237932 0.33062831 8621741
1.2905895 0.60169792 0.32943603 10069439
1.1903073 0.58292264 0.32844698 1514018
1.1915314 0.58363003 0.32793668 1711906
1.1835355 0.58188307 0.32841358 1185309
1.186367 0.58235496 0.32772693 1448225
1.1891232 0.58280909 0.32750672 1448482
1.191905 0.58373916 0.32672718 1645857
1.1938094 0.58396429 0.32634085 1974565
1.1803935 0.58164597 0.3273958 790810
1.182371 0.58199567 0.32684904 1185055
1.1846461 0.58167553 0.32637671 1316637
1.1789559 0.58259022 0.32565066 1251108
1.1802962 0.58226794 0.32429066 1317160
1.1766051 0.58340031 0.32492092 1580583
1.1782184 0.58398938 0.3226316 1580585
1.0614929 0.67412066 0.19134334 4673102
1.0632746 0.67479783 0.19069836 6647677
1.0650722 0.6753307 0.19022374 8094607
1.0599445 0.67473137 0.1903263 4079932
1.061803 0.67567557 0.18854018 4869963
1.0643936 0.67618185 0.18748224 7568006
1.0536191 0.67265004 0.18951827 5726320
1.059216 0.67608565 0.18733956 4934209
1.0605259 0.67600912 0.18624675 4278081
1.0633725 0.67691666 0.18527989 6449516
1.0535821 0.67469954 0.18667571 5264997
1.2923303 0.60232961 0.33559605 10134207
1.2941194 0.60425425 0.33424416 7700892
1.2905619 0.60344863 0.33350813 9806013
1.292099 0.60369515 0.33304369 8819635
1.1875666 0.58370465 0.33088207 1119260
1.1895978 0.58416283 0.33042872 1645604
1.1916206 0.58503151 0.32943681 1908774
1.1810971 0.58335692 0.33105427 987930
1.1834223 0.58318764 0.33043969 1448226
1.1857917 0.58334583 0.33029157 1514020
1.1883736 0.5847168 0.32982183 1316643
1.1915159 0.58548141 0.328271 1711905
1.1796272 0.58307284 0.3294872 1053728
1.1820297 0.5830819 0.32916698 1251106
1.1768285 0.58406413 0.32963037 1646127
1.1773041 0.58350122 0.3279843 1317156
1.0652374 0.67528063 0.19574362 8029070
1.0601279 0.67472786 0.19409347 4277313
1.0628375 0.67585778 0.19326633 5726307
1.0651805 0.67676109 0.1926761 7897225
1.0592839 0.6755771 0.19189362 4736832
1.0619459 0.67663091 0.19129223 4738117
1.0642158 0.6775775 0.18973526 6843758
1.0530754 0.67507172 0.19173279 5133411
1.0545373 0.67491406 0.18976507 4673376
1.0520976 0.67593551 0.18797232 5066844
1.2932522 0.60350096 0.33979112 9673914
1.2950238 0.60410267 0.33880457 8357791
1.2910914 0.60453027 0.33756879 9937597
1.2935354 0.60518581 0.33665022 7898274
1.2898582 0.6050567 0.3357476 9872060
1.184582 0.58553672 0.33452061 1579813
1.1862779 0.58528423 0.33335727 1514017
1.1892045 0.58582282 0.33231434 1842980
1.1805394 0.58421874 0.33313751 1251361
1.1835533 0.58468837 0.33313665 1514276
1.1860029 0.5849067 0.33235282 1316894
1.1882557 0.58591652 0.33175108 1514012
1.1766798 0.58458722 0.33217457 1382694
1.1787467 0.58416319 0.33182481 1317156
1.1755419 0.58476937 0.33019608 1580079
1.0636909 0.67474097 0.20000602 6318966
1.0652162 0.67497349 0.19795172 8029327
1.0615907 0.67563903 0.19784361 4409669
1.0640672 0.67636162 0.1971743 6647152
1.0532893 0.67397016 0.19735725 5331305
1.0597168 0.67680442 0.19515276 4737089
1.0615712 0.67709345 0.19396766 4474430
1.0652961 0.67777133 0.19520296 7633534
1.0539165 0.67527741 0.19507456 5265003
1.2934977 0.60428005 0.3427467 9476280
1.295414 0.60412341 0.34329259 8423589
1.292114 0.60578132 0.34174877 9345208
1.2948982 0.60673988 0.34059095 7437458
1.2909353 0.6060183 0.33986264 9345464
1.2938056 0.60613728 0.33874172 7700638
1.1817837 0.58649296 0.33704957 2171953
1.183859 0.58658922 0.33608255 1842980
1.1863054 0.58692849 0.33551273 1842978
1.1883684 0.58720636 0.3340058 1974308
1.1775079 0.58545327 0.33572236 1119522
1.1798757 0.58579648 0.33543476 1382691
1.1821035 0.58597749 0.33555734 1514272
1.1760484 0.58600527 0.33440167 1514281
1.1742582 0.58585697 0.33202428 1580079
1.0608234 0.67547452 0.20200071 3948865
1.0627941 0.67605066 0.20217791 4936534
1.0647913 0.67728639 0.20188338 6778740
1.0537075 0.67555022 0.20229569 5660264
1.061172 0.67698288 0.20003536 4277309
1.0648457 0.67776912 0.19935139 6975345
1.0541008 0.67570925 0.19787411 4870503
1.2935632 0.6055668 0.3458837 9344948
1.2954062 0.60724002 0.3448576 7437200
1.2920706 0.60761225 0.34364843 8753585
1.2943271 0.6069718 0.34286416 7372185
1.2903405 0.60763645 0.34202471 9411512
1.181102 0.58771104 0.3382585 1316891
1.1828296 0.58802736 0.33822337 1777442
1.1855252 0.5882346 0.33798909 1909028
1.177202 0.58729225 0.33785689 1251107
1.1795716 0.58753085 0.33780119 1514277
1.1756227 0.5880065 0.33632547 1646124
1.0672752 0.67453861 0.20958006 8357779
1.0632961 0.67468721 0.20918404 5200474
1.0649682 0.67623377 0.20866801 6580585
1.0560616 0.67469442 0.20852187 4542044
1.061407 0.67501831 0.20778522 4014132
1.0638659 0.67656362 0.20573898 5660510
1.0657843 0.67654294 0.2060377 8029325
1.0551255 0.67560649 0.20614873 4936031
1.0609936 0.67580622 0.20537728 4145982
1.0618008 0.67701501 0.20406653 4212289
1.0660397 0.67822474 0.20315133 7963019
1.0545666 0.67539322 0.20455118 5265252
1.0607378 0.67877573 0.20157129 4539969
1.2941991 0.60728085 0.34952161 8949933
1.2964815 0.60778642 0.34902996 7502222
1.2905889 0.60877186 0.34836367 9016749
1.2923018 0.60783732 0.34759483 9082291
1.2947466 0.60806364 0.34707645 7174550
1.2902613 0.60803521 0.3466548 8885683
1.2916533 0.60855234 0.34532255 8688304
1.180928 0.58894891 0.33926228 1580065
1.1827155 0.59063464 0.34020969 1843235
1.1851171 0.59039128 0.33957583 2040869
1.1765075 0.58954543 0.33973509 1185573
1.1785377 0.59001487 0.33977565 1514796
1.1756841 0.59023166 0.33837405 1711920
1.0629498 0.67582059 0.21328533 4474688
1.0656579 0.67616332 0.21294931 6975089
1.0680102 0.67809534 0.21208131 8226194
1.0560578 0.67459118 0.21313159 5199722
1.0627511 0.67578238 0.21077579 4672838
1.0643175 0.67662948 0.21021588 5791582
1.0662731 0.67838025 0.21054165 8095123
1.0550643 0.67482382 0.21059999 5594737
1.2957762 0.60772717 0.353196 8028828
1.2978402 0.60855061 0.35311624 7436166
1.290704 0.60870212 0.35234511 9871032
1.2932934 0.60900551 0.35194737 8884656
1.2958952 0.60948414 0.35116431 7042187
1.2910106 0.60882926 0.3504681 9213617
1.2924627 0.60918289 0.34980443 8490156
1.1839925 0.59303337 0.34197047 1779258
1.1766567 0.59131759 0.34077027 1186861
1.1783949 0.593072 0.34101686 1187376
1.1811354 0.5929392 0.34105262 1449769
1.1751875 0.59306586 0.33946532 1843506
1.1761827 0.59372109 0.34014508 1778741
1.1739452 0.59382725 0.3379122 1909307
1.0662844 0.67653018 0.21701907 8160652
1.0559052 0.67477703 0.21705994 5331559
1.0635074 0.67708528 0.21537104 4540738
1.0656271 0.67755252 0.21418568 7041915
1.2959504 0.60964864 0.35736889 7897244
1.2921922 0.60988683 0.35638297 9673911
1.2949511 0.60961598 0.35550386 7963553
1.2972581 0.61012161 0.35504422 6975873
1.2913078 0.6100747 0.35421446 9213876
1.2931666 0.610605 0.35384214 8029861
1.2898375 0.60995895 0.35222402 8687531
1.2914298 0.6102581 0.35165823 8688048
1.1770788 0.59472013 0.34184837 3029066
1.1754007 0.59591019 0.34098095 3093825
1.0639601 0.67785794 0.21936148 4870219
1.0661794 0.67851353 0.21831433 7239033
1.0565317 0.67589289 0.21918 4607315
1.0625237 0.67739624 0.21662313 3948597
1.2975148 0.61000872 0.36175931 7501966
1.291973 0.60943097 0.36188808 8556713
1.295557 0.61081821 0.35959697 7765657
1.2984927 0.61086518 0.35913703 7107197
1.292257 0.61100817 0.35858768 8753583
1.2944467 0.61104715 0.35752621 7634587
1.2905872 0.61084569 0.35657543 8556716
1.0665016 0.67848521 0.22534561 6844536
1.0642295 0.67877036 0.22305198 4607046
1.0665601 0.67912936 0.22306702 6844535
1.0631558 0.67838871 0.22198465 3948595
1.0663103 0.67937952 0.22101158 6713204
1.0569223 0.67704588 0.22135265 4607565
1.2971483 0.61095089 0.36375341 7633811
1.2992171 0.61230904 0.36308137 6975353
1.292573 0.6114589 0.36241388 8555946
1.295001 0.61203891 0.3619417 7437208
1.2974586 0.61201185 0.36152101 6712444
1.2920368 0.61233824 0.359938 9607862
1.0653793 0.67809522 0.22969624 5002067
1.066994 0.67892784 0.22913924 6975864
1.063489 0.67828733 0.22791573 3817016
1.0656986 0.67830014 0.22706178 5791070
1.06259 0.67789882 0.22643547 4014651
1.297317 0.61286813 0.36761999 7305105
1.3003159 0.61294729 0.36685655 7238522
1.2917752 0.61196512 0.36680833 8161446
1.293512 0.61268592 0.36638898 8161190
1.2962929 0.61279136 0.36581859 6845065
1.2990294 0.61294502 0.36525065 6712440
1.2927574 0.61339664 0.36400664 9213616
1.2943543 0.61274815 0.36453721 7239833
1.1767473 0.59942049 0.35166547 7502989
1.0659854 0.67658675 0.23670253 5528149
1.0667427 0.67781967 0.23477076 6186086
1.0674021 0.67775828 0.23369063 7107193
1.0647006 0.67800003 0.23247537 4277823
1.0672154 0.67757118 0.23184671 7106935
1.062045 0.67857021 0.23063359 4342336
1.0637422 0.67834979 0.22976565 3948603
1.3007919 0.61308813 0.37381336 7500925
1.3016361 0.61388403 0.37087092 7435385
1.2949468 0.61408335 0.36995739 7634590
1.2973779 0.61407495 0.36955482 6581632
1.3002799 0.61430675 0.36893123 7238263
1.2917662 0.61280417 0.36769482 8227494
1.2933861 0.61389458 0.36856213 8095654
1.2961112 0.613729 0.36802617 6450565
1.2991248 0.61498916 0.36670658 7436154
1.0646384 0.67724079 0.23855129 3883322
1.0671496 0.67818379 0.23871118 6383467
1.064481 0.67659175 0.23678377 3949111
1.0626837 0.67922944 0.23312958 4210746
1.3022175 0.61498451 0.37498021 7106679
1.2991706 0.61491722 0.37309951 7041404
1.3007698 0.61582643 0.37309006 7106937
1.2969004 0.6164068 0.37167281 6318201
1.2998232 0.61578703 0.37060595 7633016
1.2932388 0.61573583 0.37071642 7437982
1.0667104 0.6784569 0.24262178 5264983
1.0642689 0.67764384 0.24103874 4013883
1.0664048 0.67816645 0.23993802 5330514
1.2972791 0.61765921 0.3735342 6186875
1.292418 0.61748391 0.37282661 7964069
1.1615299 0.60450613 0.35745668 4081239
1.0671345 0.6788854 0.24687925 5593692
1.0657853 0.67911303 0.24527082 4211776
1.1620046 0.60474491 0.35884866 4409677
1.0661048 0.6777702 0.25348502 3685951
1.0671022 0.67874455 0.25157699 5068120
1.0693389 0.67988682 0.2516956 7502466
1.0665714 0.67931807 0.24879313 4673358
1.0683116 0.67729038 0.25831056 6120553
1.0699949 0.67740494 0.25790346 7699331
1.0669967 0.67694139 0.25642192 4475470
1.0698889 0.67658365 0.26540822 7041655
1.0671905 0.67705685 0.26340988 3620411
1.0687071 0.67736155 0.26212186 6252394
1.0668263 0.67763799 0.2603237 3685948
1.0577568 0.67501569 0.26030394 4804976
1.0693747 0.67447561 0.27065808 5922660
1.0712612 0.67543435 0.2697137 7896713
1.0675665 0.67680305 0.26650783 3686456
1.0701519 0.67676502 0.26712307 7172986
1.0581294 0.67556429 0.26766199 4213084
1.0572436 0.67639142 0.26462525 4936046
1.0714221 0.67500216 0.27567416 7370113
1.0695451 0.67571294 0.27453658 5856857
1.0687828 0.67702508 0.27104771 5001806
1.0587935 0.67536229 0.27030784 4212305
1.0690504 0.67638642 0.27905479 4410184
1.0715926 0.6769017 0.27661929 7370113
1.0689466 0.67768967 0.27643836 4607051
1.0704806 0.67605567 0.28475171 5856860
1.0720843 0.67577648 0.28369585 7041149
1.0701401 0.6756714 0.28216785 5726043
1.0683751 0.67659193 0.28081599 3291190
1.0720115 0.67564207 0.29010528 6647414
1.0709444 0.67699462 0.28750002 6054499
1.0725664 0.67688411 0.28726029 7041151
1.071183 0.67432624 0.29614168 4674133
1.0682988 0.67396754 0.29389676 3487798
1.0705643 0.67483407 0.29351541 4213326
1.0723225 0.67647064 0.29224572 6647416
1.069595 0.67576784 0.29028285 3292221
1.0722022 0.67500919 0.29909295 5661286
1.0691372 0.67443508 0.29856119 3422264
1.0713044 0.67474234 0.29762739 4739413
1.0734521 0.67800844 0.29423684 7633805
1.1439017 0.6200127 0.38343287 4409938
1.1507899 0.62254995 0.38331327 6778230
1.0693609 0.67357457 0.30576819 3421496
1.0709437 0.67462587 0.30510542 3094332
1.0733695 0.67543781 0.30431101 6252661
1.0699445 0.6751042 0.30232713 3290939
1.0729897 0.67561746 0.3019433 5989745
1.0740843 0.67569077 0.30079103 6976126
1.0739558 0.67789006 0.29790726 7370884
1.1495781 0.62319756 0.38520324 6712695
1.1512339 0.6247493 0.38413516 7370374
1.0731853 0.67432684 0.31081465 5332066
1.069721 0.67433602 0.30931512 3618866
1.0717989 0.67412168 0.30796775 3686725
1.0740554 0.67546731 0.30764985 6581625
1.0696355 0.67411804 0.30737722 3487033
1.1487399 0.62739027 0.38665229 7238530
1.0728368 0.67506027 0.31271875 4542037
1.0749882 0.67555523 0.31309986 7371141
1.0700096 0.67461419 0.31193125 3421748
1.0715762 0.67404997 0.3111954 3225398
1.0748947 0.6761409 0.30961153 7108226
1.1442312 0.6289022 0.38965869 6778234
1.0742159 0.67477983 0.31891298 5989998
1.07169 0.67485201 0.31835052 3160124
1.0741313 0.67630398 0.31651086 6055535
1.0703253 0.67509317 0.3150965 3421752
1.0726277 0.67589921 0.31513008 4081227
1.1380222 0.63018268 0.39165401 5133398
1.1410394 0.63017005 0.39134181 6383983
1.1433718 0.63010466 0.3908411 7107204
1.1255901 0.63164991 0.38629639 7830923
1.0750269 0.6750558 0.32406336 6450806
1.0705098 0.67461896 0.32327956 3421753
1.0734838 0.67499125 0.32199532 4148049
1.0743535 0.67508644 0.3204515 5990257
1.0695038 0.67525625 0.32012251 3816253
1.0711402 0.67493206 0.32028803 3224628
1.0628921 0.67512596 0.3214016 4345202
1.1349667 0.63165277 0.39437655 5593693
1.1373252 0.63131249 0.39342576 5923177
1.1397529 0.63181591 0.39314336 6778748
1.1317098 0.63096017 0.392656 4408908
1.1341285 0.63085574 0.39239258 4672079
1.1301934 0.6325137 0.39171916 3620687
1.1250597 0.63278705 0.38748202 7831181
1.0660418 0.67117077 0.33109933 3357523
1.0759966 0.67509162 0.32829189 7042430
1.0767858 0.6753217 0.32683015 7633286
1.065358 0.67200607 0.32934287 3489363
1.071647 0.67528325 0.32620454 3159091
1.073933 0.67524064 0.32585949 4016722
1.0648898 0.67239267 0.3275398 3687001
1.0707649 0.67572623 0.32516161 3422263
1.0638028 0.67422175 0.32422391 4147557
1.1345394 0.6329096 0.39524308 5857386
1.1363221 0.63367927 0.39485258 6384245
1.1311394 0.63269013 0.39495331 4738642
1.1323143 0.63264328 0.39430863 4869970
1.128963 0.63345569 0.39326414 4014926
1.1267794 0.63512081 0.39117917 3555418
1.1239766 0.63584161 0.38931754 7173256
1.1259763 0.63498211 0.38966659 6646911
1.1215696 0.63712502 0.38794285 7896976
1.0714723 0.67669547 0.33087841 3356473
1.0750912 0.67677844 0.32978061 5267306
1.0716026 0.67662096 0.32841608 3093558
1.0739076 0.67668569 0.32871306 2898756
1.0702604 0.67699456 0.32713115 3619901
1.1351314 0.63470387 0.39600256 6515578
1.1299846 0.63462758 0.39700308 5265248
1.1330725 0.63509554 0.39693052 6121332
1.126469 0.63536638 0.39587668 4409423
1.1281735 0.63488823 0.39512765 4540752
1.1217731 0.63587838 0.39400333 4081241
1.1251174 0.63584089 0.39372438 3488842
1.1202235 0.63744193 0.39224625 6712701
1.1226832 0.63715178 0.39163715 5594227
1.116834 0.63739604 0.39133519 7436680
1.1190944 0.6382181 0.39016229 7896974
1.1217077 0.63750094 0.38924646 7896974
1.1151953 0.63795036 0.38980311 7305095
1.0765644 0.67570305 0.33562651 6845570
1.0656661 0.67208683 0.3385419 4015454
1.0712733 0.67569327 0.33562618 3684924
1.0738214 0.67604154 0.33508891 3358018
1.0764633 0.67730147 0.33328897 6911360
1.0717851 0.67682672 0.33266371 3290423
1.0750705 0.67737722 0.33192277 4807521
1.1268224 0.63568288 0.39913595 5265505
1.1296225 0.63675559 0.39836675 5923699
1.1255838 0.63737237 0.39710492 4672596
1.1278801 0.63710898 0.39734036 5002075
1.1218395 0.63724482 0.39586344 3751753
1.1240543 0.63829195 0.39579758 4409169
1.1182826 0.63669711 0.39380723 7304322
1.1200742 0.638138 0.39450189 3225676
1.1215218 0.63954377 0.39466009 3422791
1.1138611 0.63912326 0.39314625 7699338
1.1160944 0.63875109 0.39320743 6646397
1.1184804 0.63955498 0.39268368 6054516
1.1140385 0.63986373 0.3915607 7699596
1.1110358 0.64123768 0.38999358 7436941
1.0719695 0.67466277 0.34156069 3487802
1.074535 0.67592013 0.34098363 3293762
1.0768913 0.67657906 0.34027141 6582400
1.0662133 0.67209452 0.34184542 3884643
1.0703155 0.67485255 0.34046149 4145471
1.0719005 0.67522389 0.33895913 3421749
1.0743634 0.67633837 0.33821169 3292994
1.0767031 0.67703712 0.33768159 6648194
1.0655521 0.67348027 0.33961323 4082020
1.1271163 0.63731807 0.40072715 6581896
1.1227393 0.63993984 0.4003157 5857910
1.1252172 0.6395601 0.3987436 5331307
1.1277159 0.63998115 0.39888403 5989755
1.1213635 0.63955724 0.39797345 4541008
1.1234239 0.6403029 0.39827138 4936027
1.1174393 0.64012486 0.39675856 3488584
1.1198756 0.64063734 0.39561597 3685705
