# .PCD v0.7 - Point Cloud Data file format
VERSION 0.7
FIELDS x y z rgba
SIZE 4 4 4 4
TYPE F F F U
COUNT 1 1 1 1
WIDTH 1148
HEIGHT 1
VIEWPOINT 0 0 0 1 0 0 0
POINTS 1148
DATA ascii
1.2349054 0.67683893 0.080441371 12829635
1.2399811 0.68240458 0.079485364 13027014
1.1540514 0.58776015 0.082590297 11579568
1.1564621 0.58935112 0.081869066 11579568
1.2035141 0.64400417 0.079453751 11382189
1.2049628 0.64580888 0.079978019 11447982
1.2074481 0.64817703 0.079880163 11776947
1.2090434 0.65186983 0.079818353 12237498
1.2111646 0.6527124 0.079851761 12303291
1.2124107 0.65576607 0.07974387 12303291
1.2152221 0.65739542 0.079998501 12105912
1.2168658 0.65957057 0.079553775 12237498
1.2187963 0.66156852 0.079896636 12171705
1.2207904 0.66375226 0.079401851 12632256
1.2229173 0.66647649 0.078631945 12961221
1.2243325 0.6686092 0.078767732 12961221
1.2269458 0.67132246 0.078553878 13027014
1.2291018 0.67345607 0.078542493 12895428
1.2308676 0.67547745 0.078921482 13224393
1.2328068 0.67745656 0.078884825 12829635
1.2340082 0.68017429 0.078984208 13027014
1.2364694 0.68215692 0.078396484 12961221
1.2380084 0.68423802 0.078574955 13092807
1.2405574 0.68561488 0.07923162 13092807
1.2425359 0.68896037 0.078599222 13224393
1.2447718 0.69147313 0.078417391 13355979
1.2468815 0.69440114 0.07804542 13421772
1.2486421 0.69392592 0.078117497 13487565
1.1467416 0.58500379 0.080889963 11711154
1.1503923 0.58644176 0.080229342 11645361
1.1528025 0.58806551 0.080632247 11645361
1.2017726 0.64336133 0.078066476 11316396
1.2037387 0.64729601 0.078270167 12171705
1.205215 0.64975607 0.077859856 12171705
1.2070936 0.65208 0.077875189 12434877
1.2093893 0.65444279 0.07792528 12369084
1.211087 0.65617585 0.07785359 12500670
1.2134405 0.65875721 0.077456847 12698049
1.2149568 0.661394 0.078127921 12500670
1.2175233 0.6631946 0.077683054 13027014
1.2192643 0.6658088 0.077816978 12961221
1.2214812 0.66766179 0.077295572 13290186
1.2229207 0.6702705 0.077638358 13355979
1.2246512 0.67244756 0.07750091 13421772
1.2271709 0.67470562 0.077727899 13290186
1.228965 0.67683423 0.077438064 13553358
1.2310516 0.67861515 0.078078456 13421772
1.2328894 0.68133193 0.077683479 13750737
1.2346027 0.68435872 0.076964587 13158600
1.2362862 0.68634909 0.076473616 12895428
1.2385131 0.68810403 0.075859554 13224393
1.2406673 0.68953496 0.075629957 13553358
1.2422395 0.69196445 0.078506857 13290186
1.2453454 0.69455701 0.078301467 13421772
1.1443999 0.58430475 0.077770248 11776946
1.1460797 0.58527434 0.077872343 12171449
1.148205 0.58885509 0.07679978 13092291
1.2012227 0.6471175 0.076385826 11447982
1.2016337 0.64901394 0.07626576 12040119
1.2034118 0.65146118 0.076799877 12237498
1.2059802 0.65357101 0.076953493 12632256
1.2071512 0.65590459 0.076268017 13158600
1.2093244 0.65800744 0.076857314 12895428
1.2112497 0.66035247 0.076457046 13224393
1.2136142 0.66272908 0.076555483 13290186
1.2158866 0.66474837 0.076508388 13684944
1.2176617 0.66727835 0.076646931 13684944
1.2192118 0.66931432 0.076660126 13619151
1.2210706 0.67135733 0.076595828 13882323
1.2228315 0.67498398 0.076035462 14013909
1.2255778 0.67598575 0.075826488 13882323
1.2274828 0.67918652 0.077144802 14474460
1.2294689 0.68027228 0.075987816 13948116
1.2315863 0.68286651 0.075793348 13421772
1.2335607 0.68429554 0.074648693 14211288
1.234724 0.68846267 0.074692249 13684944
1.236805 0.68939424 0.074894577 13619151
1.2388123 0.692361 0.07491897 13487565
1.241349 0.69438642 0.074403532 13553358
1.243081 0.69658786 0.07462839 13421772
1.1385916 0.58114368 0.077652164 11908531
1.1402452 0.58335054 0.076455325 12237237
1.1422921 0.58589089 0.076170839 12434617
1.1435558 0.58751863 0.076021522 12105912
1.1465322 0.58923495 0.075611874 12959675
1.1492436 0.5931226 0.074243158 12895428
1.151217 0.59356999 0.075891033 12895428
1.1525234 0.59607035 0.075491041 12895428
1.200124 0.65089279 0.07408271 12040109
1.2021258 0.65246695 0.074484646 12434877
1.2036148 0.65598166 0.075303875 12829635
1.2057141 0.65574145 0.073870309 14079702
1.2080636 0.65912759 0.073602915 13487565
1.2086805 0.66154516 0.074738607 14079702
1.2115042 0.66348022 0.075441554 13750737
1.2141041 0.66679722 0.075768851 13619151
1.2183088 0.67161614 0.075488277 13619151
1.2262295 0.67982411 0.07505627 14211288
1.2265817 0.6815111 0.075087138 13684944
1.2294531 0.68415797 0.074261703 14079702
1.2311348 0.68733615 0.074176639 13684944
1.2330011 0.68868536 0.073911622 13948116
1.2353948 0.69198507 0.074294426 13355979
1.2372626 0.6931721 0.073817 13553358
1.2392242 0.6953488 0.073938936 13355979
1.2407196 0.69770384 0.073538452 13750737
1.1354282 0.58128285 0.074051253 10723477
1.1366504 0.58233368 0.07448557 11316133
1.1387324 0.58434546 0.074363098 12039342
1.1408864 0.5862242 0.074248038 12894653
1.1429964 0.58888388 0.074129373 12434362
1.1448956 0.59141517 0.073885173 12698049
1.1472367 0.59243709 0.074823849 12829635
1.1486701 0.59497809 0.073919684 12434877
1.1514217 0.59679627 0.074139364 11974326
1.15188 0.60015833 0.073260672 12434877
1.196061 0.64976275 0.071378276 12961221
1.198649 0.6522674 0.072159097 12105908
1.20028 0.65414953 0.072678223 12237498
1.2039273 0.65870059 0.071541756 14079702
1.2057648 0.66084784 0.072705798 13619151
1.2106621 0.66634327 0.070820414 14737632
1.2135406 0.66967285 0.070832811 14737632
1.2156368 0.67237353 0.071376383 14737632
1.218542 0.67580765 0.071212962 14737632
1.2204598 0.67572623 0.071287028 14671839
1.2214983 0.67939878 0.071122244 14737632
1.2257344 0.68352044 0.070674464 14803425
1.1299826 0.5778625 0.071345448 9341040
1.1311014 0.57994384 0.072370388 11118234
1.1332306 0.58144832 0.073006809 11184288
1.135188 0.5840863 0.072301187 12368556
1.1378297 0.58543992 0.072478265 12762802
1.1391011 0.5871315 0.071448624 12237498
1.1414937 0.59048533 0.072524674 12171705
1.1432642 0.59366572 0.072912283 12105912
1.1451892 0.59434772 0.072018012 11842740
1.1468632 0.59644258 0.072559662 11842740
1.1490128 0.59845304 0.072308302 12040119
1.1531239 0.60388154 0.071877211 12895428
1.1941681 0.64897901 0.06971354 12961221
1.196341 0.65146136 0.069641545 12105912
1.1968126 0.65406436 0.069741517 12369084
1.1984156 0.65632522 0.070790201 12237498
1.2019963 0.65780652 0.069521248 14013909
1.2023503 0.65983379 0.069882467 13355974
1.2037084 0.66339755 0.071038976 13816523
1.2068485 0.66447037 0.069894187 14803425
1.2093279 0.66721195 0.069667205 15263976
1.2106692 0.66979277 0.070792302 14737632
1.2121849 0.67203319 0.070049658 15198183
1.214771 0.67413777 0.069403902 15658734
1.2161722 0.67646605 0.070516475 15263976
1.2183485 0.67842114 0.069918416 15395562
1.222262 0.68256158 0.069541417 15395562
1.2239084 0.68553942 0.069133133 15658734
1.2266726 0.68731445 0.069385864 15132390
1.2277858 0.68923938 0.069275998 15329769
1.2305523 0.69008195 0.068776682 15329769
1.231544 0.69369692 0.068648793 15132390
1.2338322 0.69598073 0.068644665 15066597
1.2378542 0.70033228 0.068125166 15066597
1.1255306 0.57697624 0.071419142 12695210
1.1273475 0.57848394 0.070524514 11314326
1.1294969 0.58050191 0.071082197 11578273
1.131605 0.58275694 0.070441887 12565683
1.1330706 0.58492047 0.069492325 12763575
1.1362718 0.58746433 0.069727585 12303291
1.1371639 0.58995974 0.069628723 12632256
1.1425217 0.59363347 0.070020363 11908533
1.1435629 0.59439582 0.070432879 11711154
1.155973 0.61046225 0.068523906 12895428
1.159318 0.61168444 0.069532737 12895428
1.1602025 0.61631358 0.067921042 12895428
1.1633528 0.61848044 0.068123959 12895428
1.167986 0.62411827 0.067769073 12895428
1.1707495 0.6274066 0.067469105 12895428
1.1787013 0.63712436 0.067297637 12895428
1.182575 0.64098221 0.067434259 12961221
1.1848751 0.64329767 0.067737743 12961221
1.1863075 0.64629233 0.067557916 12961221
1.1887398 0.6494081 0.067346781 12961221
1.1906284 0.64870149 0.067898624 12961221
1.1929544 0.65240258 0.067714252 12434877
1.1955972 0.65512514 0.068089709 12040119
1.1963465 0.6568715 0.068425328 11842740
1.1983253 0.6594258 0.069551684 12895428
1.2009131 0.6615715 0.068091527 14013909
1.2027932 0.66386354 0.068648681 13948113
1.2055209 0.66657174 0.067894682 15395559
1.2073911 0.66835713 0.069026791 15329769
1.2088956 0.67128563 0.068733297 15856113
1.2116516 0.67420477 0.069237426 15658734
1.2137983 0.67738229 0.069403104 15592941
1.2182419 0.68172503 0.069089822 15724527
1.221243 0.68626428 0.068672471 15592941
1.2247908 0.68955272 0.069132566 15198183
1.2285551 0.6940161 0.068516731 15263976
1.2314787 0.69829404 0.068202667 15198183
1.2349586 0.70002663 0.067965887 15329769
1.1193873 0.57370126 0.06871447 11973289
1.1214169 0.57521462 0.068542086 11313806
1.1239287 0.57759571 0.069070853 11314070
1.1254656 0.58024651 0.068689555 11577489
1.1277734 0.58222169 0.068712659 11972511
1.1297846 0.58366233 0.068761729 12235937
1.1318812 0.58687848 0.06824661 13092288
1.1344001 0.58817685 0.068347327 12565160
1.1347156 0.59210455 0.068147607 12303291
1.1531684 0.61156207 0.067624509 12895428
1.1561956 0.61403269 0.06770429 12895428
1.1577271 0.61674583 0.067685403 12895428
1.1591002 0.61920393 0.067846827 12895428
1.1614033 0.62037784 0.067828648 12895428
1.1633029 0.62285191 0.067610227 12895428
1.1650862 0.6245926 0.067636035 12895428
1.1665077 0.62733668 0.067661457 12895428
1.1693909 0.62942976 0.066880703 12434877
1.171594 0.63155675 0.066454373 12303291
1.1732969 0.63405508 0.06648013 12369084
1.1750685 0.63593268 0.066682525 12434877
1.1767936 0.63843894 0.066497691 12369084
1.1789938 0.64086199 0.066519104 12434877
1.1811271 0.64301628 0.06636811 12303291
1.183355 0.64497316 0.066203892 12237498
1.1848538 0.64747351 0.065927096 12105912
1.1868531 0.64944637 0.066262014 12303291
1.1891452 0.65218228 0.066381417 12369084
1.1909319 0.65415817 0.066152848 12171705
1.1930584 0.65594131 0.066600576 12434877
1.1946261 0.65870869 0.066858821 12105912
1.1965845 0.66038126 0.068288349 12237498
1.1989042 0.66280341 0.065969706 13619150
1.1999791 0.66488194 0.066955239 13487564
1.2025855 0.66740197 0.065222435 15066060
1.2052355 0.66944551 0.066697985 15987435
1.1117558 0.56734782 0.066651888 12695710
1.1138831 0.56986952 0.066673122 12498846
1.1159602 0.57194763 0.066870473 11576196
1.1174293 0.57494265 0.066781282 10785126
1.1197076 0.57690251 0.066530116 11509360
1.122246 0.57905346 0.067106314 11114861
1.1243724 0.58087438 0.066697754 11642240
1.1263613 0.58343536 0.06652946 12300434
1.1280185 0.58538002 0.066532359 12696228
1.1301141 0.58782238 0.066940412 13090731
1.1315479 0.59068054 0.066676192 12959918
1.1340209 0.59213573 0.066590324 13355720
1.1358789 0.59314775 0.065900929 13421772
1.1387322 0.59678823 0.06670557 12829635
1.1404957 0.59708893 0.066129357 13948116
1.1468893 0.60877371 0.066133648 12564132
1.1492939 0.60931265 0.065626197 11908533
1.1508664 0.61218756 0.065538861 13355201
1.1536037 0.61577618 0.065640777 12237498
1.1554928 0.61754435 0.064442232 11645361
1.1578581 0.61976314 0.064768746 11711154
1.1599059 0.62190473 0.064736977 11776947
1.161514 0.62484336 0.065040283 11776947
1.1634222 0.62632507 0.065229572 11776947
1.1654785 0.62838185 0.065180168 11776947
1.1670719 0.63056225 0.065265395 11842740
1.1692446 0.63272041 0.065206371 11908533
1.1711009 0.63572568 0.065449968 11908533
1.173546 0.637456 0.065475717 11974326
1.1754338 0.6399985 0.065481126 12040119
1.1776302 0.64191562 0.065607131 12105912
1.1794031 0.64413774 0.065433294 12040119
1.1814231 0.64682281 0.065608144 12105912
1.1829727 0.64904493 0.065243766 12303291
1.1849111 0.65106714 0.065829217 12171705
1.1873662 0.65338856 0.06556984 12105912
1.1891404 0.65607274 0.064995751 12566463
1.1912634 0.65814948 0.064990468 12500670
1.1932473 0.66042453 0.065306515 12500670
1.1948937 0.66162443 0.064690337 13553358
1.1971155 0.66452754 0.064557888 13684944
1.1989626 0.66696995 0.064720541 14013909
1.2025137 0.67137909 0.06496913 14999493
1.2040956 0.67287523 0.065757647 15987161
1.1108774 0.56884754 0.065806337 11641463
1.1130102 0.57111293 0.065932639 12036484
1.1152134 0.57358384 0.065877087 11839107
1.115941 0.57580662 0.065547362 13220216
1.1182878 0.57831711 0.06519521 12563082
1.1206503 0.57983631 0.065356106 11971205
1.1228398 0.58234513 0.065309823 12630174
1.124589 0.58381468 0.065648235 12760982
1.1279647 0.58848441 0.064995885 11906711
1.1314142 0.5931837 0.065296777 13487565
1.1345264 0.59732825 0.063794687 13882062
1.1357946 0.59853673 0.064288467 13158597
1.1380913 0.60045367 0.063733943 13290186
1.1397312 0.6027478 0.06399487 11711154
1.1419472 0.60497868 0.06341514 11842740
1.144017 0.60690635 0.063249372 11842740
1.1461512 0.60994381 0.06357681 11645361
1.1481718 0.61216056 0.063486181 11711154
1.1501387 0.61435777 0.063977897 11645361
1.1518284 0.6166628 0.064011186 11776947
1.154187 0.61867923 0.064170592 11776947
1.1560254 0.6209119 0.064367346 11842740
1.157739 0.62353063 0.064302213 12171705
1.1596546 0.62485468 0.064441137 12171705
1.1618112 0.62778783 0.06383197 12632256
1.1637334 0.62996775 0.064094104 12303291
1.1656121 0.63172442 0.062798932 12961221
1.1673783 0.63488066 0.063747555 12500670
1.1698823 0.63625699 0.063408628 12763842
1.1717566 0.63977653 0.06296064 12961221
1.1735829 0.64106578 0.063606575 12763842
1.1754923 0.64285791 0.062714778 13487565
1.1776164 0.64549208 0.063337013 13027014
1.1795138 0.64903218 0.062385678 13487565
1.181847 0.65011716 0.062504388 13487565
1.1833714 0.65303606 0.062492795 13553358
1.1855255 0.65458333 0.062611066 13553358
1.1876651 0.65541571 0.063295409 13816530
1.1890005 0.65923411 0.062617779 13684944
1.1916013 0.66105503 0.062564567 13619151
1.1940124 0.66388947 0.062723733 13553358
1.1959918 0.66671288 0.062440358 13355979
1.1966374 0.66846186 0.062026918 14079701
1.1993432 0.67036057 0.062500685 14737627
1.2006186 0.67169321 0.062135145 15127693
1.1083586 0.57087415 0.06348107 8942148
1.1103508 0.57335043 0.063463099 10718556
1.1126915 0.57550132 0.063888289 11311215
1.1141728 0.57787967 0.063791052 10521693
1.1164895 0.57906401 0.063027546 11376483
1.1177317 0.58172584 0.061668113 10587227
1.1239036 0.58601493 0.063535489 9601890
1.1248971 0.58724654 0.062654607 9930853
1.1257733 0.59015346 0.060986519 9996382
1.128696 0.59225804 0.061345279 10128225
1.1294813 0.59431583 0.06433668 13553358
1.1317239 0.59837395 0.063389882 13750736
1.1340047 0.60000551 0.06243097 13421772
1.1364956 0.60199553 0.062627435 12303291
1.1381774 0.60498208 0.062807925 11711154
1.1403377 0.60710478 0.062937744 12237498
1.1421641 0.60891336 0.062552303 11974326
1.1441807 0.6112662 0.062456749 11908533
1.1459159 0.61374873 0.062537417 12040119
1.1484294 0.61546838 0.062940821 11974326
1.1505511 0.61908114 0.062243193 12829635
1.1521772 0.62047696 0.060897313 13421772
1.1544915 0.62259787 0.06179633 13421772
1.1564643 0.62465328 0.061582625 13355979
1.1584185 0.62748861 0.061726958 13355979
1.1597641 0.62783635 0.062375985 13553358
1.1617811 0.63170344 0.061793469 13421772
1.1637776 0.63396806 0.061868645 13421772
1.1658058 0.63529754 0.061981507 13421772
1.1676115 0.63871157 0.062321082 13487565
1.1698081 0.63957375 0.062087409 13487565
1.1715964 0.64247411 0.062517621 13487565
1.1735501 0.64454931 0.062412202 13487565
1.1754171 0.64749718 0.062270902 13290186
1.1774147 0.64874166 0.062347777 13487565
1.1792122 0.65227675 0.062018007 13290186
1.1812308 0.6532979 0.0619087 13290186
1.1837425 0.65776014 0.060105115 13948111
1.186096 0.65866554 0.061528422 13290186
1.1872948 0.66285855 0.06122762 13355979
1.1901522 0.66326731 0.060731083 13750736
1.1913116 0.66744745 0.06109453 13355979
1.1931119 0.66695327 0.061730683 13355979
1.1965075 0.66949171 0.059233196 15651722
1.1972916 0.67155963 0.06023895 14931632
1.1984422 0.67475265 0.060688585 14668458
1.2001729 0.67618877 0.061606362 14928517
1.1071191 0.57128203 0.061897993 7627334
1.1093549 0.5741744 0.06105493 8679747
1.1114596 0.57599384 0.062029749 11113298
1.1126529 0.57801855 0.060901038 9601373
1.1148957 0.58074468 0.060642935 10455640
1.1184629 0.5849793 0.060695611 9666912
1.1194657 0.58699507 0.059627194 9798500
1.1224784 0.58875841 0.060110241 9733213
1.1302242 0.60088736 0.06123893 13487565
1.1342821 0.60377258 0.060904793 13093063
1.1385869 0.60854316 0.059693292 13750737
1.1396729 0.60930502 0.059145074 13421772
1.1422482 0.61322647 0.058950283 13421772
1.1445563 0.61598253 0.059397884 13421771
1.1464324 0.61738408 0.059557009 13290183
1.1480722 0.61864597 0.059964783 13356235
1.1502745 0.62143213 0.060851209 13355979
1.1523569 0.62323993 0.060763307 13421772
1.154 0.62633729 0.061316736 13355979
1.1587458 0.6313464 0.061003938 13355979
1.16211 0.63558543 0.061189391 13355979
1.1633874 0.63636041 0.057719909 14342596
1.1651911 0.63878471 0.058239628 14342601
1.1688417 0.64209855 0.05809034 14342858
1.1702666 0.6444999 0.057855967 12300956
1.1713946 0.64638239 0.058263842 10127720
1.1746881 0.64920527 0.057910889 14539974
1.1766233 0.65178019 0.058426205 14605764
1.1784781 0.65301824 0.058548398 14408914
1.1803162 0.65479654 0.058476824 14474450
1.1812837 0.65735239 0.058918439 14540242
1.1842692 0.66156852 0.058349721 14606033
1.1859553 0.66221511 0.058204178 14800572
1.1880542 0.66411507 0.058732871 14540247
1.1891835 0.66714388 0.05820927 14932413
1.1918811 0.66823274 0.058006655 15390892
1.1935008 0.67117101 0.058461856 14998459
1.1963923 0.67278612 0.059350409 15388036
1.104383 0.57101929 0.058868017 5589043
1.1068314 0.57542354 0.058509234 6904893
1.1109079 0.5782364 0.058525905 9337155
1.1104175 0.57917243 0.057669688 7496788
1.114079 0.58184254 0.058562171 8943962
1.1168433 0.58625978 0.058264084 9601111
1.119473 0.5887273 0.057698123 9798497
1.1309321 0.60419363 0.059099469 13487565
1.1347343 0.60829473 0.058587141 13684942
1.1370416 0.60905766 0.058283243 13421772
1.1390635 0.61247706 0.058459856 13421772
1.1407827 0.61537302 0.058947951 13421770
1.1428851 0.61567771 0.058418844 13290443
1.1443839 0.61856419 0.057651557 13552842
1.1463478 0.62118554 0.058355458 13288114
1.148338 0.62280631 0.057416853 14013379
1.1507841 0.62510169 0.05762665 14078914
1.1525389 0.62782627 0.057852432 14078910
1.1547259 0.62985831 0.05794185 14144696
1.157007 0.6319375 0.057931613 14210747
1.159489 0.632994 0.057743225 14211017
1.1606019 0.63615179 0.058123518 14342074
1.1622748 0.63894093 0.05696227 13221013
1.1641091 0.64136165 0.056685362 12495738
1.1664073 0.64325339 0.057176556 11378039
1.1678071 0.64529008 0.057465583 14471341
1.1706107 0.64862311 0.056856923 14403214
1.1721172 0.64998084 0.057480708 14338717
1.174292 0.6518299 0.057009194 14469013
1.1767093 0.65489274 0.057193294 14600079
1.178525 0.65831214 0.056876261 14729602
1.1807839 0.65948242 0.056920245 14992772
1.182596 0.66150481 0.057591483 14863774
1.1837376 0.66584879 0.056968775 14795650
1.1864096 0.66570669 0.057093661 15190149
1.1879274 0.66851228 0.057539899 15519113
1.191622 0.67251891 0.0574104 15387529
1.1943027 0.67497319 0.057939813 15387770
1.1327279 0.60858154 0.058337174 13487562
1.1366962 0.61266017 0.057481427 13750736
1.1387633 0.61627948 0.056745321 14079701
1.1405685 0.61762261 0.056708969 14408664
1.142958 0.61886585 0.057100631 14211029
1.1444954 0.62190664 0.057092302 14013378
1.1464585 0.62450415 0.055797853 14605001
1.1494085 0.62685615 0.055205312 14802644
1.1523274 0.6319356 0.054882675 14204047
1.1547269 0.63429427 0.055092037 13612400
1.1566242 0.63598865 0.055265412 12362863
1.158659 0.63783354 0.055635925 12691300
1.1608115 0.64039886 0.055951186 11573860
1.1634951 0.64315027 0.056731388 9930593
1.1652024 0.64463925 0.056482255 14334844
1.1676593 0.64813757 0.056459181 14334839
1.1696239 0.65133727 0.056496661 14071926
1.1730348 0.65487206 0.056726374 14334844
1.1766967 0.65884125 0.056597959 14597758
1.1349517 0.61427808 0.056027465 14211287
1.1418034 0.62282294 0.053270858 14012630
1.1439428 0.62508732 0.053832408 15658730
1.1451386 0.62803501 0.054057963 15393749
1.1471156 0.62871438 0.054649416 14404261
1.1497005 0.63079816 0.054410841 13614746
1.1510648 0.6326108 0.054569244 13483662
1.153051 0.63472027 0.054332592 11575933
1.1569561 0.63939846 0.05543983 9732953
1.1415625 0.62621987 0.053116683 15658471
1.138007 0.62569416 0.051436521 15527143
1.1502516 0.58421063 0.086146891 11711154
1.1522382 0.58537465 0.085406102 11645361
1.2204417 0.6638273 0.082171664 12171705
1.1457647 0.58224207 0.084520541 11711154
1.1487501 0.58364612 0.085525483 11711154
1.1503321 0.58551317 0.083063461 11645361
1.209341 0.65404147 0.081181295 11645361
1.2112968 0.65703213 0.08060953 11842740
1.2127779 0.65854424 0.08119294 11908533
1.215264 0.66103435 0.081666335 11974326
1.2178066 0.66356134 0.082066119 12105912
1.2214146 0.66695225 0.081756838 12303291
1.223315 0.6694718 0.08162275 12369084
1.2261851 0.67219782 0.081190139 12566463
1.2280496 0.67559391 0.0803902 12632256
1.2308521 0.6780538 0.080201887 12698049
1.1402488 0.58042192 0.082156405 11842740
1.1421354 0.58166426 0.082467996 11776947
1.1441423 0.58341676 0.080631681 11711154
1.2041641 0.65194333 0.079457752 11513775
1.2056106 0.65387648 0.079773799 11579568
1.2077051 0.65584236 0.080151223 12369084
1.2094057 0.65779716 0.080461688 12171705
1.211897 0.66034257 0.079949595 12105912
1.2140831 0.66322219 0.08021497 11711154
1.2158409 0.66391587 0.079273902 12303291
1.2177119 0.667225 0.080243699 12632256
1.2196193 0.66913575 0.079941183 12500670
1.2212927 0.67169535 0.078914173 12961221
1.223527 0.67256707 0.080149867 12829635
1.2253237 0.67590606 0.079459086 12829635
1.2281692 0.67851472 0.079290494 12895428
1.2293341 0.68101901 0.079326138 12961221
1.2317067 0.68261206 0.078678705 13355979
1.2341005 0.68415886 0.079357944 12961221
1.2352666 0.68777001 0.07864996 13092807
1.2376363 0.68971515 0.078971773 13092807
1.2398269 0.69242001 0.078693181 13158600
1.2428316 0.69542283 0.078118414 13355979
1.1365677 0.57967937 0.080655232 11908527
1.1385745 0.58067435 0.080421783 11842736
1.141178 0.58193225 0.080544628 11776945
1.2026557 0.65315574 0.078026757 11908533
1.2046618 0.6551317 0.078375414 11974326
1.2064958 0.65697998 0.078735605 12040119
1.2085572 0.65937823 0.077672236 12434877
1.2096581 0.66156352 0.077840209 12566463
1.2115724 0.66397494 0.078067929 12698049
1.2139604 0.66629732 0.077948228 12829635
1.215876 0.66839707 0.077965774 12829635
1.2178266 0.67069608 0.077804282 13290186
1.219812 0.6731137 0.077958018 13158600
1.2219098 0.6751743 0.078103855 13290186
1.2240644 0.67763829 0.077950813 13619151
1.2261266 0.67970145 0.077531762 13553358
1.2279801 0.6823743 0.077557907 13421772
1.2295133 0.68407941 0.077951826 13882323
1.2315909 0.68663073 0.077383533 13224393
1.233142 0.68840706 0.07697773 13224393
1.2373586 0.69279587 0.079022706 13158600
1.2402442 0.69608963 0.078004912 13224393
1.1347635 0.58066446 0.078498922 12040117
1.1372938 0.58203048 0.078213297 12105910
1.1395921 0.58388662 0.078664958 12237498
1.1414646 0.58740681 0.077797569 12104102
1.1423328 0.58795214 0.076973766 12694684
1.149349 0.59601516 0.076317444 12829635
1.2008766 0.65403837 0.076550938 11908533
1.2028517 0.65656209 0.076494351 12303291
1.2048419 0.65876424 0.07670103 12500670
1.2059487 0.66104192 0.076535247 12698049
1.2081555 0.66349471 0.076620646 13027014
1.2102007 0.66517556 0.076222651 13816530
1.2120842 0.6667316 0.076718621 13487565
1.2145576 0.67019105 0.076605625 13750737
1.2162144 0.67213213 0.076817051 13684944
1.2187896 0.67453182 0.076709136 13355979
1.2204486 0.67532927 0.075601257 13619151
1.2222068 0.67938066 0.075847052 13487565
1.2242731 0.68123555 0.076128401 13750737
1.226023 0.68353605 0.076488115 14013909
1.2298566 0.68833572 0.075423494 13355979
1.2316992 0.69042146 0.07537362 12961221
1.2337338 0.69219875 0.075075351 13421772
1.2361641 0.69505614 0.075068489 13619151
1.2378626 0.69662124 0.074868113 13487565
1.2400323 0.69966578 0.074993841 13421772
1.1270276 0.57675749 0.076979905 12171674
1.129339 0.57870495 0.076383859 13026746
1.1317351 0.58012974 0.077135757 12303289
1.1339319 0.58099514 0.076715469 12040113
1.1352627 0.58439994 0.075691111 13027011
1.13719 0.58625376 0.076325022 12433577
1.1392379 0.58733624 0.076913014 12038309
1.1425984 0.59021211 0.075824045 12171705
1.1431853 0.59272414 0.074730702 12829635
1.1444397 0.59483409 0.075349964 12829635
1.1992559 0.65519214 0.07388474 11776935
1.2003568 0.65782845 0.074638724 12434876
1.2021061 0.65918571 0.074547626 12500670
1.2032067 0.66217893 0.074994251 12632256
1.2066239 0.66423404 0.074441597 13487565
1.2083284 0.66690981 0.074905753 13684944
1.2107272 0.67000246 0.075192593 13684944
1.2120665 0.67017531 0.075741738 13882323
1.2143052 0.67392629 0.075565152 13619151
1.2164778 0.67481053 0.075369366 13619151
1.2184756 0.67916673 0.075017206 13948116
1.2204939 0.67946374 0.075132109 13948116
1.2223643 0.68398643 0.074404433 14277081
1.2239788 0.6850512 0.074277863 13882323
1.2267909 0.68734664 0.07405971 14013909
1.2287759 0.68911904 0.073622935 14277081
1.2297398 0.69226223 0.073587634 14079702
1.2322474 0.69424462 0.073702343 13619151
1.2344275 0.69624263 0.074045457 13553358
1.2359983 0.69920999 0.073497869 13421772
1.2383425 0.70075721 0.073837869 13750737
1.1233901 0.57446003 0.075885206 12959662
1.1257032 0.57640076 0.075129233 12762538
1.1279379 0.57883513 0.075251505 12894649
1.1295345 0.58024329 0.074832201 12368819
1.1315615 0.58234107 0.074509539 12499891
1.1336746 0.58441371 0.074725159 12236463
1.1356515 0.58607411 0.075257942 12827823
1.1385126 0.58855325 0.074073069 12961221
1.1395682 0.59186566 0.07346952 12895428
1.1414313 0.59490097 0.073934346 12105912
1.1433386 0.59641206 0.073600829 12434877
1.146125 0.59789956 0.073771559 12895428
1.1482735 0.60102272 0.074431807 12829635
1.1970379 0.65835619 0.071735434 13027014
1.1992719 0.65882826 0.072940141 11579566
1.2011241 0.66370082 0.072260834 13224393
1.2043836 0.6654321 0.072193347 13816530
1.2068713 0.6682772 0.073494069 14079702
1.2106438 0.67353475 0.07070528 14737632
1.2125869 0.67623347 0.071153171 14737632
1.2144887 0.67590386 0.071361959 14737632
1.2167569 0.67923611 0.071382292 14869218
1.2207398 0.68409663 0.070409618 14803425
1.2274532 0.69119734 0.073289171 13750737
1.1200807 0.57349706 0.073428333 12431525
1.122242 0.57459974 0.073559746 13156019
1.1241332 0.57715142 0.071949705 12365203
1.1262069 0.5794794 0.073103152 12368303
1.1281812 0.58129954 0.072455958 14078928
1.1321243 0.58413327 0.072606876 14933475
1.136158 0.59231645 0.073159106 12961221
1.1379962 0.59178281 0.073578268 12895428
1.1397179 0.59517223 0.072823673 12895428
1.1489335 0.60422367 0.071795769 12895428
1.1951663 0.65807343 0.069660179 12961221
1.197389 0.66040492 0.07046628 12171705
1.1986775 0.66234082 0.070687138 12303291
1.1996068 0.66512591 0.070997126 12369084
1.2025375 0.66658598 0.070021838 13355449
1.2040452 0.66962051 0.071185753 14145495
1.2086082 0.67130595 0.069924764 14737632
1.2091768 0.6750415 0.069227882 15263976
1.2111104 0.67742556 0.069985338 15198183
1.2126908 0.68025434 0.070853494 14803425
1.2151216 0.68056786 0.070230328 15263976
1.2169586 0.68382877 0.070810929 14935011
1.2185526 0.685229 0.069420211 15395562
1.2208511 0.68903035 0.069713928 14803425
1.2223068 0.6894241 0.069174454 15329769
1.2249761 0.69324738 0.06920626 14869218
1.2265973 0.69426614 0.068451166 15198183
1.228724 0.697133 0.06878522 14803425
1.2305223 0.69885558 0.067863606 15395562
1.2329228 0.70154947 0.068208024 14869218
1.1124957 0.56913495 0.072226256 10258294
1.1134828 0.57075292 0.070720345 9929071
1.1157447 0.57153815 0.071342394 11048061
1.118154 0.57411397 0.070925735 11048054
1.1202822 0.57661057 0.070750974 11510668
1.1225091 0.57924855 0.070901319 12565168
1.124625 0.58047616 0.071123168 13091772
1.1256673 0.58239836 0.069993168 13223111
1.1398913 0.59885103 0.071975656 12829635
1.1437137 0.60408527 0.06989187 12895428
1.1698434 0.6331237 0.067651771 12961221
1.1742412 0.63857561 0.067520373 12961221
1.1818887 0.64663708 0.06752836 12961221
1.1864338 0.65248764 0.067257769 12961221
1.1898495 0.65482646 0.067660138 12961221
1.1912364 0.65838617 0.067254126 12961221
1.1934078 0.66075265 0.067710415 12566463
1.1951852 0.6615662 0.068426974 12303291
1.1970767 0.6646235 0.06898497 12434877
1.1999789 0.66814303 0.067098707 13027009
1.2018055 0.66867119 0.06939809 13158338
1.2033153 0.67249161 0.067928113 14342869
1.2062551 0.6731174 0.068236686 15461354
1.2073379 0.67636406 0.068480179 15395561
1.2096239 0.67862231 0.068676487 15987699
1.2115771 0.68131632 0.069265366 15921906
1.2138042 0.68162048 0.069046609 15592941
1.2155405 0.68554688 0.06891147 15856113
1.219128 0.69010544 0.0685241 15790320
1.2227942 0.6938169 0.068812512 15198183
1.2245934 0.69475091 0.068219356 15724527
1.2266283 0.69841772 0.068160839 15263975
1.2286258 0.70078123 0.067849159 15263976
1.2312146 0.70311517 0.06757725 15263976
1.110466 0.56892091 0.069289774 11311981
1.1128482 0.5715059 0.069272563 10455388
1.1146899 0.5733133 0.069067866 10521439
1.116514 0.57536024 0.069400534 11313026
1.1188158 0.57806772 0.0692413 12103579
1.1203094 0.58019984 0.069495074 12631480
1.1230552 0.58286244 0.068267047 13684943
1.1263373 0.58788645 0.068602443 12434877
1.1289753 0.59000874 0.06784723 12369084
1.1363093 0.59887058 0.069960885 12895428
1.1418045 0.60558993 0.068729527 12895428
1.1449413 0.60737967 0.069275491 12895428
1.1481766 0.61226457 0.067221723 12829635
1.1500219 0.61510557 0.067326814 12895428
1.1524427 0.61637223 0.06719695 12895428
1.1546942 0.61840212 0.067636386 12895428
1.1562152 0.62086487 0.067822836 12895428
1.1584932 0.62212521 0.067738362 12895428
1.1599458 0.62503564 0.06755437 12895428
1.1619383 0.62798393 0.067404255 12961221
1.1641542 0.63028967 0.067110434 12500670
1.1662282 0.6321587 0.067344368 12632256
1.1679945 0.63442093 0.066648632 12303291
1.1702843 0.63612163 0.067436144 12961221
1.1719359 0.63929272 0.066672094 12434877
1.1739575 0.641626 0.066960536 12632256
1.1758467 0.64378572 0.066444032 12369084
1.1777766 0.64529717 0.066806324 12566463
1.1799661 0.64732957 0.066382624 12303291
1.181875 0.65043956 0.066621728 12500670
1.1836767 0.65250218 0.066389896 12434877
1.186082 0.65470469 0.066164531 12500670
1.1875995 0.6570515 0.066389911 12434877
1.1897496 0.65881658 0.066536918 12369084
1.1916233 0.66113847 0.066580124 12303291
1.1938896 0.66361451 0.06633725 12434877
1.1953374 0.66623336 0.067418121 12171705
1.1967175 0.66756427 0.067878395 12303291
1.1998816 0.67070442 0.066906698 13619147
1.2044867 0.6756314 0.067168742 14803412
1.205937 0.67794639 0.067000695 16053225
1.2078006 0.68019283 0.06779398 15987693
1.1093354 0.57069206 0.067767642 11377515
1.1110361 0.57251799 0.067558005 12628875
1.1129262 0.57555228 0.067493945 11973018
1.1147697 0.57726073 0.067272402 11511434
1.1168607 0.57904285 0.067199923 13552054
1.1195397 0.5812369 0.067286506 12894396
1.1203471 0.58326817 0.066817634 13026757
1.1237963 0.58675063 0.067326665 13027014
1.1248538 0.58842069 0.066692241 13355978
1.1402776 0.60638022 0.068225726 12829635
1.1427578 0.60937685 0.067652456 12895428
1.1453602 0.61190987 0.066239581 12237498
1.146457 0.61404073 0.06509763 11645361
1.1485351 0.61627406 0.06579233 12040119
1.1505033 0.61791486 0.065967157 12171705
1.1527348 0.6201275 0.065687053 12040119
1.1541849 0.6222403 0.065171354 11776947
1.1563704 0.6246205 0.065648742 11908533
1.1578735 0.62690502 0.065449327 11776947
1.1599786 0.62925565 0.065549716 11776947
1.1622943 0.63115919 0.065852754 11974326
1.1644657 0.63328147 0.06545873 11908533
1.1661314 0.63646621 0.065508053 11974326
1.168322 0.63828772 0.065596603 12105912
1.170043 0.64021534 0.065523118 12040119
1.1721157 0.64303875 0.06558086 12040119
1.174196 0.64487618 0.065687016 12105912
1.1762258 0.64698654 0.06563668 12105912
1.1778152 0.64962959 0.065632693 12171705
1.1797655 0.65168649 0.065497704 12171705
1.182182 0.65418738 0.06562975 12171705
1.1844029 0.65607774 0.065575279 12171705
1.1858602 0.65866673 0.065138742 12237498
1.1879871 0.66079432 0.065046586 12566463
1.1898321 0.66295367 0.065211758 12500670
1.1920279 0.66525471 0.065179385 12698049
1.194104 0.6675536 0.065623552 12829635
1.1958424 0.66993302 0.06506364 13684944
1.1977993 0.67151797 0.06497138 13553358
1.2003819 0.67498189 0.062970132 14737618
1.2023505 0.67615604 0.064323336 14801850
1.2032505 0.67844558 0.065009072 15263440
1.1074345 0.56979162 0.065869115 7626807
1.1098305 0.57328725 0.066205084 12431250
1.1115407 0.57625616 0.065660112 11971480
1.1131922 0.57775044 0.06487295 10982494
1.114565 0.58106208 0.066185564 13748924
1.1171912 0.58251876 0.065811045 13619151
1.1188006 0.58589453 0.065785028 13750737
1.1212341 0.58815008 0.065746196 13027014
1.1225777 0.5892846 0.065209702 13816273
1.1257592 0.59067422 0.064763926 13553358
1.1281945 0.59279752 0.064803354 13487565
1.1286291 0.59785473 0.06437251 12369084
1.130199 0.59821606 0.064627752 12369084
1.1329423 0.60063976 0.063697681 12369084
1.1369921 0.6065343 0.063747361 11711154
1.1383573 0.60823339 0.064082645 11711154
1.1408848 0.6103664 0.064231277 11645361
1.1429377 0.61268854 0.064273953 11645361
1.1449521 0.61433369 0.064150013 11711154
1.146852 0.61740887 0.064241156 11842740
1.1488217 0.61878955 0.064732306 11842740
1.1505553 0.62131262 0.064704746 11842740
1.1522764 0.62342149 0.064590894 12040119
1.1549449 0.62612826 0.065049149 11908533
1.1566948 0.62808293 0.063807622 12500670
1.158847 0.63036686 0.064198591 12369083
1.1602494 0.63253015 0.064695723 12040119
1.1621609 0.63547397 0.064373821 12303291
1.1645046 0.63698387 0.064044654 12566463
1.166257 0.63956696 0.063911386 12500670
1.1689336 0.64205414 0.063926734 12698049
1.1696521 0.64310068 0.062108904 13290186
1.1724646 0.64649457 0.063493371 12698049
1.1746337 0.64892501 0.062657528 13750737
1.1781999 0.65246034 0.062237784 13553358
1.1806581 0.65594733 0.062639959 13750737
1.1815336 0.6586535 0.063199468 13816530
1.1845366 0.65907872 0.063071318 13816530
1.185761 0.66239619 0.063165225 13882323
1.1888129 0.66492945 0.06388367 13882323
1.1893109 0.66654551 0.061277516 13355979
1.192472 0.66901708 0.063156508 13619151
1.1950932 0.66976225 0.062534198 13355979
1.1950125 0.67263538 0.062918805 13421772
1.2002407 0.67882156 0.062752649 14737359
1.2021816 0.68164915 0.06299229 14602394
1.1106429 0.58036995 0.064502418 13619140
1.1145246 0.58427709 0.06428533 13684937
1.1183605 0.58809954 0.064352602 14145493
1.1199646 0.59212017 0.063485235 13881803
1.1235346 0.59409755 0.062942803 13553358
1.1260192 0.59608006 0.063062705 13487565
1.1272734 0.59926629 0.062955096 12434877
1.1284517 0.59940833 0.062166885 13553358
1.1311895 0.60275227 0.063005343 11711154
1.1330335 0.60534149 0.062794723 11776947
1.1350882 0.60668725 0.062901616 11908533
1.1369371 0.60958982 0.062788531 11974326
1.1387317 0.61169481 0.06271901 12040119
1.1413075 0.61344987 0.062813923 12105912
1.1429237 0.61605161 0.063304737 12105912
1.1453316 0.61857778 0.062289499 12632256
1.1476219 0.6209231 0.062547542 12829632
1.1483526 0.62235361 0.060592666 13421772
1.1510416 0.62429303 0.061955445 13421766
1.1525784 0.62663102 0.062136553 13356231
1.1547604 0.63066483 0.061583385 13356230
1.1566656 0.63133544 0.062002435 13553352
1.1586201 0.63450247 0.061755739 13421768
1.160463 0.63758445 0.062081717 13421770
1.1629529 0.63836735 0.061860062 13421772
1.1649528 0.64211178 0.061865814 13421771
1.167667 0.64244694 0.062157124 13355979
1.1686658 0.64589357 0.062165014 13487565
1.1715727 0.64767516 0.062372319 13487565
1.1724848 0.65065092 0.06187433 13290186
1.1754689 0.65196943 0.062202595 13487565
1.1764454 0.65562868 0.062006287 13487565
1.1784784 0.65720749 0.060921296 13290186
1.1802027 0.65903002 0.061213955 13290186
1.1821436 0.66105825 0.061391607 13290186
1.1849369 0.66353339 0.061452724 13290186
1.1870345 0.66562569 0.061692275 13355979
1.1902068 0.66989172 0.061608635 13355979
1.1930325 0.67302322 0.062362902 13421772
1.1940285 0.67352766 0.059400793 14671830
1.1961036 0.67637682 0.059844442 14737618
1.1980989 0.67877382 0.060633399 14671829
1.2002442 0.6812911 0.060919166 14336902
1.120906 0.59484708 0.06216123 12764098
1.1239697 0.5986855 0.062390052 12500670
1.1258875 0.59962094 0.060848549 13553357
1.1299208 0.60481489 0.061461501 12105912
1.1313033 0.60612488 0.06126488 12369083
1.13404 0.60915333 0.062660441 11776947
1.1356361 0.61133391 0.060728081 12566463
1.1374609 0.61432242 0.059964709 13487560
1.1393481 0.61606741 0.060207695 13422023
1.1413289 0.61726993 0.059858628 13421764
1.143123 0.61945021 0.060459659 13421765
1.1453234 0.62175483 0.060805514 13421763
1.1472934 0.6249572 0.061108656 13421761
1.1492143 0.62572676 0.060820386 13421770
1.1509787 0.62969315 0.060613826 13421768
1.1539841 0.63071382 0.060469799 13421770
1.1547587 0.63351047 0.061110362 13355976
1.1575353 0.63552284 0.058462098 14341552
1.1595414 0.63921434 0.058371052 14341286
1.163172 0.64253747 0.057939809 14276285
1.1686834 0.64901543 0.058046971 14342080
1.1705866 0.65188241 0.058503274 14407872
1.1724778 0.65234619 0.058242638 14473667
1.1746064 0.65540403 0.058334656 14539710
1.177413 0.65768129 0.058849279 14474188
1.1782825 0.66149771 0.058559343 14474186
1.1801981 0.6615451 0.05842508 14540238
1.1831846 0.664653 0.05863522 14540237
1.1842368 0.66838282 0.058577672 14671818
1.1862032 0.66985554 0.058699686 14671568
1.1889018 0.67164743 0.058307555 14800827
1.1908908 0.67394429 0.059282679 14606291
1.192871 0.67664987 0.058782578 14866356
1.1954602 0.67835492 0.058217935 14664830
1.1969053 0.68118793 0.058953933 14666912
1.1982353 0.68459046 0.059043147 14401665
1.1225919 0.60008574 0.059909798 14013905
1.1229309 0.60077685 0.059589557 13553098
1.1250786 0.60478377 0.058612414 13553082
1.1274554 0.60535502 0.059029903 13684676
1.1300485 0.60815746 0.059098408 13487557
1.1319151 0.6099813 0.059150472 13487546
1.1341946 0.61130458 0.05899708 13422022
1.1354167 0.61418676 0.059277676 13422009
1.1374725 0.61623424 0.058626387 13553339
1.1395007 0.61927587 0.058565341 13684664
1.1419847 0.62141061 0.057419457 14144189
1.1436512 0.6241312 0.057899684 14012314
1.1454201 0.62664646 0.058212135 14012058
1.1472423 0.62817675 0.058275409 14143386
1.1491339 0.62951475 0.05836273 14143909
1.1518106 0.63255656 0.058415335 14143912
1.1535459 0.63582295 0.05840046 14274977
1.1555374 0.63594097 0.058404952 14275238
1.1563661 0.63920152 0.05834778 14209960
1.15908 0.6418342 0.056859218 12627577
1.1613519 0.64433819 0.057226758 12167549
1.163825 0.64559406 0.057758275 12762015
1.1654867 0.64843678 0.057350263 14141079
1.166713 0.65083694 0.056793034 14071926
1.1686608 0.65183985 0.05849671 14407358
1.1714189 0.65547138 0.057640959 14273960
1.1729435 0.65853876 0.056641567 14203004
1.1747489 0.65884143 0.057409961 14403995
1.1770158 0.66164547 0.05749565 14469270
1.179288 0.66498315 0.057823278 14338983
1.1809434 0.66550577 0.057049289 14532482
1.1824945 0.66899145 0.057515696 14600599
1.1851276 0.67055857 0.057345252 14992772
1.1869341 0.67223513 0.057379019 15124357
1.1896468 0.67551565 0.057578832 14992519
1.1905313 0.67932558 0.057500448 14532476
1.192439 0.67924881 0.057433441 14730368
1.1941795 0.68291777 0.057715241 14664325
1.1214001 0.60135549 0.05854708 13552825
1.1241513 0.6070146 0.057120673 14144961
1.1271183 0.61078119 0.05653844 13749173
1.1291841 0.61030978 0.056801736 13947598
1.1317178 0.61405897 0.056285135 14013120
1.1338822 0.61623675 0.056912936 13946550
1.1356976 0.61884719 0.05733154 13946007
1.1383075 0.62122858 0.057792664 13879703
1.1406502 0.62397164 0.058071855 14011274
1.1419803 0.62425488 0.057561327 11838358
1.1458713 0.63088423 0.055235151 11049083
1.1476711 0.63214457 0.055243712 12428640
1.149812 0.6346032 0.054901429 9996635
1.1516575 0.63619411 0.055449679 11836507
1.1535962 0.6384511 0.055800557 11573603
1.1552789 0.64108533 0.056099255 10784866
1.157553 0.64375079 0.056215376 11508072
1.1592733 0.64454126 0.056722328 10982498
1.1614772 0.64763778 0.056597613 13480046
1.164021 0.65106291 0.056672383 13808755
1.167509 0.65517861 0.056348469 13809014
1.169696 0.65565097 0.056137949 13809013
1.1711816 0.65835428 0.056689478 13940339
1.1746403 0.66184485 0.056843419 14203515
1.1289994 0.6137864 0.056504417 13814415
1.1437994 0.63073158 0.054355752 12495742
1.1453862 0.63356578 0.055145487 10784337
1.1478229 0.6351558 0.055167247 11179094
1.1501968 0.63807029 0.055432141 10258782
1.1361765 0.62635177 0.050950002 15658731
1.1383651 0.62820292 0.052487254 15393738
1.1406713 0.6301536 0.053381164 14272147
1.1262562 0.61805141 0.052017272 15526112
1.1294837 0.62094879 0.052238911 14932696
1.1323762 0.625305 0.051397622 15525087
1.1359415 0.62791371 0.051869396 15591123
1.1447051 0.58143854 0.089002065 11776947
1.1465367 0.5827297 0.087957285 11711154
1.149591 0.58371639 0.088127829 11711154
1.1407005 0.57928723 0.087985478 11842740
1.1433794 0.58120865 0.086889707 11776947
1.1459767 0.58226007 0.086952992 11711154
1.1369328 0.5787791 0.084472224 11908533
1.1393354 0.58032566 0.084721699 11908533
1.1416501 0.58185601 0.084515989 11776947
1.2102863 0.66133946 0.081746012 11842740
1.2118052 0.66411579 0.081990175 11974326
1.2145923 0.66535372 0.081999056 12040119
1.2166582 0.66831338 0.08138302 12171705
1.2186873 0.67085344 0.081252202 12237498
1.2218448 0.67385834 0.080773018 12500670
1.2230663 0.67689985 0.080432422 12500670
1.1338702 0.57836366 0.082221635 11974326
1.1351594 0.57915783 0.083419003 12105912
1.1372468 0.58023179 0.083533429 12303291
1.2064518 0.65795261 0.080700189 11711154
1.2069598 0.66081524 0.080144174 11711154
1.2079448 0.66186816 0.082000628 11842740
1.2090483 0.6651361 0.081321269 11842740
1.2122096 0.66755176 0.078978173 12632256
1.2143455 0.66912246 0.080722742 12434877
1.2170883 0.67193002 0.08002995 12829635
1.2188511 0.67435229 0.080788955 12303291
1.2206845 0.67683077 0.079492696 12829635
1.2222548 0.67917567 0.079383269 12961221
1.2247338 0.68086964 0.07970082 12763842
1.2260801 0.6828869 0.078750066 12961221
1.2283016 0.68597358 0.079202943 12763842
1.2302898 0.68861502 0.079031087 12895428
1.2333523 0.69091952 0.079032041 13027014
1.235516 0.69373661 0.078759007 13158600
1.2376206 0.69666666 0.078316584 13224393
1.1295789 0.57784814 0.081587084 12237498
1.131655 0.5788334 0.081046849 12171705
1.1346226 0.58012539 0.080879025 12303291
1.1380148 0.58321077 0.081095099 12237498
1.2000729 0.65625471 0.077124707 11447982
1.2019066 0.65642732 0.078844316 11579568
1.2031403 0.65996957 0.078945056 11579568
1.2049243 0.66195291 0.077796578 11908533
1.2067016 0.66458505 0.077933252 12698049
1.2086946 0.66679835 0.07800401 12698049
1.2110014 0.6688683 0.077984467 13092807
1.2126536 0.67130935 0.078140222 12566463
1.2148027 0.67336327 0.078029118 12895428
1.2166415 0.67587179 0.078152634 12763842
1.2185873 0.67794538 0.077990308 13224393
1.2208631 0.68041909 0.077645369 13553358
1.2223749 0.68292058 0.07768622 13619151
1.2243415 0.68548441 0.07724537 14145495
1.2271069 0.68683243 0.077330127 13684944
1.2278465 0.68847007 0.078206748 13684944
1.2306372 0.69184786 0.077234022 13158600
1.232969 0.69456476 0.078577027 13092807
1.2351412 0.69711149 0.078400828 13224393
1.2364366 0.70035285 0.077990711 13290186
1.2389272 0.69976407 0.077865303 13355979
1.1267459 0.57678598 0.078632191 12632509
1.128389 0.57785892 0.079662181 12303290
1.1294963 0.57982922 0.078651257 12829635
1.1364721 0.58777934 0.077454835 8812627
1.20028 0.65918237 0.076604046 11447983
1.2020264 0.66140628 0.076896511 12040112
1.2035844 0.66434491 0.077048883 12566463
1.2050424 0.66601998 0.076445147 12698049
1.2065474 0.66850615 0.077113524 13027014
1.2090031 0.66969442 0.076699719 13355979
1.2112738 0.67274618 0.076797202 13619151
1.2132295 0.6751855 0.077342868 13355979
1.2148858 0.67701864 0.077098131 13684944
1.2171301 0.67967433 0.075980604 13750737
1.2191013 0.68080986 0.077226028 14606046
1.22026 0.6844092 0.075887047 13355979
1.2226682 0.68611878 0.076882765 13684944
1.2247568 0.6881423 0.076771975 13619151
1.2265465 0.69140357 0.075937249 13355979
1.2289218 0.69289225 0.075209297 13290186
1.2311165 0.69475716 0.075115375 13290186
1.2329848 0.6976074 0.075321935 13553358
1.2353803 0.69997519 0.075272828 13619151
1.1200213 0.57315123 0.077286653 12565167
1.1220822 0.57467538 0.07707569 12564646
1.1244211 0.57648164 0.077403836 12697524
1.1259792 0.58073062 0.076902099 13224392
1.1290059 0.58040905 0.076960377 12565170
1.1307061 0.58434135 0.075941622 13092807
1.1344063 0.58571386 0.076823853 13027014
1.1996531 0.66054511 0.074885048 10263442
1.199692 0.66401517 0.074997224 11579305
1.2020153 0.66532391 0.073758543 12566463
1.2035626 0.66730368 0.074817248 12895427
1.2059127 0.67029715 0.074480101 13355979
1.2072157 0.67285609 0.074472368 13882323
1.2091546 0.67396945 0.075116441 13816530
1.2116803 0.67727488 0.075117543 13619151
1.2130878 0.67908764 0.074687563 14211288
1.2146569 0.68262494 0.074409813 13619151
1.2172954 0.68363529 0.074303225 13816530
1.2185345 0.68440247 0.073980674 14277081
1.2207936 0.68879378 0.073575735 13948116
1.2236298 0.68972272 0.073866345 13684944
1.2255583 0.6924113 0.07444261 13421772
1.2264895 0.6946761 0.073992915 13619151
1.2290628 0.69676238 0.074078538 13421772
1.2310722 0.69923967 0.073644437 13487565
1.2335098 0.70107323 0.074078202 13619151
1.1119071 0.56855404 0.075688757 9205574
1.1138498 0.57088822 0.075465083 11378560
1.1167314 0.57232583 0.075421713 12300445
1.1186004 0.57360023 0.074707165 11707012
1.1249007 0.58087265 0.074465521 12038824
1.1262143 0.58242989 0.076126114 12434877
1.129936 0.58765972 0.07543236 13158600
1.1333746 0.59093499 0.074445643 13027014
1.1345937 0.59235758 0.073200487 13027014
1.1985656 0.6632992 0.072854578 11645356
1.2002268 0.66756004 0.07280691 12763842
1.2015755 0.66931599 0.07323049 12434877
1.2037405 0.67144483 0.072172068 13619141
1.2059593 0.67359173 0.073380128 14211286
1.2079864 0.67648518 0.073899537 14211288
1.2145333 0.68406749 0.072302967 14474460
1.2188141 0.68846774 0.073634468 14013909
1.2228713 0.69288808 0.073492922 13948116
1.2271997 0.69773352 0.073275343 14013909
1.229179 0.70020217 0.073748603 14342874
1.2316951 0.70343739 0.073322646 13816530
1.1110542 0.56909961 0.073328294 10588011
1.1132174 0.57106441 0.073444739 11575686
1.1154563 0.57273251 0.073472731 11641218
1.1164646 0.57609159 0.072836973 12434089
1.1188343 0.5786078 0.072232105 13946822
1.1210629 0.58014047 0.072668485 12696494
1.122021 0.5820508 0.073231108 11907230
1.1315732 0.59046996 0.072784945 13092807
1.1945136 0.664096 0.069693185 13027014
1.1965463 0.6651544 0.071286194 13092807
1.1981086 0.66770113 0.070578761 12105911
1.1996942 0.67009985 0.070966601 12763842
1.2009039 0.67293733 0.070099898 12829105
1.2040981 0.67714024 0.070792638 14145481
1.2086552 0.67857248 0.06980744 14803425
1.2097752 0.68152446 0.070180342 14803425
1.2116612 0.68460202 0.070503168 14803425
1.2137704 0.68602705 0.068698406 15592941
1.2153254 0.68933678 0.069335967 15329769
1.2175695 0.68980294 0.069121279 15132390
1.2197621 0.69349122 0.069194138 14869218
1.2226069 0.69757187 0.068879232 14869218
1.2248076 0.6984213 0.068325691 14869218
1.1104609 0.57049727 0.071529262 10655595
1.1119301 0.57224834 0.070844598 10787195
1.1157736 0.57569504 0.071927205 12697258
1.1173456 0.57957488 0.071771897 12828854
1.1192349 0.58114994 0.071135335 13223619
1.120989 0.58322287 0.071806513 12434877
1.1222855 0.58573532 0.071513921 12500670
1.1307424 0.59436005 0.071837887 13027014
1.1344812 0.59939963 0.069682583 12895428
1.1842057 0.655509 0.067515917 13027014
1.1891065 0.66119051 0.06756907 13027014
1.1915458 0.66313112 0.068311311 13092807
1.1920445 0.66608024 0.068160869 13092807
1.1942679 0.66645139 0.070143245 13092807
1.1964036 0.66952598 0.068745844 12369084
1.1974912 0.67144918 0.069335297 12040119
1.1998808 0.67488217 0.067328915 12829886
1.2018759 0.67598033 0.069138825 12763318
1.2066501 0.68016559 0.068796746 14803425
1.2082943 0.68336862 0.068431474 15329768
1.2105545 0.68650216 0.068232998 15856108
1.2115391 0.6899659 0.068419777 15856107
1.2138163 0.69009703 0.06833338 15527146
1.2166802 0.69333845 0.069443323 14869218
1.2182525 0.69504023 0.067863196 15724526
1.2208636 0.69482058 0.068060674 15790319
1.2214364 0.69900966 0.067827754 15395561
