# .PCD v0.7 - Point Cloud Data file format
VERSION 0.7
FIELDS x y z rgba
SIZE 4 4 4 4
TYPE F F F U
COUNT 1 1 1 1
WIDTH 1163
HEIGHT 1
VIEWPOINT 0 0 0 1 0 0 0
POINTS 1163
DATA ascii
1.1653361 0.54550302 0.043375254 10983819
1.1679955 0.54470325 0.042087197 9867930
1.171661 0.54747009 0.041632652 10457467
1.1150794 0.52815014 0.052269995 4539976
1.1179487 0.52939999 0.051440179 4341305
1.1202614 0.52998322 0.051466346 4341569
1.1230087 0.53209519 0.050735354 4603190
1.1263394 0.53331989 0.049806952 7500406
1.1286845 0.53352654 0.049649775 6775402
1.1318388 0.53505957 0.048518181 7634543
1.1344388 0.53609383 0.048842847 7237747
1.1365869 0.53615856 0.047859609 8683374
1.1408619 0.53756726 0.045789182 10263175
1.1412632 0.53855538 0.047142804 8289658
1.1446463 0.54028517 0.0454036 9933185
1.1478956 0.54053861 0.044750631 9800316
1.1508219 0.54281962 0.043530464 10459280
1.1530195 0.54293042 0.044275522 10394251
1.1111155 0.52884084 0.050676227 6183512
1.1142787 0.53009808 0.05056107 5721927
1.1165096 0.5314219 0.050251842 3883076
1.1189111 0.53279692 0.05069983 4736583
1.1220014 0.53314567 0.048469782 4671567
1.1260116 0.53369743 0.048200369 5656380
1.1269548 0.53685987 0.047580898 8088177
1.1331555 0.5380969 0.044813633 8352352
1.1349844 0.53781301 0.044656038 9405294
1.142011 0.54037821 0.043847144 9470827
1.1442491 0.54257095 0.04150188 10460062
1.1471715 0.54341507 0.043478847 9340798
1.1490476 0.5436514 0.040797353 10197142
1.1095275 0.53124368 0.048233926 8878444
1.1132973 0.5331437 0.049500525 5923951
1.1141118 0.53406018 0.048228145 6707302
1.1215458 0.53637767 0.047641754 6843495
1.1231729 0.53594077 0.047323167 7894135
1.1294878 0.53873652 0.045197904 6970200
1.1313164 0.53845268 0.04504025 7365713
1.1367629 0.54311073 0.041857362 8090994
1.1397067 0.54317886 0.042297661 8681834
1.1068103 0.53285211 0.047529399 6250595
1.1080626 0.53333193 0.04740864 7300456
1.1111623 0.53436852 0.047902346 9207925
1.1123853 0.53635019 0.046595573 9010551
1.1348431 0.5433597 0.042037904 7762029
1.0988933 0.53193766 0.046141386 9470586
1.1009697 0.53171074 0.045961082 9141881
1.10534 0.53453362 0.045989335 8681588
1.1066104 0.53360653 0.045693398 9405045
1.1103274 0.53624135 0.044803083 5262133
1.1187149 0.53952688 0.041166484 4477522
1.1202402 0.53980827 0.041099846 4016971
1.0931246 0.53298366 0.046223998 9338998
1.0957986 0.53229171 0.046182513 9339256
1.0979447 0.53278476 0.045187473 9141881
1.10122 0.53525192 0.045787811 9404792
1.1031094 0.53544539 0.045503795 9273721
1.0932072 0.53331679 0.044870377 9142134
1.0966194 0.53462136 0.042271137 8156789
1.1013507 0.53560168 0.042679191 9470570
1.1022792 0.53845543 0.041968107 7828080
1.104148 0.53841418 0.041902125 9734010
1.1078247 0.54110914 0.040942907 8288354
1.0902463 0.53498065 0.041527212 9538178
1.0926449 0.53711063 0.040967703 9276040
1.0953213 0.53760594 0.040994406 9143425
1.0982603 0.53827769 0.041021526 9405307
1.0889103 0.53739613 0.040984869 9406335
1.0912979 0.53805804 0.040552258 9603713
1.2606171 0.55566412 0.050113738 10064013
1.2630811 0.55607849 0.0504843 10130061
1.2654533 0.55747998 0.050900221 10195600
1.2509111 0.55315691 0.050123215 9998218
1.2584262 0.55641383 0.049100637 10589841
1.2642299 0.55859816 0.047731876 11839134
1.2676872 0.56056714 0.048516214 11970723
1.2465777 0.55422217 0.049599946 9997962
1.2493052 0.5536772 0.049776375 9998473
1.2511464 0.55714631 0.04969728 10326928
1.2549477 0.55730182 0.048720241 10655634
1.2574372 0.55830497 0.047607064 11575963
1.2601717 0.55937719 0.046845973 12036510
1.2657318 0.56178331 0.04520911 13023405
1.2677813 0.56196338 0.045762718 13155249
1.2369475 0.55185747 0.049471855 9405826
1.2424192 0.55510211 0.049199462 10195599
1.2456052 0.55570239 0.047326624 11114896
1.248611 0.55545294 0.047090411 11049615
1.2503922 0.55889881 0.046735883 11444377
1.2534984 0.5579313 0.047119558 11510169
1.2575822 0.56138533 0.043682873 12628637
1.2627434 0.56283277 0.043667078 12825506
1.2298108 0.5529846 0.049047589 9800324
1.2335334 0.55274487 0.049053371 9537410
1.2365588 0.55507666 0.048013091 10326153
1.2386093 0.55555916 0.047717571 10654859
1.241443 0.55622798 0.047320068 11180947
1.2476695 0.55918086 0.046834826 11509913
1.2515632 0.56127423 0.0427562 12496536
1.2546234 0.56131136 0.04317379 12496801
1.2599955 0.56442964 0.043042779 12891808
1.2183827 0.55057472 0.048916817 9208442
1.2209436 0.55007946 0.049161792 9142394
1.223352 0.55236471 0.048659682 9471361
1.2263361 0.55373514 0.048617661 9668997
1.22833 0.55366349 0.045936525 10061691
1.2315098 0.55545038 0.046651661 10654343
1.2346454 0.5561977 0.046919882 10983053
1.2368013 0.5576672 0.046796203 11246740
1.2454635 0.56105655 0.041783512 11772825
1.2486786 0.56168383 0.043061316 12299161
1.2508179 0.56272823 0.040689647 12564652
1.2534847 0.56414443 0.04138124 12695468
1.2057014 0.5476476 0.049575806 9076604
1.2086667 0.54813945 0.048995018 8813431
1.2109118 0.550439 0.049616814 9405569
1.2147356 0.55050278 0.049175203 9273979
1.2197592 0.55326062 0.0492962 9734788
1.2216643 0.55403876 0.0471192 10193793
1.2253356 0.55504036 0.04603833 10390657
1.2278177 0.55638278 0.04629004 10719882
1.2361603 0.55931008 0.042366862 11775653
1.2396096 0.56146383 0.041648388 11969949
1.2413458 0.56134641 0.041448355 11577242
1.2436244 0.56141227 0.042010009 11839115
1.2464386 0.56354892 0.040487647 12234663
1.2500237 0.56427926 0.040768027 12827317
1.2526349 0.56478721 0.040553749 12761520
1.1857373 0.54424298 0.053355575 10128776
1.1879399 0.54493475 0.05267036 9997449
1.1912447 0.54529107 0.051482201 9800068
1.193761 0.54557276 0.050763249 9536896
1.196841 0.54728281 0.050526142 9602691
1.1996598 0.54745376 0.050186217 9405314
1.2029029 0.54790056 0.049548507 9273727
1.2048448 0.54974341 0.050456822 9800327
1.2083763 0.55086827 0.049371839 9734278
1.2144312 0.55257875 0.045870125 9798005
1.215698 0.55378348 0.045963347 10127484
1.2179497 0.55536544 0.045736551 10456194
1.2290399 0.55896664 0.041736841 10788244
1.2328174 0.55954319 0.041818678 11117725
1.2342889 0.56141853 0.040902376 11442570
1.2377361 0.5618059 0.041350842 11971492
1.2403214 0.5646885 0.040420592 12301223
1.2428578 0.56391835 0.04014945 12564397
1.1710887 0.53885776 0.05338186 9865601
1.1735134 0.54056937 0.053530097 9405047
1.1760108 0.54142547 0.05368638 9667965
1.1788498 0.54156637 0.053380847 9800065
1.1826788 0.54216182 0.052675128 9997445
1.184698 0.54323864 0.052941561 9931653
1.1878825 0.54354829 0.051202655 9668482
1.1895529 0.54605466 0.049850464 10194052
1.1921529 0.54800868 0.04872936 10325380
1.1956614 0.54932714 0.048068762 10259586
1.1979755 0.5501371 0.04713124 10127746
1.2013189 0.5510391 0.046929419 10061951
1.204092 0.55149561 0.046623588 9930364
1.206138 0.55205154 0.045984089 9798776
1.2093697 0.55291146 0.046149194 9864571
1.2125626 0.5538308 0.045155525 9798518
1.2219144 0.55865908 0.041141212 10393480
1.2260979 0.55881071 0.041243017 10721418
1.2284874 0.56118989 0.040954888 10984075
1.23153 0.56192595 0.040397167 11379342
1.1636682 0.53870356 0.054036081 8024933
1.1674111 0.53877425 0.053720474 9142389
1.1695704 0.54088956 0.054376662 7892574
1.1744587 0.54340208 0.050517201 10588291
1.1784891 0.54517275 0.049776852 10391171
1.1806408 0.54463416 0.049860597 10588295
1.1837567 0.54563856 0.049784601 10654345
1.1868335 0.54647577 0.048859656 10522502
1.1932495 0.54764503 0.047285855 9798780
1.202605 0.5540272 0.043465734 10195845
1.2173245 0.55883044 0.040205002 10327951
1.2192534 0.55873704 0.040590286 10524036
1.2219096 0.56020868 0.040272534 10852746
1.2246867 0.56165111 0.040100157 10984336
1.1527904 0.53669375 0.053860009 7827052
1.1558363 0.53683823 0.053508937 7761256
1.157901 0.53781897 0.053809822 7629927
1.1601223 0.53916228 0.053973138 6972768
1.163246 0.54047048 0.051763356 8878951
1.1663314 0.54169029 0.051675677 8944488
1.1683927 0.54168463 0.051334679 9733233
1.1714578 0.54304808 0.051166654 9930867
1.1763182 0.54403794 0.049693704 10588808
1.1900079 0.55173898 0.044778407 10785423
1.1916364 0.55096078 0.043725908 10126983
1.1956664 0.55363983 0.04283607 10720383
1.1984807 0.55391073 0.043069482 10589314
1.2010468 0.55474192 0.042583585 10195073
1.2045012 0.55566013 0.04124248 9931386
1.2061924 0.55770856 0.040808201 10196361
1.2095034 0.55752504 0.040209174 10129534
1.145833 0.5359956 0.052461863 8024428
1.1502705 0.53758293 0.053282261 7827572
1.1544487 0.53876579 0.051796794 7958631
1.1571255 0.53948826 0.05158633 8155238
1.1594208 0.54162955 0.051290572 7432802
1.1730567 0.54748052 0.04720962 10788763
1.1752048 0.54754537 0.046226323 10920345
1.1790646 0.54906064 0.044854879 11049098
1.1822243 0.54962879 0.046040893 11246736
1.1839941 0.55159187 0.043817401 11180943
1.1865515 0.55138546 0.043832719 10785921
1.1919479 0.5541845 0.043311954 11180691
1.1941789 0.55415446 0.042076468 10391948
1.1968203 0.55362594 0.041277826 9865868
1.1986961 0.55729824 0.041646004 10524809
1.203747 0.55839992 0.041102409 11051414
1.2057172 0.55960822 0.040279031 10983036
1.1419951 0.53740144 0.051365674 7761779
1.1439545 0.53697878 0.051735938 8024943
1.1461648 0.53998369 0.051760793 8617351
1.1491621 0.54039955 0.051191568 8222333
1.1523983 0.53994823 0.051127911 8090220
1.1546153 0.54243624 0.049149454 7303782
1.1577283 0.54191279 0.049288154 9472895
1.1600075 0.54422277 0.047359586 9472118
1.1633378 0.54529619 0.04678303 10460294
1.1665031 0.54708862 0.045915186 10061172
1.1689999 0.54704815 0.045869231 10787214
1.1715716 0.54851872 0.045285523 10788498
1.1740048 0.54848462 0.044411659 10787989
1.1764046 0.55021435 0.044474125 10984592
1.179626 0.55196208 0.043118477 10985634
1.1824203 0.55246365 0.041944802 10591644
1.1856486 0.5531317 0.041146457 10131333
1.1872487 0.55514538 0.040952861 10788502
1.1904259 0.55465901 0.041038215 10261903
1.1949297 0.55729288 0.040653825 10853784
1.1299241 0.5345571 0.052392721 8882063
1.1312174 0.53456026 0.052291453 7631225
1.1341487 0.53598434 0.050368071 7698296
1.1378245 0.53724146 0.050571799 7828859
1.1404141 0.53819627 0.051099181 8156283
1.1425508 0.53890079 0.050608814 8287865
1.1467512 0.54104048 0.050889432 8814469
1.1490692 0.54207629 0.047244728 8354146
1.1509778 0.54212648 0.047622323 8420716
1.1540787 0.54335195 0.047240198 7366740
1.1562901 0.54506981 0.04698658 7891792
1.159721 0.54479325 0.046175539 9734772
1.1625742 0.54721093 0.045565009 9206374
1.1646426 0.54732162 0.045321465 10392704
1.1680083 0.54921645 0.044861138 10787477
1.1719912 0.54850698 0.043215692 10853261
1.1779218 0.55108023 0.041410983 10327963
1.1820829 0.5536204 0.040831149 10723230
1.1847173 0.55587959 0.041189611 10920342
1.1264898 0.53502047 0.052123487 10065819
1.1281914 0.53549474 0.051154673 6973542
1.1324916 0.53640974 0.050548851 7829906
1.134452 0.53927916 0.048715115 8550779
1.1359378 0.53846806 0.05022049 8419967
1.1393044 0.54093021 0.048876643 8355982
1.1419947 0.54060328 0.047922909 8290430
1.1450852 0.54236645 0.046492934 7894905
1.148423 0.54349381 0.046394229 7500646
1.1501639 0.54529691 0.046659946 8223346
1.1529578 0.54485261 0.04637754 7235933
1.1243708 0.53715926 0.049572706 7039085
1.1269675 0.53663933 0.049267232 6378319
1.1305324 0.54057866 0.048226893 9536638
1.1326437 0.53964639 0.04864347 9142657
1.1351126 0.54184139 0.048244655 8749205
1.1437837 0.54423946 0.045553327 8026237
1.1459516 0.54501963 0.045594513 8025458
1.1147257 0.53512931 0.049237907 5526655
1.1176174 0.53585815 0.048834741 6512483
1.1198884 0.53680307 0.047822595 6185822
1.1228602 0.53874969 0.04809761 7695471
1.1261992 0.54164368 0.047485769 10000286
1.1286339 0.54204625 0.047282755 9075571
1.1317809 0.54249418 0.046702266 9408661
1.1429911 0.54705048 0.043103755 8025462
1.110262 0.5353114 0.048382342 8094346
1.1159945 0.53780955 0.047426283 7299685
1.1194463 0.54001534 0.047162712 7496559
1.1221417 0.53986055 0.046126842 5917793
1.1312054 0.54401106 0.042559803 8486262
1.1330041 0.54371542 0.042264342 8223090
1.1350132 0.54668057 0.041646659 8155777
1.1377716 0.54626048 0.041260958 8090225
1.1409009 0.546817 0.042527199 8355710
1.1074861 0.53712296 0.046220839 9404792
1.1095866 0.53751165 0.046418786 9273462
1.1127628 0.53865272 0.046463132 8023408
1.1145955 0.53924161 0.046666443 8747639
1.1181775 0.54295892 0.044261217 8156779
1.1292856 0.54426003 0.042740345 9340285
1.1331844 0.54696435 0.041804314 9142156
1.138912 0.54938489 0.040710688 8882053
1.0985377 0.53543586 0.045970976 9338998
1.1026371 0.53821802 0.045880258 9273463
1.1058526 0.5378406 0.045627236 8682109
1.1074399 0.53994429 0.04551971 9472389
1.1107079 0.54168749 0.04454875 8814464
1.1138046 0.54215413 0.044014096 9406342
1.1253666 0.54714882 0.041172981 10391685
1.1271653 0.54685324 0.04087764 10195594
1.0915164 0.53668326 0.045898676 9273205
1.093694 0.53636247 0.04554075 9207413
1.096694 0.53747052 0.045819044 9141877
1.0996622 0.53870612 0.045726478 9207669
1.1071095 0.54197264 0.042478442 9406597
1.1129428 0.54477453 0.04151094 8815237
1.0897541 0.53695422 0.045425594 9141876
1.0945925 0.53891736 0.041405737 9537146
1.1003904 0.54151642 0.040426791 9408144
1.1035365 0.54259658 0.041463435 9472902
1.108783 0.54427743 0.04039228 8088687
1.0860966 0.53891873 0.04173696 9078914
1.0917734 0.53931415 0.04173398 9668989
1.0936362 0.54229885 0.04100126 9602676
1.0966254 0.54172045 0.040088296 9603721
1.0990862 0.54359108 0.040293872 9735562
1.0844395 0.53934401 0.04191792 9144707
1.0869159 0.54044271 0.040315211 9406079
1.2657433 0.55903119 0.052230537 10326930
1.258494 0.55926287 0.051416516 10195599
1.2614242 0.56003803 0.05109179 10655892
1.2634718 0.56069583 0.050467491 11313306
1.2663246 0.56100577 0.049890518 11905186
1.2700315 0.56275129 0.047165155 12761515
1.2482592 0.55880564 0.051240742 10064013
1.2510625 0.55874366 0.051141798 10129551
1.2544789 0.55947149 0.050454438 10590099
1.2564772 0.56041229 0.049042344 11641757
1.2597363 0.56100482 0.049054563 11773344
1.2616963 0.5609225 0.048851132 11904928
1.2684441 0.56471771 0.047127485 12957615
1.241771 0.55726546 0.050428748 10261134
1.2456266 0.55840194 0.050433934 10129805
1.2486261 0.55780852 0.049429417 10392720
1.2516636 0.56094176 0.050097764 11575962
1.2528491 0.56037128 0.047817171 11641756
1.2633756 0.56557536 0.045112014 12628130
1.2664356 0.56561244 0.045529604 12629164
1.2325044 0.55602437 0.050101757 10195341
1.2350851 0.55655849 0.049879789 10129549
1.2382506 0.55788517 0.0500561 10195343
1.2433946 0.56049699 0.047584951 11510169
1.2464586 0.56050986 0.047543645 11510169
1.2497984 0.56105757 0.047663152 11641758
1.2575357 0.56517917 0.043879867 12759711
1.2603258 0.56546646 0.044625759 13023138
1.2239184 0.55568767 0.049851954 10195340
1.2265706 0.55568135 0.049672425 10129293
1.2293267 0.55651081 0.050307095 10129291
1.2312194 0.5573501 0.050802708 10063755
1.2330936 0.55836684 0.046675622 11312276
1.2364655 0.56049198 0.047138512 11378327
1.2402438 0.55985743 0.047201991 11510169
1.2420599 0.56203032 0.047673941 11641497
1.2490542 0.56273818 0.044632971 12364954
1.2504569 0.56592524 0.044128895 12628125
1.2527784 0.56653589 0.042916119 12827827
1.2566289 0.56836462 0.04308176 12694173
1.2057662 0.55100667 0.051891506 10129036
1.2109982 0.5527457 0.051508546 10129034
1.2134404 0.55313796 0.050663173 10063497
1.2169642 0.55387563 0.050272405 9997703
1.2201707 0.55553919 0.050029874 10261133
1.2216352 0.5551163 0.050399423 10063754
1.2273351 0.55911374 0.046781361 11246481
1.2306983 0.55926692 0.047122777 11312276
1.2335455 0.56058526 0.047478318 11444120
1.242355 0.56380689 0.045425296 12365207
1.244182 0.56526107 0.0424335 12299671
1.24807 0.56622088 0.042737246 12563371
1.2489984 0.56655055 0.041900992 12762042
1.251914 0.56704932 0.04200846 12760745
1.2545458 0.56809485 0.041381061 12827055
1.1910386 0.54706931 0.053373754 9997446
1.1940074 0.54832041 0.053526759 10128774
1.1960332 0.54913372 0.052760959 10194568
1.1989808 0.5494675 0.052306354 10129035
1.2019081 0.54983139 0.051817417 10129034
1.2039477 0.5507645 0.052164197 10129292
1.2081103 0.55182821 0.051091671 10129035
1.2186244 0.5573926 0.047426581 11114640
1.2212895 0.5578202 0.047231674 11114639
1.2239817 0.55851054 0.04681468 11114895
1.2356632 0.56271636 0.042295575 12234143
1.2381318 0.56400317 0.042482316 12035742
1.2394611 0.56523067 0.041325212 12365735
1.2426605 0.56638032 0.040928066 12564136
1.2455308 0.56721532 0.041222572 12563883
1.175306 0.543239 0.054739714 7827559
1.1789368 0.54406214 0.054760158 7958891
1.181455 0.54469889 0.054809511 8024423
1.1842291 0.54608953 0.054545462 8550245
1.1873664 0.54706347 0.053632021 9602169
1.1918188 0.54982632 0.050609171 10917260
1.1952198 0.55107248 0.050504804 10917515
1.1983093 0.55204672 0.049402058 10917517
1.2003303 0.55221486 0.048946142 10851724
1.203476 0.55357134 0.048870087 10983566
1.2065985 0.55465293 0.047623873 10917516
1.2088703 0.55541009 0.04797107 10917517
1.2119721 0.55595416 0.047247112 10851468
1.2152344 0.55705249 0.047131121 11049104
1.2232184 0.56184816 0.042437911 11972516
1.2257144 0.56113827 0.042097867 11577502
1.2282295 0.56369096 0.041113973 12234669
1.2298868 0.56326568 0.040933132 12038569
1.2328559 0.56514114 0.040506601 12036504
1.2363997 0.5663861 0.041297138 12432039
1.2395618 0.5673508 0.040578783 12433064
1.1649587 0.54120511 0.054449797 6578014
1.1671915 0.54168153 0.05399406 6840664
1.1700833 0.54358536 0.054834962 7039329
1.1726542 0.54301822 0.055011153 7235936
1.1766118 0.54551935 0.055314243 6907501
1.180909 0.54678375 0.052016497 9601643
1.1833431 0.54832155 0.051572144 9733488
1.1863185 0.54834425 0.051192403 10522753
1.1897471 0.54956329 0.051156819 10851464
1.2194521 0.56184292 0.041445732 11841191
1.2208446 0.56215012 0.042204738 11906981
1.2232071 0.56509924 0.041656315 12037799
1.2266804 0.56493974 0.040644526 11774625
1.22929 0.56606519 0.040196776 12037538
1.1605241 0.5419668 0.054156005 7433851
1.1633426 0.54179716 0.054171801 6644333
1.1653175 0.54399151 0.053118467 7498346
1.1677867 0.54516459 0.052915215 7301472
1.1708591 0.54558325 0.051772475 7958620
1.173593 0.54673141 0.051416636 8353128
1.1763169 0.54757279 0.051137447 8352872
1.1790506 0.54773688 0.051325023 8615779
1.1827196 0.55118406 0.048415422 10389371
1.1895434 0.55341876 0.047243237 11443855
1.1949379 0.55523103 0.045135975 11444105
1.2156959 0.56176555 0.040384769 10919577
1.2172786 0.5633201 0.041831791 11707286
1.1525561 0.54027629 0.053571224 8287873
1.1556779 0.54067677 0.05303669 7827828
1.1584643 0.54469687 0.052304804 8485767
1.1629102 0.54352236 0.052013814 7301219
1.1651614 0.5470345 0.051442146 7761517
1.17281 0.54909217 0.049342036 7895151
1.1752555 0.5484007 0.049047768 9999489
1.1768173 0.55061388 0.048421979 9209709
1.1797152 0.55109257 0.047917664 9405042
1.1844894 0.55314708 0.046191812 11639439
1.1865845 0.55334461 0.046734035 11312265
1.1882482 0.55254233 0.045784831 11377803
1.1924887 0.55575722 0.04567498 11771791
1.1969858 0.55826527 0.043317676 11313818
1.200084 0.55887288 0.04333353 11380889
1.2020442 0.55948907 0.041019082 11116174
1.2045701 0.56049401 0.040345669 10984586
1.1503547 0.54264945 0.051926494 8617096
1.1528308 0.54344541 0.050736964 8682112
1.1547186 0.54375285 0.051387668 8355203
1.1574563 0.54523647 0.05064553 7630972
1.1600864 0.54567528 0.049743056 7827049
1.1614091 0.54650199 0.047949553 8289931
1.1661021 0.54862803 0.047688007 8485217
1.1691117 0.54905611 0.048355699 8488318
1.1708231 0.55086458 0.046539307 8219998
1.173782 0.55093867 0.047048509 8747105
1.1775858 0.55307621 0.045745552 9604732
1.1788154 0.55286419 0.044187546 10788257
1.1835539 0.55482984 0.042840242 10920866
1.187655 0.55609763 0.04227221 11051416
1.1903492 0.55962902 0.042618752 11051677
1.1926571 0.55844879 0.041687965 11051420
1.1953714 0.55822086 0.042076349 11051421
1.2000791 0.56040198 0.040935397 11443599
1.202053 0.56282359 0.040444016 11511187
1.2043145 0.56283164 0.040191174 11248531
1.1424674 0.54038441 0.05166328 9012104
1.1447965 0.54165435 0.0506109 9143433
1.1480674 0.54483849 0.05053401 9209230
1.1512864 0.5458051 0.049058735 9208457
1.1563306 0.54694307 0.049530387 8157568
1.1595995 0.54811847 0.048244357 7827586
1.1618286 0.54918659 0.047727168 7301481
1.1647599 0.55000526 0.046194136 7697527
1.1679988 0.55129737 0.046901941 8024183
1.1785823 0.55610585 0.043382645 10524045
1.1813269 0.55619788 0.043065608 11248801
1.1843303 0.55702013 0.042702675 11117470
1.1865827 0.55962372 0.041626573 11249054
1.1891142 0.55888963 0.041389883 11117469
1.1393471 0.54282182 0.049959779 9077125
1.1418051 0.54305661 0.049741626 9537674
1.1468257 0.54634178 0.048317611 9011847
1.1499588 0.54639357 0.048173249 8091281
1.1532626 0.54868007 0.046640098 8747645
1.155358 0.5488776 0.047182262 9736064
1.1595187 0.55016899 0.047325492 7766155
1.1622484 0.55075866 0.045517027 6317668
1.1324602 0.54230201 0.048458397 8879225
1.1348346 0.54313523 0.047796309 9472399
1.1372852 0.54358292 0.048711717 9537933
1.1392167 0.54602563 0.047755718 9931658
1.1423205 0.54622871 0.045970798 8552603
1.1455052 0.54797959 0.046651542 9670546
1.1493793 0.54870623 0.046324492 9472399
1.151299 0.54845721 0.046143949 8549509
1.1283123 0.54356408 0.047587454 9010549
1.1308242 0.5434916 0.047698259 8484463
1.1335601 0.54544878 0.047854483 9734276
1.1367576 0.54568905 0.047522783 10196119
1.1401188 0.54826123 0.044681847 9342611
1.1470498 0.55030918 0.042993665 9342346
1.1493191 0.55163485 0.04485476 10000545
1.1214849 0.54238677 0.04736352 9207675
1.1242112 0.54449123 0.047122002 9273466
1.1269447 0.54450411 0.047588766 9010295
1.1310161 0.54553306 0.046757102 10128771
1.1326188 0.54731888 0.044911861 10262947
1.1376331 0.54889935 0.044953108 10329501
1.1440742 0.55057037 0.043367624 9671056
1.1122701 0.54213685 0.046638608 9602172
1.1152149 0.54106951 0.047102451 9207420
1.1180198 0.54371476 0.046428621 9405054
1.121572 0.54592729 0.046100259 9208187
1.1259221 0.54668403 0.044867635 9472649
1.1286258 0.54813457 0.043173373 9934488
1.1314719 0.54956686 0.044209421 10789286
1.1351533 0.5499897 0.041117668 10130579
1.1369818 0.5497058 0.040959954 9735820
1.1408806 0.55241013 0.040023923 9406094
1.1453832 0.55443913 0.040901542 9145239
1.1041799 0.53994614 0.046994507 9470585
1.1061695 0.5418058 0.046365738 9470584
1.1084968 0.54195237 0.045929432 9339255
1.1108918 0.54342514 0.04574126 9537409
1.1141835 0.54464883 0.046043873 9536636
1.1161002 0.54375386 0.044865668 8814465
1.1197375 0.54514629 0.043734908 10328726
1.1217679 0.5477404 0.04263556 10131867
1.1240704 0.5495308 0.042271197 10395037
1.1275203 0.54986775 0.041851759 10262159
1.1302819 0.55022448 0.04090941 9800584
1.1332232 0.55031067 0.041366935 10261393
1.1361569 0.55317551 0.040555596 10195604
1.1400506 0.55489397 0.040067434 10197921
1.0937668 0.53906035 0.04622215 9272948
1.0956559 0.53857279 0.04643172 9272948
1.0988309 0.54119015 0.046423852 9273205
1.1013652 0.5416432 0.045964777 9141877
1.1047254 0.54257697 0.045732379 9207671
1.1079174 0.54459417 0.04487592 9406597
1.1097075 0.54448342 0.043513656 9934230
1.1127477 0.54602647 0.043081641 9868425
1.1152083 0.54545444 0.042810321 9143428
1.1179553 0.54896665 0.041585386 10197140
1.1228096 0.54987925 0.040846765 10195853
1.1254157 0.5504232 0.040666878 10523782
1.0890366 0.5394817 0.046094358 9075570
1.0924863 0.53998929 0.045933008 9010290
1.0948223 0.54214007 0.046069384 9141620
1.0974883 0.54279476 0.0452739 9076340
1.1023061 0.54444754 0.041575432 9802385
1.1061671 0.54490614 0.043198407 9737101
1.1095241 0.54691201 0.043420434 10065292
1.1106321 0.54814136 0.040653348 10064004
1.1143858 0.54892331 0.040662467 9932936
1.1166835 0.55074954 0.040114462 10260355
1.085888 0.54035705 0.045437336 9010033
1.0939665 0.54333574 0.042584181 9667960
1.0968466 0.54387027 0.041510046 9537666
1.0993221 0.54546112 0.040434778 9736590
1.1012539 0.54714888 0.041503787 9539471
1.1039182 0.54705852 0.04088068 9670017
1.0862499 0.54348308 0.041861355 9208696
1.0896778 0.5435921 0.041575074 9406332
1.0952042 0.54657209 0.040840983 9407370
1.0974195 0.54774171 0.040058136 9603460
1.0812764 0.54320467 0.040901899 9537401
1.0837165 0.54368454 0.040400624 9406590
1.0861274 0.54441923 0.040610433 9210243
1.0894471 0.54606968 0.040580213 9340799
1.2683938 0.56092077 0.055376649 10327188
1.2629622 0.56050384 0.05369395 10261392
1.2649078 0.56113631 0.05430454 10195601
1.2669208 0.56247491 0.053630114 11379101
1.2693801 0.56424934 0.052990675 11970723
1.2517478 0.56007028 0.054801404 9998220
1.2550021 0.56002885 0.053827524 10129805
1.2584615 0.5608241 0.053778708 10195598
1.2609788 0.56204021 0.052956045 11181721
1.2637707 0.56225121 0.052570224 11970722
1.2657309 0.56216908 0.052366674 11970722
1.2462047 0.55908102 0.053554654 9932428
1.2489383 0.55950445 0.054246783 10064013
1.2519027 0.56035447 0.052564681 10852756
1.253792 0.56054795 0.052280664 10787220
1.2569855 0.56201762 0.052347898 11707294
1.2597731 0.56162667 0.051027417 11707551
1.2670861 0.56775802 0.048764348 12956575
1.269981 0.5672766 0.048390388 13023142
1.2728657 0.56686699 0.048085213 13220781
1.2370622 0.55936474 0.05393064 10195341
1.2387203 0.55837137 0.053325713 9997963
1.2417108 0.55885398 0.052830935 9998221
1.2445482 0.55973333 0.053207695 9866636
1.2481362 0.56193852 0.050929427 11509914
1.2498943 0.56204391 0.050645232 11575707
1.2610773 0.56757498 0.04776895 12891562
1.2640816 0.56766647 0.048266649 12693154
1.2667558 0.56672108 0.047181368 12759979
1.2301198 0.5575369 0.05306077 10063756
1.2328205 0.55762613 0.054097116 10129292
1.2351242 0.55873501 0.053136587 10129548
1.2372071 0.55835819 0.052096069 10195342
1.2427582 0.56203538 0.050244451 11444118
1.2461113 0.56294149 0.050306439 11444375
1.2595401 0.5670861 0.046887398 12628644
1.2790072 0.57602751 0.04073745 10263966
1.2203841 0.55663401 0.053279757 10063497
1.2229477 0.55665612 0.052427113 10129546
1.2262131 0.55750364 0.052561581 10129292
1.227542 0.55692595 0.051279187 10260877
1.2358059 0.56220949 0.04844439 11378325
1.2390524 0.56267762 0.048839152 11378582
1.2427762 0.56487858 0.046985447 12365217
1.2447804 0.5650413 0.047550499 12233372
1.2498223 0.56712264 0.045836449 12496289
1.2532303 0.57001799 0.045209408 12364958
1.2556198 0.5692414 0.044341564 12628126
1.2699713 0.57589746 0.040907502 10067360
1.2721729 0.57704371 0.040692329 8489099
1.2753329 0.57689101 0.040341556 9015181
1.2777956 0.57669836 0.040001154 10067097
1.2053535 0.55307239 0.054421127 9997185
1.2080702 0.55344343 0.053614497 10260362
1.210806 0.55412543 0.053358138 10326412
1.2138423 0.55440569 0.05376035 10195084
1.217216 0.55592507 0.053160548 10063755
1.2246124 0.56026977 0.04996562 11180947
1.2270008 0.56085563 0.048837185 11246483
1.2303135 0.56068677 0.049362183 11312532
1.2339066 0.56231481 0.048487425 11312532
1.2380629 0.5648644 0.046443045 12168088
1.2406913 0.56460923 0.0463745 12233883
1.243705 0.56803501 0.045861244 12695468
1.2464094 0.56840694 0.044167519 12432554
1.2495053 0.56836289 0.044493318 12696239
1.2528702 0.56896949 0.043488741 12693661
1.2551645 0.56946886 0.042436659 12827826
1.1922785 0.54902178 0.054280937 9734011
1.1954632 0.5516811 0.054594159 8616300
1.1981455 0.55179983 0.054288447 9470841
1.2016233 0.55242556 0.054346919 9734013
1.2041063 0.55211401 0.05354023 10326410
1.2155176 0.55898082 0.049447715 11180691
1.2182262 0.5590595 0.049551129 11180690
1.2215626 0.55947977 0.049754858 11246482
1.2416992 0.56855053 0.042745531 12433069
1.2457248 0.56846488 0.042732596 12431782
1.1838527 0.54863417 0.05517453 6710368
1.1875703 0.54877084 0.054858983 7630430
1.1901079 0.55089152 0.054766178 7499107
1.1923892 0.55163783 0.053236008 9076336
1.1947025 0.55335635 0.052584887 9733741
1.1976128 0.55424303 0.051510572 10391423
1.2007145 0.55421948 0.051125228 11049102
1.2027591 0.55579787 0.05094409 10851718
1.2059242 0.55640382 0.05012846 11114894
1.2091889 0.55754107 0.050081253 11180945
1.2113006 0.55819803 0.049418807 11246480
1.2135171 0.55912304 0.049582243 11246225
1.2337037 0.566908 0.043621361 12035730
1.2358099 0.56947428 0.042453349 12300971
1.2387259 0.56902671 0.042580366 12432563
1.1729343 0.54532224 0.055698752 7499644
1.1746517 0.5451473 0.055701435 7170681
1.1773163 0.54866689 0.055474401 8485774
1.1804483 0.54922271 0.054997206 7236220
1.1862181 0.55124187 0.052802444 7958622
1.1882793 0.55134958 0.05241555 8879201
1.191107 0.55356836 0.052021146 8813412
1.2187339 0.56475085 0.04411602 11641491
1.2217888 0.56482381 0.044567943 11838867
1.2233393 0.56641322 0.042871773 11905951
1.2267046 0.56689471 0.042773485 11839126
1.2291582 0.56690037 0.042261004 12037020
1.2312536 0.56890106 0.041391492 12037793
1.2345395 0.56875885 0.041121185 12235178
1.1706771 0.54695529 0.054673672 8157569
1.175774 0.54966354 0.053039789 7828861
1.1796339 0.55015707 0.052081883 7432033
1.1819264 0.55201924 0.05156827 7760996
1.1835886 0.55235267 0.05103159 8418663
1.18708 0.55489987 0.049108505 8547422
1.1899191 0.55447298 0.048814714 10784380
1.1930296 0.55732983 0.048038125 11116647
1.1948586 0.55704588 0.047880411 11379091
1.199981 0.56014234 0.045844853 11578017
1.2119827 0.56462413 0.043096483 11839127
1.2142243 0.56461287 0.043612123 11708058
1.2172105 0.56588805 0.04230088 11642784
1.2204558 0.56620353 0.042127728 11840159
1.2257415 0.56853044 0.040993273 12038062
1.2282367 0.56952375 0.040400147 11972271
1.1635836 0.54699934 0.052770317 8485515
1.1683794 0.54887539 0.053487897 8814981
1.1696351 0.55018675 0.050850928 8419455
1.1710094 0.54984236 0.050761342 7894905
1.1749333 0.55188352 0.050885618 8223104
1.1773993 0.55227745 0.050211549 7170922
1.1802105 0.55264789 0.050292134 7630165
1.1833211 0.55550474 0.049515545 7432553
1.1849847 0.55470234 0.048566341 9208185
1.189271 0.55793464 0.048445106 8878214
1.1916568 0.55869555 0.046842396 11183000
1.1937284 0.55903423 0.046118915 11314844
1.1972667 0.56037033 0.045456409 11313308
1.2004093 0.56143886 0.042518377 11444115
1.201894 0.56243867 0.044409037 11709599
1.2049495 0.56335568 0.043082535 11644068
1.2075497 0.56459045 0.042034388 11511972
1.2106299 0.56437033 0.04257834 11903890
1.2122186 0.56603652 0.040056407 12235176
1.2159849 0.56604195 0.041048586 11906474
1.1609069 0.54775286 0.052238345 9143186
1.1633229 0.54784429 0.051048934 8221569
1.1663595 0.55054665 0.050325751 9014422
1.1678274 0.5519163 0.049792051 9076871
1.1710094 0.55258971 0.04938817 8814730
1.1763442 0.55563104 0.047325492 7040097
1.1900822 0.56047601 0.045256257 10195570
1.1941156 0.55963445 0.04361093 11249052
1.1966403 0.56211543 0.042994201 11510677
1.1987009 0.56347239 0.042537868 11180684
1.202288 0.56306666 0.041969836 11710375
1.2062881 0.56603664 0.040674567 11642261
1.1531917 0.54721862 0.050919235 9471624
1.1586822 0.55041838 0.049193978 9603206
1.1607429 0.55041283 0.049288809 9537169
1.1646523 0.55247766 0.048295736 9472130
1.167749 0.55453348 0.046900094 8224413
1.1694945 0.55550623 0.047888756 10524827
1.1723338 0.55507928 0.047595024 9539727
1.1747273 0.55622333 0.047483385 6514063
1.1804233 0.55866688 0.043889046 9012591
1.1832863 0.55942321 0.043961763 9998453
1.186196 0.56076431 0.043139696 10328454
1.188692 0.56005442 0.042799592 11117470
1.2007322 0.56708789 0.040153325 11772304
1.1525569 0.54890448 0.049208343 9801622
1.1547632 0.55069596 0.048901141 9734794
1.1578486 0.55202943 0.048767507 9800589
1.1604962 0.55251282 0.047784805 10392975
1.1625332 0.55336761 0.046468318 8488083
1.165804 0.55507565 0.046988666 9736099
1.1777419 0.55888849 0.043403029 8355173
1.1782864 0.56182235 0.042599559 6578777
1.1432482 0.54792452 0.048456728 9734537
1.1483676 0.55094606 0.048486114 9537158
1.1511146 0.55171871 0.046440363 10129035
1.1549616 0.55338228 0.046778142 10458252
1.1567857 0.55313426 0.046436727 9539214
1.1575876 0.55525857 0.046081483 10983820
1.1634465 0.55765367 0.045033932 10392977
1.1335593 0.54741687 0.047494173 10062982
1.1380175 0.54954171 0.047683477 9471103
1.1413465 0.54983217 0.047149241 9734278
1.1444657 0.5521636 0.047577322 9800069
1.1471184 0.55272448 0.046514273 10062983
1.1533827 0.55508459 0.044618487 10722452
1.1548839 0.55497766 0.044081569 9606810
1.1598032 0.55610472 0.04349196 7894685
1.1293876 0.54835474 0.046982765 9734016
1.1312413 0.54800487 0.047043025 9799809
1.1349027 0.54978573 0.046491385 9866631
1.1369877 0.55164462 0.04635036 9996930
1.1399734 0.55108446 0.046217442 10062725
1.1489197 0.55537999 0.043281019 10459288
1.1511562 0.5574103 0.043019593 10789799
1.1565868 0.55911094 0.041616023 9276319
1.1209135 0.54719013 0.04671818 9931135
1.1229632 0.54805142 0.046996117 9931135
1.1251141 0.54932982 0.046998799 9865342
1.1277614 0.5492456 0.046463728 9734016
1.1317598 0.55134571 0.046755433 9536896
1.1337901 0.55212331 0.046391129 9996929
1.1445032 0.55591935 0.040968418 10066080
1.1463356 0.556849 0.041360795 10130839
1.1134093 0.54605633 0.046420515 9470844
1.1163201 0.54692572 0.04663676 9536636
1.1192013 0.54840767 0.046135724 9405308
1.1220647 0.54967481 0.045892835 9405567
1.1242065 0.55011636 0.045459986 9536896
1.1271058 0.55209696 0.044476986 9998737
1.1298012 0.5528127 0.043088853 10526112
1.1330384 0.55296659 0.04205364 10459281
1.137292 0.55633587 0.040039659 10327182
1.1411122 0.55698562 0.040148318 10328217
1.1016992 0.54356414 0.046866715 9273206
1.1044903 0.54555428 0.046269774 9207670
1.1063085 0.54511517 0.046490669 9339000
1.1097174 0.54664105 0.046669424 9404793
1.1124436 0.54769289 0.046383977 9404794
1.1162152 0.5497058 0.046296954 9208186
1.1199324 0.55067182 0.042643011 10328729
1.1236148 0.55276299 0.04144311 10329239
1.1261629 0.55333579 0.041805983 10459796
1.1282444 0.5540567 0.040975332 10260868
1.1315384 0.55557108 0.040926099 10326919
1.085639 0.53913093 0.050316334 8682093
1.0921082 0.54266518 0.04598856 9272947
1.0944291 0.54476655 0.046610534 9273205
1.0973614 0.54475397 0.046333909 9207412
1.1006918 0.5459919 0.046263814 9207412
1.1028124 0.54782635 0.045899153 9207670
1.1055295 0.54780734 0.045960546 9076600
1.1078568 0.54740918 0.043670177 9736327
1.1170807 0.55041105 0.04161787 10131347
1.1195034 0.55383748 0.041015744 10196619
1.1216615 0.55326283 0.040338755 10261898
1.1244456 0.55446249 0.040772498 10327438
1.0862484 0.54322207 0.046277761 9207410
1.0878181 0.54281366 0.046066105 9075570
1.0901732 0.54433197 0.046168387 9075825
1.0934026 0.54578596 0.045828581 9141619
1.1017005 0.54804087 0.042891979 9342091
1.1044484 0.55041754 0.041690528 9604743
1.1073436 0.55163908 0.040409565 9932162
1.1089352 0.55185825 0.041023731 9866622
1.115153 0.55394185 0.040200114 9998982
1.0813897 0.54378343 0.046032965 9075570
1.0841545 0.54358029 0.04578501 9010034
1.0871459 0.54568607 0.046163201 9010033
1.0920856 0.54693091 0.042327344 9536631
1.0985401 0.54940295 0.041360974 9341834
1.1019372 0.55112153 0.04196173 9473417
1.1032782 0.5518226 0.040047824 9799540
1.0766072 0.54456258 0.045184314 8878704
1.0795013 0.54396796 0.045510113 8878705
1.0854367 0.54765218 0.042206109 9340281
1.0879692 0.54720896 0.042271316 9339510
1.0939806 0.55041856 0.04000771 9407105
1.0963978 0.55131942 0.040056765 9341060
1.0815446 0.54745686 0.040744364 9275261
1.0841317 0.54770637 0.041179478 9144189
1.0779347 0.54842037 0.040013492 9078146
1.2642187 0.56469798 0.055896282 9734530
1.2668612 0.5647065 0.055263638 9734532
1.2696469 0.56508619 0.05547601 9208960
1.2718558 0.56591952 0.055104256 9274751
1.251735 0.56127834 0.056154311 9998218
1.2547609 0.56202054 0.055539191 10195598
1.2580848 0.56325525 0.054671824 10918548
1.2604938 0.56378061 0.05455476 10458255
1.2630769 0.56442952 0.054552615 10655377
1.2732091 0.56912476 0.053774238 8221811
1.2461953 0.56093478 0.055687308 9800841
1.2480679 0.56146365 0.056286335 9932427
1.25111 0.56221128 0.054868221 10852755
1.253827 0.56374383 0.054374516 11378324
1.256554 0.56403172 0.054577291 11575702
1.2585524 0.5654794 0.055107415 9406080
1.2632098 0.5677923 0.053530335 9931906
1.2725943 0.57081491 0.04864502 10919052
1.2380896 0.56100893 0.055055618 10063754
1.2421668 0.56142271 0.055206895 9998220
1.2445841 0.56149095 0.05537498 9932171
1.2484142 0.5635621 0.053418219 11575450
1.2499627 0.56435728 0.053351402 11707802
1.2604374 0.56880814 0.049510956 12166289
1.2649809 0.57202572 0.04951632 9867908
1.268785 0.57143819 0.049097896 10196595
1.227175 0.55891049 0.055911958 9865861
1.2300973 0.55919671 0.055503249 10063240
1.2327148 0.55959463 0.056241155 9931912
1.2353215 0.5610466 0.055257916 10194826
1.2432436 0.56451386 0.052016199 11378326
1.2467579 0.56478196 0.05262363 11905436
1.2762702 0.57785863 0.04292345 7307407
1.2783234 0.57790685 0.042851985 7636116
1.222909 0.55928129 0.054597616 9997702
1.2252827 0.55841166 0.055060446 10063498
1.236276 0.5642848 0.050417185 11312532
1.2394065 0.564614 0.051121473 11378069
1.2421415 0.56607586 0.04869312 12365212
1.2475119 0.56798017 0.046922326 12761774
1.2509964 0.56954199 0.046536922 13024182
1.2535607 0.57105482 0.046792388 12431009
1.2556558 0.57125235 0.047334611 11443592
1.2575806 0.57096738 0.047119677 11838350
1.2695117 0.57708728 0.043739557 7700623
1.2722872 0.57764494 0.042795181 6648714
1.2744313 0.57798731 0.043096423 7372954
1.2071968 0.55530715 0.055826187 8616296
1.2103478 0.55708206 0.055531859 8879214
1.2135693 0.55685192 0.055089355 9800321
1.2161417 0.557446 0.054852128 9866114
1.2194186 0.55979902 0.054408669 9866113
1.2221701 0.56133068 0.052370191 11313043
1.2240561 0.56116968 0.052189589 11510424
1.2269567 0.56230587 0.051895261 11312018
1.2301732 0.56338686 0.051899672 11312533
1.2327873 0.56357986 0.051069915 11312531
1.2344358 0.56509507 0.051331699 11378325
1.2370368 0.56570935 0.047733486 12233622
1.2428948 0.5689373 0.046930254 12498347
1.2458041 0.56853765 0.047102988 12695981
1.2493548 0.57031357 0.046212971 12694441
1.2513089 0.57147866 0.046062291 12365478
1.2622806 0.57711744 0.042581558 8160140
1.2654015 0.5767675 0.041774273 8685958
1.2679133 0.57677603 0.041936338 7897476
1.1966475 0.55357438 0.055409551 7104355
1.1987526 0.55460846 0.055733442 7104616
1.2011548 0.55467087 0.055905223 7170400
1.2042819 0.55513728 0.056223273 7498332
1.2129786 0.55960363 0.054743171 8682091
1.2179124 0.56111175 0.051285684 11246225
1.220261 0.56218886 0.051915884 11181456
1.2363749 0.56871057 0.046606958 12167829
1.2401266 0.56916404 0.047056019 12300708
1.2436919 0.57151377 0.046295583 12232857
1.2455311 0.57115799 0.046069086 12232857
1.2476139 0.5731653 0.043845952 12364442
1.2498639 0.57395315 0.045248389 12299662
1.2590861 0.57697833 0.042056739 8751758
1.2617024 0.57689416 0.040814221 9342865
1.1869718 0.55107903 0.055556655 6776428
1.1942536 0.55470121 0.054820418 7039338
1.2009037 0.55671579 0.051743865 9733228
1.2055894 0.55949509 0.051428437 9865323
1.2086303 0.55933487 0.051249564 10851458
1.2116513 0.55977231 0.050588608 11312017
1.2130483 0.56254154 0.050738573 10588284
1.2165784 0.56264484 0.050938845 11641232
1.221992 0.56539637 0.046908021 11907236
1.2232442 0.5662545 0.046852231 11970709
1.23334 0.56860757 0.046189547 12298133
1.2361621 0.57117659 0.044846654 12234658
1.2381095 0.57047081 0.044372022 12300718
1.1825979 0.55231798 0.054918587 8354697
1.1851335 0.55166161 0.055255413 7171192
1.1884167 0.55534077 0.053354502 8024691
1.1907583 0.55536842 0.054619789 7762555
1.1962869 0.55763489 0.051621735 7958627
1.1994932 0.55856079 0.051786661 8155495
1.2016288 0.55994672 0.051674604 7892570
1.2035488 0.55969769 0.051494122 8813151
1.210063 0.56310147 0.050653458 9338728
1.2157147 0.56609499 0.046187043 11840937
1.2181935 0.56598496 0.046380877 11839643
1.2213243 0.56650358 0.047032654 11905167
1.2241751 0.56748039 0.045201182 11972525
1.225125 0.56822234 0.044640243 11904916
1.2292713 0.57113504 0.043620348 12298909
1.2316484 0.57099831 0.043608725 12103074
1.2340403 0.57318759 0.041944265 12169385
1.1742663 0.55082875 0.0540694 9340560
1.1801431 0.55330795 0.054535925 9472402
1.1849135 0.5559656 0.051743031 8089981
1.1867927 0.55668497 0.051126122 7827311
1.193347 0.55821216 0.051525354 7762282
1.1943779 0.56065029 0.050149202 7500889
1.2001379 0.56187081 0.048230231 9407356
1.203427 0.56338304 0.047867417 10920066
1.2083 0.56529915 0.046543241 11510175
1.2111225 0.56611395 0.045119047 11839390
1.2142987 0.56621861 0.045817792 11773335
1.2260613 0.57111514 0.042047918 11841195
1.2274811 0.57107937 0.04282999 12037284
1.2335985 0.57225972 0.040521622 12169385
1.1730145 0.55292219 0.052712977 9537936
1.1783409 0.5544073 0.052391469 9669261
1.1804962 0.55491585 0.050727427 8617340
1.1885158 0.5591988 0.049556077 8418686
1.1917466 0.56052434 0.048967659 7565425
1.1939764 0.55966222 0.048795521 8288089
1.1958324 0.56198716 0.04732132 8815209
1.1987654 0.56149554 0.047448337 10854028
1.2020277 0.56304795 0.047039628 11116939
1.2050194 0.56494945 0.045207918 11971726
1.2068973 0.56498808 0.045738399 11840175
1.2096359 0.56732285 0.043997884 11576971
1.2118462 0.5693059 0.044436216 11708846
1.1656431 0.55244374 0.051096201 9537933
1.1715807 0.55426484 0.051677883 9735055
1.1735835 0.55593812 0.049064755 10064785
1.176719 0.55724192 0.050399363 10327188
1.182258 0.55998105 0.049041569 9536912
1.1853518 0.56082338 0.046877861 7693705
1.1896946 0.56203312 0.04689151 8420475
1.1932118 0.56375712 0.044984221 7763816
1.2049123 0.56755477 0.041306496 11510676
1.2090924 0.56802154 0.042459667 12297874
1.1637137 0.55253732 0.051001489 9669262
1.1695887 0.55654329 0.049319983 10194831
1.1724072 0.55647129 0.048477769 9341855
1.1740741 0.55940676 0.048276126 10721175
1.1761006 0.55894452 0.046589494 8620174
1.1835531 0.56111896 0.047173262 8285842
1.1876953 0.56357527 0.045732975 8750204
1.1950725 0.56575507 0.042737782 8221542
1.1969116 0.56539929 0.042511344 9011058
1.2042084 0.57107085 0.041016996 9339741
1.2071033 0.57058942 0.040643036 11639943
1.1627361 0.55564296 0.048119426 9997710
1.1671801 0.55825377 0.047532201 10392466
1.1744432 0.55936992 0.046770275 9933979
1.1795166 0.56259793 0.043862879 6645110
1.182042 0.56314874 0.043591082 7896681
1.1849638 0.56397802 0.043717504 7369832
1.1981944 0.57092386 0.040055931 9077615
1.1536306 0.55385834 0.04833591 9668741
1.1583083 0.55745417 0.047335684 9866118
1.161276 0.55755556 0.046460688 10326411
1.164528 0.55978531 0.045875728 10524565
1.1673335 0.56043041 0.045256376 10722714
1.1702638 0.56094635 0.044354439 9277073
1.1768451 0.56286126 0.043480158 7434629
1.1803735 0.56489503 0.043771327 8816775
1.1431317 0.55267477 0.04764384 9536898
1.1463169 0.55544752 0.047693253 9537153
1.1501579 0.55524015 0.047270834 9734274
1.1525859 0.5570907 0.046256542 10260102
1.1550591 0.55811459 0.046936691 9997189
1.1568685 0.55808777 0.046216726 10391689
1.1608086 0.55936933 0.045319617 10656149
1.1636317 0.56063968 0.044849277 10985371
1.1655465 0.56065351 0.044393301 11312530
1.1679214 0.5637573 0.042376637 10921898
1.1708592 0.56397533 0.043459177 10921128
1.1743459 0.56542295 0.041594028 8882591
1.1375961 0.55297685 0.047520638 9536896
1.1404856 0.55393177 0.046759844 9668224
1.1425271 0.55566072 0.047050834 9734273
1.14552 0.55657959 0.046464145 10128514
1.1485358 0.55625826 0.046159208 9997186
1.1564726 0.56046957 0.043014705 10918024
1.1614861 0.563299 0.042986512 10919576
1.1662643 0.5641827 0.042557418 11250086
1.1722167 0.56524932 0.040294707 8160142
1.1282545 0.5519712 0.046451688 9602686
1.1304712 0.55272597 0.046575129 9668223
1.1334851 0.5548839 0.046465874 9602431
1.1360158 0.5545662 0.04649663 9734273
1.1382837 0.55467772 0.046282113 9996929
1.1440247 0.55838776 0.042388916 10460313
1.1482369 0.55931991 0.042188346 10789026
1.1502883 0.55983996 0.041296482 10720902
1.1530185 0.56120133 0.04117763 10722710
1.1554677 0.56420952 0.041210532 10852228
1.1580117 0.56399667 0.040067315 10723487
1.1182793 0.54989189 0.047355294 9733499
1.1213697 0.55130291 0.047141373 9733756
1.1241021 0.55259538 0.046634436 9536892
1.1269763 0.55242801 0.046438098 9602430
1.129414 0.55529296 0.046497881 9668222
1.1319598 0.55604059 0.045950711 9931392
1.1435251 0.56069392 0.041067958 10591125
1.1464438 0.56071466 0.041554153 10393231
1.1477915 0.56293422 0.041107774 10591898
1.1506989 0.56378227 0.040291667 10722195
1.1089725 0.54897559 0.046561718 9470583
1.1114327 0.55024654 0.046763659 9273465
1.1144737 0.55117816 0.046643496 9404792
1.1172223 0.55262923 0.047100127 9470586
1.119826 0.55346173 0.046109438 9470843
1.1300465 0.55765015 0.041221082 10460573
1.1341022 0.55901408 0.040618658 10328987
1.1392344 0.56142175 0.04020077 10657438
1.141551 0.56065631 0.040594816 10459024
1.0834244 0.5418039 0.050610065 8550251
1.0859396 0.54174531 0.050682724 8747886
1.0970331 0.54712772 0.047003388 9338484
1.0990137 0.54758298 0.046386719 9338739
1.1024234 0.54967165 0.046214998 9141877
1.105716 0.54979765 0.046525776 9338742
1.1080215 0.5510155 0.046651065 9273462
1.1127784 0.55323517 0.046313047 9207672
1.120986 0.55599642 0.041598201 9933709
1.1244199 0.55825806 0.040982902 10195853
1.1272781 0.55814189 0.041348636 10195854
1.1302356 0.55903417 0.040287793 10261642
1.1326323 0.56038129 0.040134013 10195075
1.080359 0.54202998 0.05035305 8550251
1.0822911 0.5449664 0.050480723 8484715
1.0847964 0.54532021 0.050266445 8616556
1.0874711 0.54573715 0.048193932 8878958
1.093901 0.546799 0.047606766 9272947
1.0959271 0.54806632 0.046439171 9076083
1.0986028 0.55009484 0.046390653 9141618
1.1012745 0.55056947 0.046365857 9207411
1.1124313 0.55483866 0.041241765 9671051
1.1147338 0.55662906 0.040877342 9736842
1.117249 0.55725187 0.040674329 10064515
1.1207182 0.55852407 0.040552795 10064521
1.1229858 0.5582006 0.040804863 10195336
1.1245306 0.5605334 0.040293813 10131096
1.0834851 0.5464291 0.046294987 9075568
1.0865686 0.54756635 0.046293378 9075569
1.0897399 0.54910296 0.046081424 9141105
1.0923717 0.5492779 0.045733571 9075824
1.0995424 0.55179447 0.042210221 9276041
1.1026279 0.5533548 0.041766763 9341573
1.1063354 0.55560714 0.040693045 9669246
1.1081289 0.55523401 0.040477931 9735036
1.1103605 0.55654341 0.040557206 9670017
1.1130742 0.55768371 0.040109575 9801081
1.076367 0.54568356 0.046594381 9141360
1.079633 0.54702288 0.046166539 9075823
1.0818125 0.54727644 0.04530561 8878705
1.0859015 0.54997921 0.045562923 8944241
1.0892901 0.55066818 0.042149425 9536373
1.0957427 0.55298787 0.04105103 9274748
1.0994371 0.55473179 0.041451633 9275262
1.1026363 0.55598199 0.040622354 9536890
1.1043992 0.55547053 0.040110946 9471611
1.1069152 0.55772209 0.040314376 9538693
1.0734541 0.54765886 0.045889258 8943981
1.0758927 0.54781008 0.045319319 8878446
1.0779635 0.5478462 0.04529959 8878703
1.0820779 0.55017668 0.042241931 8881023
1.0840597 0.55106848 0.042187214 9405559
1.0874511 0.5510239 0.042375922 9536376
1.089782 0.5528087 0.04062587 9275005
1.092195 0.5540818 0.040876627 9143677
1.094764 0.55443037 0.041215301 8881795
1.0967643 0.55610454 0.040345728 9470063
1.0773911 0.55159837 0.041293621 8881535
1.0806847 0.5508914 0.041287422 9142907
1.0855973 0.55316389 0.040444911 9143932
1.0886028 0.55509788 0.040471613 9013120
1.0710114 0.55064851 0.040389776 9275522
1.0738391 0.55120218 0.040669084 8947074
1.0667595 0.55101997 0.040409863 9208951
1.2706722 0.56717026 0.055583715 8025207
1.2722255 0.56973469 0.056043744 7631999
1.2743269 0.57023644 0.055541873 7565947
1.2656214 0.56777167 0.055438101 8157046
1.2683562 0.56918424 0.054248631 8025461
1.2704779 0.57012498 0.055811524 7829377
1.2720146 0.5723778 0.05397737 9275026
1.248439 0.56402951 0.056859314 8682615
1.2510513 0.56452584 0.05706954 8222322
1.2531612 0.56598943 0.056096971 8946048
1.256879 0.56669402 0.055551648 8288370
1.2589481 0.56754249 0.054682612 9077110
1.2619089 0.56827998 0.055225849 8091250
1.2645965 0.57051986 0.05379498 8353913
1.2721198 0.57256657 0.051178575 9272963
1.2754607 0.5742262 0.052123487 9142922
1.2409459 0.56282353 0.055839121 9800584
1.2442621 0.56511688 0.056336284 8616565
1.2468708 0.56572431 0.055533111 9144959
1.2494973 0.56627578 0.055154562 9801872
1.2533571 0.56810886 0.055947185 6973544
1.2547092 0.5686506 0.054419518 8156265
1.2618643 0.57189542 0.053113461 8353910
1.268514 0.57549965 0.049611807 9668764
1.2703528 0.57514375 0.049385309 9274006
1.232384 0.56204307 0.056904852 9142648
1.2356824 0.56300318 0.056175232 9537408
