# .PCD v0.7 - Point Cloud Data file format
VERSION 0.7
FIELDS x y z rgba
SIZE 4 4 4 4
TYPE F F F U
COUNT 1 1 1 1
WIDTH 1173
HEIGHT 1
VIEWPOINT 0 0 0 1 0 0 0
POINTS 1173
DATA ascii
1.097387 0.59350049 0.046242118 4480112
1.0694306 0.56427443 0.044246256 9275258
1.0730441 0.56842959 0.04411602 9143151
1.0757875 0.5720166 0.04425472 8879461
1.0780609 0.57420635 0.045121789 7958610
1.0801717 0.57591218 0.045478642 7301455
1.0830623 0.58310664 0.044014156 5924424
1.0857307 0.58412969 0.043276012 6646589
1.0872357 0.5859592 0.044424295 4544586
1.0606447 0.55747032 0.042869449 9275259
1.0649261 0.56058788 0.043704689 9472380
1.0663216 0.56367445 0.043624699 8815226
1.0679176 0.56744742 0.04403466 9275257
1.0703349 0.56828332 0.043253481 8946042
1.0719831 0.57102561 0.04319787 8551026
1.0738275 0.57332098 0.043668449 8287343
1.0763927 0.57472545 0.044118583 7958108
1.0798166 0.58045924 0.042488039 7039810
1.0828536 0.58162028 0.042405605 7564345
1.0561557 0.55361563 0.042234778 9209474
1.0569491 0.55653501 0.042366564 9143682
1.0592163 0.5582 0.041953802 8617603
1.0608877 0.56098682 0.042535782 8683392
1.0632243 0.56286323 0.042458236 8551807
1.0645109 0.56557119 0.042106986 8354431
1.0664994 0.56801128 0.041705847 8420222
1.0687268 0.5699774 0.0418998 8157049
1.070817 0.57256448 0.042262793 8025202
1.0741687 0.57750165 0.040917635 8287580
1.0752828 0.57951331 0.041463375 7828039
1.0530103 0.55571723 0.041518152 8551815
1.0554723 0.5570513 0.041746616 8354686
1.0570235 0.55934834 0.041370928 8420482
1.0611063 0.56434417 0.042103112 8354432
1.0669581 0.57131171 0.041769803 7499890
1.0711246 0.5764764 0.03867048 9076844
1.0708628 0.57817346 0.039784789 8813412
1.0513403 0.55627227 0.03895396 9275268
1.0536766 0.5594008 0.038893521 9275268
1.0564866 0.56339663 0.038337111 9340803
1.0604578 0.56798375 0.037494063 9340798
1.0631477 0.57147634 0.037505329 9275261
1.0652615 0.5739249 0.037983954 9209210
1.0671525 0.57495356 0.038504064 9077623
1.0690085 0.57673967 0.038490474 9011569
1.0516922 0.55944443 0.038899124 9275270
1.0529287 0.56327748 0.038243413 9341058
1.0575252 0.56751055 0.037615418 9275265
1.0599496 0.57145619 0.037435055 9341054
1.0632541 0.57409996 0.0377841 9275003
1.1556872 0.61845875 0.069190145 4874115
1.1580321 0.6201902 0.069078863 4808063
1.160758 0.62279105 0.068962157 5924743
1.1623905 0.62564713 0.069779336 5200505
1.1492817 0.61498439 0.068363309 4808061
1.1516401 0.6162439 0.06747818 5070710
1.154263 0.61716515 0.068375528 5005178
1.1643597 0.63078141 0.066856563 5066839
1.1641297 0.63306355 0.067562759 5330268
1.1436796 0.61158663 0.066814542 4742267
1.1470876 0.61315501 0.06670773 4939127
1.1495402 0.61463016 0.066307187 5136239
1.1568025 0.62867022 0.066007555 5140646
1.1586828 0.63067734 0.064891398 5796005
1.1659901 0.63828576 0.064659774 7368548
1.175082 0.64967304 0.061973393 11707533
1.1803071 0.65611005 0.061565161 11641999
1.1835618 0.66084319 0.061941862 11707537
1.1862243 0.66181278 0.062167943 11576212
1.138057 0.60819501 0.065125942 4939122
1.1407949 0.60981965 0.064618766 5333107
1.1435268 0.61159819 0.064405382 5661560
1.1515713 0.62443471 0.063151777 5337505
1.1538053 0.62580973 0.064268947 5074852
1.1570799 0.62853158 0.063600481 4811936
1.1602728 0.63463199 0.06361717 6781095
1.1679463 0.64173627 0.063095391 10458752
1.1687889 0.64460862 0.062526524 11116683
1.1704152 0.64769506 0.062031448 11773842
1.1731157 0.64893675 0.062013566 11707534
1.1747398 0.65338612 0.061757624 11641998
1.1763918 0.65376055 0.06210506 11642000
1.1783899 0.65508211 0.061656833 11641999
1.1790639 0.65947837 0.061716139 11641999
1.181782 0.6603412 0.061965108 11707536
1.1829829 0.66451669 0.062116563 11576207
1.132383 0.60477042 0.063300371 5661555
1.1349311 0.6069293 0.063666999 5530229
1.1367377 0.60760999 0.063755035 5595764
1.1435138 0.61992884 0.06262809 5205919
1.1461642 0.6206255 0.062486231 5074332
1.1482475 0.62288034 0.062901139 5337249
1.1494286 0.62707108 0.061864018 5535151
1.1514751 0.6286363 0.061777055 5337773
1.1537595 0.63091815 0.061830044 5075632
1.1552784 0.63285893 0.061717391 5075117
1.1569189 0.6346522 0.061497211 5600684
1.1722314 0.65312409 0.061504424 11773329
1.1229861 0.59776288 0.063005269 5792631
1.1256552 0.59957433 0.062552154 6252406
1.1280378 0.60212159 0.063818395 5464692
1.1296856 0.60303235 0.062091827 6055541
1.1379987 0.61630428 0.061557293 4942998
1.1409637 0.61786067 0.060835183 4811409
1.1438501 0.61899805 0.060535192 5008268
1.145906 0.62512952 0.059968293 5468842
1.1483154 0.62637556 0.060350716 5534634
1.1505688 0.62938392 0.060368717 5535406
1.1519713 0.63151622 0.060448408 5601202
1.1541508 0.63452137 0.059904754 5140660
1.1621141 0.64230144 0.059823394 6910599
1.1174859 0.59404379 0.061677873 5858934
1.1200421 0.59563339 0.061338723 6055798
1.122614 0.59751529 0.060795546 6121336
1.1254585 0.599675 0.060010254 6121079
1.1309838 0.61059994 0.059469581 5205644
1.1326199 0.61207861 0.059867918 5074063
1.1351779 0.61354756 0.059654415 5073805
1.1383088 0.61553335 0.059618354 5402248
1.1383196 0.62030196 0.06018424 5140647
1.1406313 0.62172753 0.059313357 5074599
1.143397 0.6233393 0.058932662 5074340
1.144958 0.6271643 0.059087634 5929388
1.1462579 0.62840211 0.058201194 5797805
1.1485665 0.63042629 0.058761418 5863602
1.1511263 0.63202405 0.058758318 5535156
1.1557109 0.6390686 0.057933867 5795755
1.1580373 0.64240777 0.057133138 7307176
1.1099188 0.58939755 0.060182273 5399158
1.1116053 0.59023201 0.06018728 5464691
1.113681 0.59187591 0.059741855 5727605
1.1163816 0.59377456 0.059073389 5924725
1.1189668 0.59491962 0.059103847 5530477
1.125084 0.60628182 0.057852268 5993354
1.1279769 0.60834378 0.058021188 5861770
1.1288693 0.60974205 0.059740603 5074063
1.1346557 0.61898398 0.057388842 4811167
1.136646 0.62085879 0.057425082 5140384
1.1388538 0.62283599 0.057199299 5140386
1.1407535 0.62459791 0.056977987 5140386
1.1431043 0.6266225 0.057742953 5600426
1.1548865 0.64300966 0.057333589 6190256
1.1617815 0.65125394 0.056045711 7041667
1.1638991 0.65429622 0.054153681 7764602
1.1696252 0.66043031 0.053301275 12105902
1.1714858 0.66360509 0.053956091 11842730
1.173439 0.6639719 0.053973019 11908522
1.1739045 0.6677047 0.054069459 11908524
1.177081 0.66874087 0.053794146 12039852
1.1777358 0.67263114 0.053726673 11974316
1.1061906 0.58716506 0.058196485 5003887
1.1096647 0.58912152 0.057989776 4937578
1.112191 0.59060931 0.057686388 4871522
1.1157908 0.5998863 0.057425797 5796235
1.1176393 0.60130823 0.056717753 6058380
1.1201768 0.60285008 0.057583332 5730443
1.1231921 0.60536414 0.057086766 6059147
1.1253511 0.6103996 0.056659281 5270940
1.1277375 0.61185771 0.057066321 5204887
1.1292276 0.61480951 0.056120276 5336472
1.1314677 0.61709875 0.056197941 5205659
1.1336324 0.6186589 0.056236565 5008538
1.1352321 0.61984813 0.055322111 5271954
1.157334 0.64945221 0.054756224 7898285
1.1665323 0.66180825 0.051882327 11908782
1.1693122 0.66436064 0.052280068 12303543
1.170699 0.6667639 0.052242994 12369332
1.172305 0.66922355 0.052152455 12501182
1.1748891 0.67146134 0.053125322 12237494
1.17635 0.67370534 0.051258206 12698044
1.1006074 0.583983 0.056296825 4346977
1.1033456 0.58551991 0.056942046 4478050
1.1059135 0.58702046 0.05579859 4345939
1.1105379 0.59625196 0.055565298 5664651
1.1124191 0.59704161 0.055325389 5795721
1.1150973 0.59920287 0.055386961 6189964
1.1191959 0.60814303 0.055074513 5402007
1.1215184 0.60962546 0.054514527 6059161
1.1238401 0.6114248 0.054648042 5796758
1.1265583 0.61344361 0.054804862 5468564
1.1276776 0.61539835 0.055800319 5338014
1.1543232 0.65070391 0.051316917 7502508
1.1633652 0.66023874 0.052561879 7501170
1.1647205 0.66265988 0.050503492 12697789
1.1665808 0.66537827 0.050744891 12434867
1.168462 0.66785192 0.050632656 12697785
1.1705793 0.67086303 0.050521493 12829110
1.1721706 0.67260653 0.050842702 12763319
1.1744446 0.67483175 0.050584674 12763578
1.1756402 0.67802 0.050300062 12829109
1.0910889 0.57719183 0.055885911 4609120
1.0931165 0.57799292 0.055052817 4870222
1.0958877 0.58010519 0.055170238 4542028
1.0982585 0.58203387 0.055713594 4608342
1.1013476 0.59008145 0.054955006 5139081
1.104193 0.59233779 0.053744674 5270153
1.1070168 0.59408855 0.054160357 5467527
1.1087815 0.59492701 0.05508393 5795979
1.1138432 0.60391665 0.052773356 6255766
1.1165578 0.60562766 0.05365032 5927320
1.1178088 0.60827935 0.052898824 5927572
1.1200799 0.61022878 0.052927196 5928338
1.1219109 0.61100578 0.053731084 5994383
1.1535259 0.65207803 0.050921619 6452658
1.1550663 0.65339923 0.048966587 8619174
1.1587837 0.65771675 0.048685253 8817049
1.1610446 0.66129673 0.048727214 10592161
1.1631312 0.66387796 0.049561262 12499897
1.1639053 0.6666258 0.048579693 12697008
1.1659261 0.66879797 0.049524665 12894903
1.1678843 0.67105114 0.050017357 12698030
1.1717206 0.67478001 0.049978793 12697772
1.1736786 0.67858934 0.049860537 12697774
1.085753 0.57327807 0.054561615 5725524
1.0881028 0.57429111 0.053714693 5855303
1.0913293 0.57671845 0.053755641 5197121
1.0940731 0.58446896 0.053052247 4875909
1.097334 0.58675677 0.052724361 4678523
1.0996652 0.58873427 0.053210139 4810117
1.1014792 0.58969635 0.052844524 4612991
1.1064929 0.59840524 0.052614748 5598869
1.1087531 0.60063446 0.052263618 6058904
1.11094 0.60241103 0.052219152 5993110
1.1123884 0.60492837 0.051635563 6059410
1.1140535 0.60661983 0.051752925 5928334
1.1160165 0.60779965 0.050731301 6322320
1.153746 0.65670091 0.048231781 8225711
1.1555809 0.65946865 0.046512008 8815761
1.1595771 0.66375315 0.047070563 8880764
1.161194 0.66504872 0.048262537 11249061
1.1616471 0.66821814 0.047513247 10722963
1.1637536 0.66948622 0.048405886 12303013
1.0812126 0.56984472 0.050924957 8021824
1.0816549 0.57144737 0.052289963 7036213
1.0852765 0.57297921 0.052257657 6905656
1.0893576 0.58119142 0.052309155 4481405
1.0921365 0.58309412 0.052559316 4809852
1.0942644 0.58428699 0.050870538 4414564
1.0967911 0.59099603 0.05108279 5073041
1.0992149 0.5925076 0.050866902 4941198
1.1018379 0.59486514 0.051267147 5270417
1.1031138 0.59720623 0.050772488 5533586
1.1048298 0.59984368 0.05036974 5665426
1.1067002 0.60148716 0.050312042 5797009
1.1086421 0.6026597 0.050723791 5731476
1.1537504 0.66066945 0.046510279 8751018
1.1557605 0.66290486 0.045850098 8947088
1.1570783 0.66585588 0.045692205 8947084
1.1592358 0.66742444 0.046876729 9012094
1.0702353 0.56006217 0.049737155 9403234
1.0733298 0.56440115 0.049976885 9140060
1.074949 0.56540799 0.049856246 9074264
1.0769701 0.56852758 0.050628245 8745041
1.0786171 0.57028878 0.051514328 7758400
1.0840424 0.57803243 0.050138891 5793896
1.0867683 0.57936335 0.050747097 4611945
1.0885824 0.58032531 0.050381482 4480089
1.0892705 0.58494556 0.049268365 4414851
1.0911113 0.5866186 0.050181806 4941454
1.093991 0.58862013 0.049956679 4678279
1.095071 0.59124738 0.049342334 4941708
1.0976267 0.59400207 0.049626768 5270925
1.0993534 0.59588253 0.049493134 5336976
1.101124 0.59698188 0.04878217 5336974
1.1529114 0.6644628 0.045476496 8684954
1.1548929 0.66765666 0.044183254 9472403
1.0587105 0.54984963 0.048968017 9337445
1.0619113 0.5542258 0.049122334 9402983
1.0636027 0.55480969 0.049258649 9468775
1.0648866 0.55815804 0.049504578 9469030
1.0674585 0.55938298 0.049612045 9403236
1.0687366 0.56243551 0.050131977 9337441
1.0711427 0.56481707 0.05024302 9140062
1.0735159 0.56717378 0.050536633 9007956
1.0801331 0.57658762 0.048494399 6843224
1.081749 0.58027858 0.048873901 5728905
1.0843384 0.58162522 0.048197389 4479858
1.0866857 0.58384901 0.049025297 4480646
1.0874683 0.5852803 0.048222959 4612220
1.0895382 0.58870566 0.048154891 5336462
1.0920327 0.58937764 0.048022807 4810375
1.0570863 0.54909337 0.048957288 9337445
1.0573833 0.55226141 0.049124897 9402980
1.0595961 0.55467325 0.049301326 9337444
1.0622571 0.55705392 0.049553931 9337445
1.0660843 0.561463 0.049975812 9337700
1.0757574 0.57405889 0.045612633 8419410
1.0765101 0.57620299 0.047084808 7434066
1.0787988 0.57790893 0.047358572 5923434
1.081442 0.57937521 0.047162235 5398633
1.0819662 0.58313185 0.046464264 5795714
1.0845798 0.5848906 0.046446025 4612215
1.0872688 0.58664751 0.046345234 4283771
1.0704058 0.57317901 0.045354009 8945515
1.0726731 0.57493126 0.04556495 8221795
1.0744075 0.57615232 0.045544326 7235413
1.0783415 0.58175343 0.045037448 6712695
1.0811777 0.58234566 0.04461354 5924952
1.0581639 0.5593648 0.043529749 9275259
1.0595866 0.56211793 0.044158399 9341051
1.0615767 0.56281942 0.043898642 9406842
1.0633336 0.5669626 0.043967426 8946297
1.0654193 0.56911182 0.044866085 9209465
1.067727 0.5712533 0.043228567 8879994
1.0684801 0.57345402 0.043894947 8748147
1.0704284 0.57580507 0.043558955 7564395
1.0740976 0.57865226 0.04484123 5787462
1.0744187 0.58111942 0.043543756 8092002
1.0770493 0.58065534 0.043067694 6711121
1.0518336 0.55588841 0.042620361 9275261
1.0537544 0.55872023 0.042732596 8814974
1.0559431 0.56099844 0.042738557 8551806
1.0575341 0.56278735 0.042770982 8420222
1.059417 0.56541938 0.043100536 8486013
1.0613115 0.56708592 0.042146146 8551553
1.0630727 0.57019842 0.042025864 8420223
1.0646474 0.5721451 0.042024732 8354173
1.0661997 0.57431078 0.042441726 8288121
1.0683188 0.57636577 0.043438673 8484725
1.0708725 0.58079153 0.041579545 8221526
1.050283 0.55768013 0.041831195 8486019
1.0521244 0.55997556 0.042149782 8157315
1.0533218 0.56209385 0.04213959 8946312
1.055882 0.56462038 0.042115271 8551556
1.0577607 0.56794417 0.041784585 8946053
1.0600355 0.56993628 0.042148054 8880262
1.0609294 0.57144475 0.041869223 7631222
1.0673075 0.57912314 0.039749742 8879469
1.0687777 0.58040524 0.040616691 8747882
1.0510163 0.56289828 0.038506091 9340806
1.054625 0.56640494 0.038204849 9275008
1.0582476 0.57127678 0.037461102 9275007
1.0592002 0.57424057 0.03759551 9275004
1.0611137 0.57574666 0.037882984 9209212
1.06341 0.57752001 0.038412571 9142903
1.0645151 0.5790596 0.038819551 9011316
1.0481383 0.56287885 0.03842485 9340806
1.0504025 0.56643021 0.038107395 9340802
1.0522085 0.56677222 0.03793025 9340800
1.0542607 0.57124496 0.03739816 9208959
1.0558097 0.5729506 0.037318528 9143422
1.0572877 0.57386148 0.037858069 9209214
1.0587713 0.57691461 0.037990332 9209212
1.0516307 0.57054234 0.037679791 9209210
1.1580272 0.62123322 0.074013293 5138063
1.1600521 0.62339044 0.073025644 5333899
1.1539751 0.61839491 0.071595132 5203855
1.1578257 0.62047786 0.07197088 4940685
1.1602142 0.62249804 0.071317613 5334154
1.1619411 0.62885976 0.071202278 5201026
1.1464369 0.61387599 0.070112884 5071753
1.1493545 0.61572313 0.07053107 5269133
1.1510499 0.61738455 0.071453333 5335183
1.1635413 0.63502479 0.068736434 5462900
1.1404626 0.61077678 0.06889385 4940424
1.1432767 0.61249375 0.069321454 4940169
1.1457788 0.61331338 0.068658292 4808581
1.1554351 0.62901211 0.068081975 5403822
1.1582549 0.63155961 0.067961156 5730729
1.1349307 0.60712975 0.067323864 4808323
1.1381733 0.60908651 0.068116605 4874116
1.1409202 0.61003071 0.067149043 4611194
1.1492318 0.62429452 0.065561533 5797550
1.1504794 0.62570345 0.066323578 5797809
1.1539402 0.62733877 0.066545784 5535150
1.1569769 0.6351186 0.065049827 6126256
1.1600279 0.63770032 0.065290153 6781095
1.1657037 0.64123499 0.065117538 7697522
1.1637832 0.643929 0.065302014 5856883
1.1763989 0.6579771 0.062075019 11642001
1.1813718 0.66412997 0.062048733 11641744
1.1274471 0.60199481 0.066187978 5071487
1.1303322 0.60406846 0.066430092 5005440
1.1325716 0.60573685 0.066355348 4939904
1.1431365 0.62087214 0.064441383 5600426
1.1450129 0.62199509 0.065218151 5731756
1.1472263 0.62334859 0.065812826 5863344
1.1501665 0.62919128 0.063900054 5535413
1.1522058 0.63169891 0.064380169 5470137
1.1542118 0.63377208 0.064083099 5535926
1.1556163 0.63568699 0.064129174 5929142
1.1595663 0.64100659 0.065216959 7372206
1.1655028 0.64644086 0.064088464 7894907
1.1676669 0.6502161 0.062221885 10787978
1.1696527 0.65216398 0.061445296 11839632
1.1715419 0.65529561 0.06270206 11707794
1.1733555 0.65805572 0.062415659 11641745
1.1749113 0.66023648 0.062785089 11707538
1.1777685 0.66226774 0.062135398 11642000
1.1784569 0.66422546 0.062264025 11641743
1.1800741 0.66659522 0.06238246 11576205
1.1204228 0.59647292 0.064753413 5004921
1.1226629 0.59816432 0.065001428 4939130
1.1253841 0.6002779 0.065173864 5136763
1.1368527 0.61673182 0.063710511 5468840
1.1395887 0.61861312 0.064073205 5534632
1.1410652 0.62036574 0.063553274 5469098
1.1429338 0.62425983 0.063028514 5666483
1.1453705 0.62580669 0.062853992 5798066
1.1472183 0.62804711 0.063427806 5798326
1.1484628 0.63034213 0.06372261 5930168
1.1507998 0.63335663 0.062530577 5995962
1.1531608 0.63433033 0.06170994 5469626
1.1544496 0.63874233 0.060786068 5534648
1.1672214 0.65476251 0.061771691 10590600
1.1690396 0.65537745 0.061962485 11774096
1.1144822 0.59269965 0.064024329 4873591
1.1170363 0.59380549 0.064057648 5004918
1.1195921 0.59600365 0.063280463 5201781
1.1268375 0.60912204 0.062442005 5731492
1.129926 0.61150342 0.062095761 5403042
1.1321497 0.61348552 0.062645078 5402787
1.1347693 0.61511797 0.062715888 5205921
1.1368389 0.62074059 0.061456978 5403566
1.139143 0.62150192 0.062238812 5535153
1.1409855 0.6253463 0.061328292 5995446
1.1430472 0.62793404 0.06091696 6127034
1.1456773 0.62915742 0.061377108 6192827
1.147316 0.63157946 0.062013268 6258620
1.1494298 0.63275564 0.06082648 6192573
1.1086822 0.58913326 0.062389731 5136247
1.1111577 0.59047705 0.062194645 5136501
1.1136404 0.59244126 0.062395275 5267829
1.1193144 0.60319692 0.060561836 4811412
1.1220572 0.60531104 0.060683548 5074071
1.1247771 0.60755652 0.060599685 5533850
1.1266325 0.60966098 0.059670329 5336732
1.1276515 0.61330348 0.060182512 5797546
1.1296062 0.61418831 0.061187685 5337000
1.131597 0.61713278 0.060382783 5665707
1.1335924 0.61968911 0.060087681 5666224
1.1352104 0.62141168 0.060072005 5798066
1.1374092 0.6233201 0.060035229 5863860
1.1399101 0.62528718 0.059885263 5929393
1.1536491 0.64425308 0.059142709 6717378
1.1014076 0.58471012 0.061004281 5004922
1.1039375 0.58600986 0.06079936 5135735
1.1062922 0.58770144 0.061424017 5267576
1.1081882 0.58860415 0.060256958 5464693
1.1120441 0.59871709 0.060210526 5270936
1.1145802 0.59977084 0.059028149 5336464
1.1174394 0.60201138 0.05981791 5008274
1.1240416 0.61212099 0.05897671 6060208
1.1263624 0.61385721 0.05896455 5994670
1.1289165 0.61606848 0.058524251 5534888
1.1305454 0.61783206 0.059064984 5666227
1.1316017 0.61969495 0.059278905 5995698
1.1536539 0.648844 0.055409968 7373498
1.1615309 0.65575552 0.055350602 7107199
1.1690414 0.66804737 0.053077996 12105901
1.1706712 0.67102873 0.053829491 11908523
1.1725496 0.67263526 0.054233968 11908522
1.1744206 0.67461741 0.054441392 11974315
1.0932868 0.57944882 0.059956014 5005179
1.0957932 0.58083165 0.059758067 5070714
1.098277 0.58234608 0.059354722 5004665
1.1005896 0.58397877 0.059589505 4938872
1.1068283 0.59472597 0.057363153 4942220
1.1091317 0.59624153 0.05823791 5073550
1.1120512 0.59817564 0.05811125 5270413
1.1162689 0.60726678 0.058539212 5337260
1.1184839 0.60790539 0.05693239 5205410
1.1202525 0.61085773 0.057775736 5863342
1.1226215 0.61212307 0.057091951 5994664
1.1248925 0.61442399 0.057702065 5929640
1.1665741 0.66952741 0.052287459 12237747
1.1687458 0.67046928 0.052631676 12369079
1.1702002 0.6735819 0.052675545 12369081
1.1724751 0.67560399 0.051979303 12632257
1.1749573 0.67852962 0.051602483 12632255
1.0902133 0.5774135 0.058169365 4939129
1.0930443 0.57915539 0.057653785 5004661
1.0957046 0.58090711 0.057163537 4938607
1.0993992 0.58963001 0.057365477 5073550
1.1023915 0.59106737 0.057659447 5139342
1.1049141 0.59333086 0.056830347 5204876
1.1092057 0.60195029 0.055974841 5270943
1.1113871 0.60293543 0.055842698 5402270
1.1133473 0.60442507 0.05612272 5270942
1.1147087 0.60688221 0.055960476 5271456
1.1171525 0.60942876 0.054785848 5271708
1.1180191 0.61058563 0.056426823 5403557
1.1610084 0.66581649 0.050648093 7041143
1.163722 0.66697812 0.050553262 10263959
1.1648505 0.67023963 0.051426113 11974321
1.1675485 0.67268753 0.05124706 12631996
1.1688302 0.6753242 0.050478637 12697780
1.1708376 0.67761469 0.050697505 12697781
1.1725698 0.67980802 0.050970197 12697781
1.0842326 0.57350039 0.055651784 6185317
1.0871776 0.57548213 0.0576455 5398647
1.0890973 0.57671213 0.055654943 4740197
1.0899342 0.58261538 0.056221724 5270672
1.0919586 0.58377677 0.055619538 5270672
1.0940069 0.58477902 0.056616306 5073550
1.0964779 0.58684361 0.055714428 5139085
1.0994917 0.58903527 0.055466115 5139083
1.1012087 0.59459555 0.05448246 5138837
1.1033695 0.59684092 0.055028737 5204633
1.1056348 0.59842551 0.05555445 5007513
1.10752 0.60143393 0.054177582 5205144
1.109309 0.60410023 0.054385304 5403034
1.111477 0.60594213 0.054745913 5600670
1.1516849 0.65824306 0.050412655 7833026
1.1559578 0.66065526 0.049370348 8621232
1.1602974 0.66764891 0.048686743 10460573
1.1619521 0.66957164 0.050413251 9211018
1.163137 0.67192614 0.049694061 12500148
1.1655136 0.67226255 0.049522758 12960693
1.1658415 0.67613816 0.049490452 12829112
1.1681525 0.67864728 0.050026298 12829109
1.1710558 0.68210316 0.050112128 12894651
1.0810034 0.57294691 0.054793656 8287337
1.0865277 0.57991946 0.054025531 5139087
1.0892088 0.58134675 0.054590881 5204879
1.0933566 0.58930874 0.053679824 5073304
1.0964148 0.59097058 0.05367595 5073046
1.0975158 0.59383923 0.053534091 5139351
1.0995425 0.59624028 0.052986205 5271447
1.1013526 0.59763217 0.053212225 5271447
1.1036255 0.59976083 0.053379297 5336983
1.157784 0.66895139 0.047001004 8947339
1.1597359 0.67087197 0.047422767 9013126
1.1610346 0.67400175 0.047881067 10985626
1.1631109 0.67539215 0.048652351 12631473
1.077816 0.57206964 0.053164065 7561518
1.0809364 0.5780468 0.053329051 6582922
1.0838675 0.57853448 0.053387463 5796244
1.0857083 0.58381766 0.052886188 5139096
1.0882323 0.58588481 0.052012444 5139095
1.0913323 0.58747876 0.052118659 5204630
1.092178 0.59101415 0.051900387 5139604
1.0940082 0.59190214 0.052459002 5271191
1.096031 0.5932855 0.051366091 5402517
1.1542969 0.66719967 0.045466125 8816019
1.1564447 0.6691606 0.045775294 8946309
1.1571748 0.67240596 0.046819985 8552329
1.1588876 0.67520332 0.046471179 8748663
1.0690103 0.5656867 0.050306678 9205856
1.0722234 0.56943667 0.050789237 9073750
1.0743278 0.57071233 0.051467896 8613460
1.0752403 0.57213914 0.052327335 7297860
1.0791854 0.57760894 0.051455438 8225156
1.0807855 0.58015335 0.050701916 5927576
1.083179 0.58180308 0.051474035 5073299
1.0843976 0.58442426 0.050386131 5205397
1.0857391 0.58717656 0.050990999 5402775
1.0884628 0.58878464 0.050985754 5271188
1.0903249 0.59025782 0.051136315 5074326
1.1507655 0.66622865 0.044508576 8619690
1.1519146 0.66857111 0.04411 8882608
1.1538205 0.67144066 0.044434905 8947352
1.15451 0.67425883 0.044529676 9144470
1.1568017 0.67782968 0.044781387 8815234
1.0617547 0.55971569 0.049851775 9337188
1.0640815 0.56228667 0.049946904 9337444
1.0664308 0.56483752 0.050002277 9271650
1.067723 0.56819701 0.05049783 9074013
1.0704601 0.56927562 0.050395906 9007961
1.0708652 0.57225889 0.050968766 9007957
1.0751159 0.57756424 0.04897207 8683092
1.0769708 0.57892203 0.049511969 7568535
1.0805278 0.58363813 0.049438417 5731476
1.0829233 0.58403337 0.048223853 5599378
1.1501698 0.66987979 0.044183969 8619429
1.1522487 0.67239428 0.043418825 9276074
1.0551314 0.55457091 0.049197733 9337442
1.056718 0.55734646 0.049278975 9271393
1.0588135 0.5587815 0.049703717 9271395
1.0595125 0.56263077 0.049556434 9205857
1.0621387 0.56331372 0.049846709 9271651
1.0650049 0.56733429 0.050248802 9205602
1.0714884 0.57721007 0.047519207 7827545
1.0733709 0.57849729 0.047801614 8485989
1.077194 0.58258951 0.04751277 7765899
1.1499834 0.6737535 0.042593479 8817084
1.052207 0.55706209 0.048804581 9337184
1.0539236 0.55738926 0.049212098 9337184
1.0660862 0.5729847 0.044688761 9077362
1.0700531 0.57675231 0.046039641 8418922
1.0713181 0.57842326 0.046488762 8024676
1.0732375 0.58227885 0.045698643 9144180
1.0538031 0.5615617 0.043619514 9209209
1.0572088 0.56539208 0.043791354 9209209
1.0585949 0.56781065 0.044696748 9209209
1.0606053 0.56850588 0.044576883 9209209
1.0621076 0.57267392 0.044397831 9143416
1.0637348 0.57409322 0.044759095 9077364
1.066349 0.57601303 0.044616759 8813938
1.0672621 0.5788793 0.044883847 8484721
1.0708784 0.58244252 0.04411906 7959116
1.0508814 0.56118184 0.043385684 9209465
1.0528445 0.56465793 0.042250633 7631228
1.0544854 0.56571341 0.043044448 8485756
1.0556405 0.56806302 0.043994963 9143416
1.0580308 0.57056689 0.042969167 8288380
1.060692 0.57249808 0.043202043 8946045
1.0618182 0.57574189 0.042035818 8682626
1.0633785 0.57762372 0.042749166 8616573
1.0638607 0.58014131 0.043039918 8682104
1.0685694 0.58270144 0.042643726 8024412
1.0490617 0.56281877 0.042006731 8288900
1.0505295 0.56491864 0.042504728 8551551
1.0526819 0.56792265 0.042239249 8157055
1.0545886 0.569749 0.042452455 8157054
1.055985 0.57218516 0.041944385 8814213
1.0584499 0.57348394 0.041891932 8814213
1.0589772 0.57589787 0.042135775 8813955
1.063313 0.58085966 0.039861202 8945523
1.0653511 0.58385193 0.041125715 8747885
1.0468433 0.56337869 0.041711688 8946056
1.0483489 0.56603825 0.040178299 9011845
1.0510236 0.56876051 0.04176724 8814470
1.0568336 0.576792 0.037981927 9208958
1.0584841 0.57886815 0.038833618 9077367
1.0604496 0.58045542 0.039045513 9011572
1.062061 0.58416849 0.039975107 9011310
1.0445197 0.56636035 0.037890553 9340803
1.0466096 0.56625718 0.038224518 9340803
1.0487728 0.57001883 0.037931144 9143420
1.0508868 0.57407176 0.037586153 9077885
1.0534594 0.57444584 0.037441492 9143422
1.0538704 0.5772754 0.037720621 9143421
1.0555491 0.579018 0.038696527 9077628
1.0580553 0.58154202 0.039228499 9077365
1.0458477 0.5696677 0.038056791 9209473
1.048949 0.57394934 0.037577689 9077886
1.1540741 0.61993241 0.076249957 5401497
1.1565111 0.62084085 0.075504959 5269652
1.1591135 0.62483436 0.075586736 5400724
1.1511555 0.6188603 0.073553383 5532822
1.1533762 0.61923426 0.07484293 5467031
1.1455163 0.61462986 0.072474062 5466514
1.1472858 0.61629915 0.073433518 5466773
1.14942 0.61831731 0.073496819 5467030
1.161495 0.63425696 0.071004212 5530507
1.1381807 0.61006606 0.071127057 5335187
1.1397183 0.61162978 0.07161516 5335444
1.1420777 0.61311233 0.071764946 5335187
1.1554074 0.63035274 0.070386291 5469620
1.1577747 0.63186288 0.071299195 6388150
1.1343071 0.60804665 0.070048153 5269136
1.1365566 0.60930967 0.071116388 5335186
1.1489251 0.6274159 0.068175673 5864117
1.151484 0.62878627 0.068827927 5601205
1.1568205 0.63675618 0.066503823 6848445
1.1566045 0.63819027 0.068029046 7898049
1.1252248 0.60148752 0.068349898 5400717
1.126874 0.6033358 0.068691134 5466511
1.1291565 0.60458803 0.068937421 5400206
1.1319426 0.60668683 0.069028258 5465999
1.14197 0.62130582 0.066454768 5732270
1.1438758 0.62322223 0.067905903 5798323
1.1468768 0.62575668 0.067829549 5798326
1.1497308 0.6311847 0.065434277 5536444
1.1512785 0.63319504 0.066012025 5668290
1.1528409 0.63493806 0.066155553 5668033
1.154578 0.63682914 0.06672734 6192577
1.1755102 0.66373563 0.062887371 11707538
1.1806934 0.67008805 0.062624633 11510415
1.1188091 0.59727621 0.066955686 4874374
1.1214957 0.59859812 0.067599058 4743046
1.1236336 0.60001606 0.067659259 5006216
1.1317413 0.6150049 0.06677717 5600944
1.1336389 0.61613536 0.066120684 5600942
1.1365155 0.61777371 0.065558016 5600686
1.1382216 0.61953568 0.067103088 5666479
1.139698 0.62329656 0.064549506 5600950
1.1416366 0.62530673 0.065594673 5666746
1.1440431 0.62757039 0.06555748 5798586
1.1457109 0.6294409 0.065229356 5601721
1.1471825 0.6315639 0.065644324 5470654
1.1496787 0.63423425 0.065134943 5865152
1.1530184 0.640293 0.064711273 6717387
1.161837 0.64909285 0.063953698 5923211
1.1644195 0.65212655 0.06263715 6776430
1.1695333 0.65877676 0.062182963 11773585
1.1709435 0.66210771 0.062695861 11707792
1.1737149 0.6629892 0.062902153 11707537
1.1743206 0.66717076 0.062783122 11707534
1.177942 0.66870254 0.062750876 11641743
1.1785887 0.67242241 0.062891603 11641744
1.110504 0.59165543 0.065989971 5005440
1.1131284 0.59300989 0.065809309 5005440
1.1165117 0.59543967 0.066280484 4939908
1.1266314 0.61005515 0.064229906 5797545
1.1283872 0.61133194 0.064923763 5732011
1.1310982 0.61396766 0.064822614 5732011
1.135623 0.62181139 0.06377387 5403826
1.137471 0.62382126 0.064111054 5863610
1.1392387 0.62610435 0.06291616 6126783
1.1412184 0.62848127 0.063582838 6061758
1.1440891 0.63105971 0.063123405 6127551
1.1463243 0.63308644 0.06379813 5996479
1.1478808 0.63499177 0.064083755 5996225
1.1541746 0.64376283 0.061690927 7373761
1.1660227 0.6587472 0.061192274 9340537
1.1684821 0.66283447 0.061585188 11839632
1.1716223 0.66691053 0.062235832 11707790
1.1055807 0.58842009 0.06442076 5136767
1.1084708 0.59024334 0.064794183 5005183
1.1107078 0.59084749 0.064136386 4808056
1.1172523 0.60308385 0.062860847 5074335
1.1189233 0.60441393 0.06335485 5008800
1.120991 0.60617781 0.063595414 5469097
1.1235991 0.60833949 0.063774645 5929131
1.1264051 0.6139341 0.062269926 6060983
1.128395 0.61600077 0.062831998 5797813
1.1301605 0.61837864 0.062686026 5863608
1.1325837 0.62065208 0.06259048 5732535
1.1344938 0.62279093 0.062676489 5864121
1.1366253 0.62492418 0.062971652 5995961
1.1390536 0.62720442 0.062812805 6193084
1.1667334 0.66413516 0.060324192 10721671
1.0957668 0.58148259 0.064046502 4873857
1.0983852 0.58315021 0.063701749 4873855
1.100879 0.58466136 0.06336832 4873853
1.1031098 0.58648008 0.06350404 5136254
1.1039745 0.58778286 0.064484179 5202562
1.1098855 0.59806609 0.062857509 5271456
1.1117363 0.59936285 0.062215149 5402529
1.1135328 0.60078633 0.06273067 5140127
1.1153862 0.6019578 0.062153935 5140126
1.1182616 0.60948873 0.061636269 5665718
1.120796 0.61040694 0.060626984 6520251
1.1227639 0.61292005 0.061868906 6191801
1.1253809 0.61449826 0.060566664 6258103
1.1268876 0.6176827 0.060999393 5995957
1.1293976 0.61840755 0.061475396 6127029
1.1618459 0.66245192 0.057602108 6645127
1.164319 0.66400391 0.058489382 7169639
1.0903509 0.5778212 0.062673569 5071231
1.0928923 0.57905543 0.062571347 4808062
1.0953343 0.58048552 0.062313378 4808061
1.0980414 0.582569 0.061616302 4873594
1.102687 0.59299755 0.060466945 5402266
1.1056064 0.59504479 0.060720801 5270936
1.1091957 0.59719491 0.060917079 5336728
1.1130069 0.60586888 0.059955418 5271726
1.1151642 0.60745609 0.060210884 5403055
1.1179268 0.60896719 0.059587896 5731507
1.1180035 0.61288607 0.059749126 5207214
1.1210525 0.61400223 0.05917418 6324403
1.1227938 0.61566365 0.060602367 5930416
1.1635149 0.66785604 0.056880832 6248284
1.1685698 0.67423356 0.053776801 12040108
1.1713666 0.67744488 0.054618418 11974058
1.1742953 0.67805785 0.054611027 11974315
1.0869592 0.57577103 0.060718179 4808572
1.0905334 0.57757998 0.060454607 5070973
1.0918057 0.5842374 0.060311496 5270939
1.0937605 0.58569646 0.05951798 5008280
1.0965121 0.58728945 0.058721304 5073812
1.0982931 0.58965832 0.059745729 5336472
1.1009805 0.59127033 0.060282469 5336472
1.1059394 0.60027695 0.058845997 5205669
1.1074843 0.6015898 0.057712495 5337254
1.1093507 0.60366309 0.058246553 5403050
1.1114483 0.6055702 0.059025526 5271980
1.1129283 0.60818416 0.057469964 5338024
1.1153941 0.60993665 0.058689058 5206696
1.118046 0.61158711 0.05818367 5469867
1.160444 0.66569549 0.055159986 7369110
1.1644424 0.67263973 0.051805913 10790553
1.1659532 0.67431533 0.052660406 12303286
1.1671668 0.67715907 0.053418934 12171696
1.170226 0.67968309 0.051771879 12632255
1.1719642 0.68137312 0.053559542 12237234
1.0839293 0.57437968 0.05916816 5791864
1.0887086 0.58177578 0.05827105 5336469
1.0918522 0.5839054 0.058001161 5073556
1.095896 0.59255111 0.057433426 5336739
1.0981628 0.59351516 0.057359397 5402273
1.1002245 0.5957858 0.057754278 5402019
1.1020917 0.5983777 0.057500303 5402789
1.1038003 0.59959257 0.057113528 5336739
1.1056767 0.60249531 0.056538045 5468834
1.1078185 0.60493314 0.058061182 5272489
1.1104562 0.60641509 0.057133257 5403815
1.1625504 0.67356861 0.050907075 7961710
1.1637468 0.67598891 0.05151844 11711148
1.1651587 0.677459 0.051984906 12566206
1.1673418 0.67973018 0.051360667 12631996
1.1692045 0.68252504 0.051062703 12631987
1.0802901 0.57375938 0.057741106 9076858
1.0833081 0.57905287 0.056174219 4942999
1.0853884 0.58016503 0.057278514 5074583
1.0902677 0.5882045 0.055751443 5204638
1.0930992 0.59000838 0.056394815 5073569
1.0949309 0.5928762 0.055728972 5205151
1.0958822 0.59471303 0.05531323 5337247
1.0983965 0.59649259 0.055668056 5534368
1.1012315 0.59851211 0.055199921 5468574
1.1489997 0.66241628 0.050249398 7504311
1.1605723 0.67436683 0.04960978 9737104
1.1621178 0.67735958 0.050183356 11052703
1.1644542 0.67925715 0.050211847 12697783
1.1659384 0.68212801 0.049894869 12697774
1.1664058 0.68310088 0.049905241 12763068
1.1682847 0.68549567 0.050594628 12828858
1.0763628 0.57368243 0.054162562 7758645
1.0772175 0.57397854 0.055862844 9206362
1.0808836 0.58008879 0.05532217 5204370
1.0834095 0.58218539 0.054580629 5008027
1.085048 0.58443803 0.055084229 5205148
1.0871043 0.58702147 0.054730713 5139355
1.0888826 0.58838832 0.054554999 5139357
1.0909541 0.59148365 0.05436486 5336990
1.0939059 0.59299779 0.054095805 5271197
1.1582882 0.67638648 0.048267841 8816014
1.160368 0.67861468 0.048276722 9472896
1.162658 0.68105388 0.048502743 12565680
1.1625518 0.68426037 0.048301697 12302758
1.0746936 0.57418454 0.053355515 7166518
1.0740846 0.57615197 0.054389358 7430195
1.0777073 0.57925057 0.053553224 7634575
1.0798092 0.58045363 0.053849995 4679316
1.0829178 0.58641362 0.052764177 5403037
1.085674 0.58799833 0.052788973 5402524
1.1489365 0.66839719 0.045514882 8226485
1.1489902 0.66965342 0.045776904 8095432
1.1545134 0.67410558 0.045988739 8486539
1.15624 0.67696118 0.046770751 8289678
1.1583519 0.67966378 0.046495378 8814200
1.1606115 0.68188405 0.047192991 9736575
1.0680805 0.57145751 0.050839424 9073753
1.0721647 0.57521272 0.052721083 7824197
1.0753371 0.57955825 0.051548898 8554133
1.0772408 0.58351552 0.05110532 5993095
1.0799519 0.58462268 0.05199784 4811668
1.1474679 0.67247665 0.045050442 7766185
1.1507795 0.67371434 0.044621348 8552856
1.1531553 0.67668569 0.045478046 8618124
1.1540396 0.67898333 0.044496357 8553109
1.1557968 0.67945975 0.045643568 8813692
1.1572298 0.68368316 0.044583023 8354673
1.0599743 0.56544483 0.050185084 9205600
1.062657 0.56656748 0.050092995 9271393
1.0645587 0.57088476 0.050184131 9073757
1.0660496 0.57261479 0.0506863 9073754
1.0684105 0.57449096 0.051282346 9073752
1.0722942 0.57980299 0.050352871 8880500
1.0753791 0.58319736 0.050111353 8752014
1.1494898 0.6760596 0.044269204 8421275
1.1511042 0.67762804 0.043011665 8684708
1.1514366 0.67969257 0.043357909 9077913
1.1535013 0.68132591 0.044415772 9142917
1.0533034 0.56007934 0.049492598 9205600
1.0560906 0.56125343 0.049494803 9205600
1.0567987 0.56450534 0.050035298 9139808
1.0601959 0.56972146 0.049804389 9205598
1.0627636 0.57013845 0.050198853 9205343
1.0703807 0.58006775 0.048289597 7827542
1.0721246 0.58331203 0.048624694 9209980
1.1477623 0.67745066 0.04272294 8094653
1.149241 0.68075418 0.042723894 8618922
1.1514847 0.68283188 0.041271687 8357541
1.1538529 0.68523157 0.042104363 8947597
1.0515997 0.56012166 0.049027979 9205599
1.0542352 0.56394851 0.049526751 9205601
1.064889 0.57822728 0.045595109 9077102
1.0663717 0.58118385 0.046152413 8945519
1.0676186 0.58192897 0.047171354 7629664
1.0699221 0.58352524 0.045915782 8156752
1.1490221 0.68567514 0.039324462 7832739
1.0528088 0.56737953 0.044092298 9011833
1.0560827 0.57142937 0.044078529 9143415
1.0597001 0.57523757 0.044504583 9143155
1.061453 0.57490402 0.045020759 9143156
1.0619173 0.57824981 0.045064509 9077361
1.064739 0.58152747 0.044736922 8682100
1.0474565 0.56402409 0.043224156 9209468
1.0487452 0.56712198 0.043601453 9077883
1.0506657 0.56767154 0.043130577 8288635
1.0527291 0.57093978 0.043473721 8485750
1.0536211 0.57453513 0.044002414 9077621
1.0567274 0.57531118 0.043487608 8946041
1.0586801 0.57859445 0.043406487 8945530
1.0610266 0.57979047 0.042401135 8682365
1.0620248 0.58257449 0.044094622 8879478
1.0660853 0.58586216 0.043968141 7827807
1.0451498 0.56525064 0.042172492 8551808
1.0474849 0.56828964 0.042334855 8223100
1.0487781 0.56965029 0.042635024 8946305
1.0506757 0.57162464 0.042140782 8551552
1.0528314 0.57381159 0.042118907 8748420
1.0543196 0.57677335 0.041924596 8748417
1.0557071 0.57933664 0.0421924 8748161
1.058774 0.58176142 0.04220885 8748161
1.0601337 0.58454072 0.039843738 9077361
1.062654 0.58626521 0.040982127 9011306
1.0636172 0.58796024 0.042275071 8485483
1.0435179 0.56697243 0.041532874 8814214
1.0454016 0.56882644 0.041875899 8157054
1.0479405 0.57191038 0.041950643 8419969
1.0501046 0.57412696 0.042137563 8748677
1.0552223 0.58137083 0.03931278 9077626
1.0576837 0.58454466 0.039486468 9077620
1.0594716 0.58714664 0.040269673 9077358
1.0440785 0.56966043 0.037957132 9209474
1.0451202 0.57353818 0.037546456 9143680
1.0469882 0.57395804 0.037363708 9077887
1.0493643 0.57713711 0.037550032 9077886
1.0512743 0.57957077 0.038236499 9077628
1.0523121 0.5818727 0.039008796 9077369
1.0548191 0.584943 0.039135456 9077368
1.0416358 0.57158476 0.037683308 9143683
1.0432076 0.57315898 0.037809074 9143681
1.04533 0.5773825 0.037255824 9143680
1.0480734 0.57917821 0.038293302 9077886
1.1535571 0.62047505 0.078066111 5204637
1.1558172 0.6223368 0.078676283 5598108
1.149732 0.61971247 0.076755166 5335966
1.1521465 0.62078881 0.077499092 5335967
1.1441891 0.6164676 0.074429631 5401498
1.1465766 0.61802447 0.075329721 5336220
1.1491542 0.6190474 0.075355947 5401756
1.1365633 0.61070454 0.073370337 5204375
1.1383789 0.61298704 0.073873222 5204377
1.1411018 0.6147061 0.073622823 5401239
1.1425205 0.61575222 0.074498773 5401499
1.1540318 0.63149488 0.071042776 5601467
1.1549786 0.63393033 0.07265687 7044790
1.1594901 0.63799977 0.07060349 6253721
1.1293831 0.60603166 0.072520435 5269397
1.131405 0.60776794 0.071872413 5335445
1.1336927 0.60902309 0.072809577 5204119
1.1486442 0.62889707 0.069640934 5601977
1.1492527 0.63074028 0.07084918 5733053
1.1519698 0.63195616 0.071543097 6060730
1.1574486 0.63813001 0.069405198 7372726
1.1225926 0.60255575 0.071857095 4940690
1.1252861 0.60422134 0.07142967 5269654
1.1281091 0.60579264 0.071122348 5334932
1.1390443 0.62123144 0.068631232 5864117
1.1400101 0.62248993 0.069523096 5929911
1.1425424 0.62463289 0.06919992 5732790
1.1436081 0.62626255 0.069831312 5404600
1.1460626 0.62920332 0.070246041 5405115
1.1524709 0.63633549 0.067692697 6323657
1.1536858 0.63836974 0.068481088 7307709
1.1544851 0.63996196 0.069203377 8160435
1.117301 0.59818959 0.069630206 4809101
1.1203897 0.59988976 0.0697487 4677772
1.1232135 0.60217535 0.069889903 5137812
1.12481 0.60331345 0.069563806 5466517
1.1327541 0.61727732 0.068636715 5469875
1.1352671 0.61921412 0.068199933 5404082
1.137096 0.62061417 0.068745494 5601204
1.1392946 0.62395024 0.066496909 5863611
1.1399627 0.62570655 0.067156196 5798591
1.1441569 0.63110477 0.066709697 5471170
1.1473334 0.63288081 0.066931963 5470915
1.1480311 0.63584536 0.06692481 5668297
1.1497782 0.63762188 0.067222893 6520776
1.1510042 0.64032102 0.06727767 6979005
1.1770219 0.67199481 0.062744021 11707793
1.1100025 0.59244263 0.067814529 5137034
1.1125183 0.59454525 0.068380117 5071755
1.1149135 0.59630406 0.069055498 5006221
1.1239319 0.60981596 0.066616356 5535405
1.1253754 0.61177003 0.067039907 5338286
1.1281106 0.61320615 0.067442775 5404079
1.1297247 0.61470556 0.067881048 5338545
1.1302683 0.61806917 0.067270219 5404342
1.1321502 0.62125152 0.066491663 5338807
1.134842 0.62354684 0.066199541 6061758
1.1371355 0.62511504 0.066362798 6455493
1.1384236 0.62815452 0.06607002 6258886
1.1404512 0.62972295 0.066117167 5799108
1.1422682 0.63174218 0.065356493 5799619
1.1435928 0.63459134 0.065522134 5668296
1.1466224 0.63644636 0.065747857 5865161
1.1475646 0.63829553 0.067351103 6783948
1.1520519 0.64388239 0.065654099 6913717
1.1699212 0.66682756 0.061836898 11708305
1.1722074 0.66994363 0.062820375 11707532
1.1751251 0.67096078 0.062975466 11707537
1.1755996 0.67475319 0.063108861 11641999
1.0998932 0.58535868 0.067477047 5268619
1.1024456 0.58713603 0.06703949 5333898
1.1049688 0.58894277 0.067573011 5202569
1.1073442 0.59077108 0.067366242 5137033
1.1158314 0.60409892 0.065688014 5074855
1.1175866 0.60548675 0.066136539 4615591
1.1202853 0.60764158 0.066337943 5009319
1.1221496 0.60943919 0.066573918 5273001
1.1260875 0.61497688 0.064347088 5732278
1.1273417 0.6171608 0.065571368 5535416
1.1299047 0.61948305 0.064939201 5601209
1.1309758 0.62197137 0.064405918 5601722
1.1330003 0.62396497 0.064984858 5864384
1.1354057 0.62630296 0.065076172 6653635
1.1378981 0.6281811 0.064490855 6982080
1.1386697 0.63099885 0.065038681 7113664
1.1404972 0.63334918 0.065137565 5865667
1.1425369 0.63653028 0.063715994 5668802
1.1440603 0.6374203 0.065356612 5800138
1.1685187 0.66874802 0.06174469 11708045
1.172861 0.67389643 0.06272006 11707535
1.0927083 0.58013403 0.066615462 5268362
1.0952955 0.58176243 0.06627351 5202569
1.0980405 0.58340341 0.066660106 5202568
1.1004963 0.58485937 0.065435708 5137028
1.107749 0.59850109 0.06483382 5337256
1.1107409 0.5997864 0.064203143 5009318
1.1121962 0.60185903 0.065512359 5074858
1.1149914 0.60336268 0.064848483 4746403
1.1182657 0.61062157 0.063187599 5271735
1.119526 0.61187458 0.063702464 5666746
1.1217995 0.61376345 0.064097345 5732283
1.1234647 0.61500508 0.064194918 5732281
1.1245549 0.61870229 0.063590407 5667770
1.1274009 0.6199832 0.063946366 5733562
1.1655978 0.66813511 0.059771955 9471346
1.1661644 0.67100084 0.0604949 10852995
1.086831 0.57674301 0.064785302 5268617
1.0897185 0.57826722 0.064538002 5268614
1.0922967 0.57917923 0.064809561 5137029
1.0941058 0.58039153 0.064312637 4939652
1.1006718 0.5927186 0.06275171 5336995
1.102429 0.59393269 0.06347841 5336995
1.1053666 0.59645164 0.063374877 5140386
1.1070154 0.59780204 0.063908815 5337509
1.1121722 0.60673523 0.061867893 5074864
1.1139474 0.608518 0.062688589 5140661
1.1164858 0.60982919 0.062733173 5074612
1.1177613 0.61448032 0.061428308 5404338
1.1199064 0.6156193 0.061844647 5667762
1.1228005 0.61712086 0.06223917 5536435
1.1616256 0.66644639 0.05730933 6709626
1.1636817 0.67110455 0.058501601 7168851
1.0837969 0.57491732 0.062787592 5135741
1.0860548 0.57598984 0.063530266 5005444
1.091408 0.58518684 0.061984956 5534113
1.0934706 0.5867033 0.062286973 5402531
1.0953692 0.58822083 0.061682999 5468064
1.0976272 0.59050846 0.062407672 5533857
1.0987716 0.59171319 0.063342631 5336995
1.1020129 0.59910655 0.061406493 5205678
1.1044115 0.60112369 0.060823083 5205678
1.106853 0.60250545 0.060777724 5074864
1.1086576 0.60528684 0.060684204 5206449
1.1095831 0.60741508 0.061358035 5666741
1.1122442 0.60992265 0.060710132 5535667
1.1149632 0.6117813 0.060573697 5075632
1.1157687 0.61390406 0.061622441 5864378
1.1493279 0.65725464 0.056841016 6847922
1.1612663 0.67103606 0.056633949 6380912
1.162748 0.67389596 0.057616353 6247494
1.1680173 0.68012607 0.054832101 11908521
1.1697614 0.68207729 0.054985106 11908519
1.0804121 0.57428956 0.06110841 8157825
1.0821444 0.57441151 0.061504662 6317688
1.0854813 0.58094841 0.060875714 5468573
1.0880065 0.58232349 0.061068177 5468574
1.0897382 0.58379418 0.061523736 5468575
1.0953462 0.59306896 0.059432089 5468329
1.0969731 0.59473032 0.060483575 5337258
1.0985823 0.59705758 0.060368836 5403051
1.1012424 0.59858453 0.059868753 5403049
1.1025388 0.60119367 0.060062468 5535148
1.1048692 0.60354483 0.060397863 5601199
1.106981 0.60542703 0.060100734 5469875
1.1585855 0.67161214 0.053975046 7762571
1.1597334 0.67328155 0.054882288 7499393
1.1640583 0.67864764 0.052770138 11119518
1.1658275 0.68103385 0.053904355 12039851
1.1675297 0.68321443 0.053227127 12237493
1.1697186 0.68563116 0.052322388 12500671
1.0786672 0.57429576 0.060576737 8945533
1.0815716 0.57990235 0.059433699 5335963
1.0838435 0.58172929 0.059253752 5468064
1.085237 0.58467364 0.058953345 5402533
1.0879225 0.58703077 0.058855653 5468072
1.0901172 0.58936065 0.058876097 5468072
1.0920246 0.59064496 0.059274018 5402537
1.093164 0.59278274 0.058891714 5534122
1.0949757 0.59578085 0.058335841 5600424
1.0978985 0.59779942 0.05823034 5600936
1.0997856 0.59843516 0.05769664 5469093
1.1488324 0.66314423 0.053166986 7503799
1.1560717 0.67452157 0.052968085 7697289
1.1620765 0.67988014 0.051540196 8487534
1.163918 0.68232399 0.052058339 12039859
1.1663039 0.68619764 0.050890863 12697527
1.1681688 0.6877712 0.051283836 12697526
1.0759774 0.57591414 0.058662415 9141105
1.078739 0.57924676 0.058137596 6715537
1.0805421 0.58071929 0.057629049 5270426
1.0821662 0.58271813 0.058004379 5402273
1.0860258 0.58538163 0.056771159 5270945
1.0847843 0.58918536 0.056762278 5600421
1.0873137 0.59049016 0.056617141 5731494
1.0898439 0.59260112 0.057604134 5731497
1.0922587 0.59343791 0.056215465 5534115
1.1590322 0.67945439 0.049319506 10131351
1.1601982 0.68187827 0.049999774 10525849
1.1625965 0.68410486 0.050630867 11644327
1.1642671 0.68657959 0.0496912 12763316
1.1662335 0.68879586 0.050646007 12697524
1.073535 0.57732701 0.055737376 8285512
1.0766521 0.58027124 0.056413114 6583692
1.0791656 0.58080626 0.056069553 4810907
1.0793482 0.58656049 0.056224585 5206691
1.0818249 0.58670539 0.055392385 5534370
1.0838792 0.58844793 0.056075156 5534371
1.1568213 0.68040997 0.048230052 8158344
1.1578269 0.68346173 0.048098266 8814463
1.160092 0.68616217 0.047528684 10854545
1.1619904 0.68800461 0.048763096 12499886
1.164212 0.69042778 0.049189091 12631982
1.0706457 0.57696521 0.052567005 7889998
1.0725613 0.57903767 0.053630173 8287595
1.0740243 0.58076489 0.054143488 8488070
1.0762688 0.5850457 0.05360353 5862034
1.0783093 0.58547616 0.054576159 5402268
1.1539143 0.67992222 0.046367943 8420742
1.1547636 0.68220013 0.046797216 8158091
1.1561373 0.684053 0.048299491 8486535
1.1575322 0.68755454 0.047463059 9406081
1.159909 0.69009012 0.046726823 9934209
1.0669479 0.576653 0.051805735 9205336
1.0690358 0.57818717 0.052927375 8087119
1.0708667 0.5816431 0.052418709 8355194
1.0728389 0.58243304 0.051414371 9078910
1.0742005 0.58499718 0.052294016 6978436
1.1452816 0.67360437 0.047207654 6519216
1.1470573 0.6762172 0.045346677 7634350
1.1491649 0.67889607 0.044512987 8421015
1.150615 0.68158567 0.044562638 8486794
1.1521486 0.68345845 0.045297265 8289679
1.1548865 0.68654788 0.045134783 8879995
1.1579983 0.68842423 0.04514432 8025438
1.1576235 0.6914556 0.045761704 8157028
1.0613295 0.5724647 0.050653756 9205343
1.0629284 0.57492995 0.051005602 9139804
1.0649436 0.57814819 0.05130589 9205337
1.0665609 0.57941127 0.05205518 8942168
1.0692842 0.58202702 0.050341904 7959394
1.0706725 0.58458781 0.051467955 8223860
1.1459273 0.67697918 0.044329166 7437481
1.1466343 0.68033957 0.043706238 7896748
1.1496313 0.68286371 0.043737292 8749208
1.1509545 0.68538404 0.044179499 9143178
1.154624 0.68984765 0.042731345 8946556
1.0508059 0.56294692 0.049268186 9139808
1.0525668 0.5632332 0.049595892 9205600
1.0530005 0.56703794 0.049449623 9205344
1.0559011 0.56883723 0.049903989 9205343
1.0576017 0.57155287 0.050120831 9139808
1.0589901 0.57495272 0.050461113 9205600
1.0664696 0.58330494 0.049128413 7498592
1.0686014 0.58504045 0.048499942 7959387
1.1468006 0.68484956 0.042402208 8159413
1.1510632 0.68734348 0.040601969 8226464
1.1520563 0.69148445 0.041533291 9012877
1.048053 0.5640794 0.048790216 9205344
1.0495794 0.56620681 0.048982799 9205344
1.0531321 0.5698545 0.050019324 9205599
1.0650904 0.584746 0.046496272 8419431
1.1465664 0.6895262 0.038994253 6519980
1.1485012 0.69046545 0.039647162 7504048
1.0569277 0.57795268 0.04445672 9077365
1.0603056 0.582165 0.044291914 9142897
1.0616632 0.58507627 0.044615149 8879733
1.0633574 0.58588505 0.045535803 8222062
1.0653837 0.58895016 0.045315206 7762003
1.0462035 0.57003045 0.043456852 9077884
1.0498425 0.57392907 0.043597698 9077624
1.05165 0.57404923 0.043911278 9077624
1.0539354 0.57793319 0.043998778 9077618
1.0563321 0.58160377 0.044132233 9077366
