# .PCD v0.7 - Point Cloud Data file format
VERSION 0.7
FIELDS x y z rgba
SIZE 4 4 4 4
TYPE F F F U
COUNT 1 1 1 1
WIDTH 1174
HEIGHT 1
VIEWPOINT 0 0 0 1 0 0 0
POINTS 1174
DATA ascii
1.0903604 0.62224019 0.044470802 2695690
1.0915742 0.6250459 0.043276981 5982019
1.0937365 0.62954074 0.042365864 4602889
1.0954376 0.63090777 0.042875126 4866595
1.096089 0.63352245 0.042386547 6117173
1.0986992 0.63599765 0.041415825 6379083
1.1005511 0.6382041 0.040263847 7430223
1.1021293 0.64037001 0.040584281 6904646
1.0707279 0.59748966 0.049086295 4800036
1.0731213 0.59840107 0.048660718 6181412
1.0751338 0.60399342 0.047071598 1907456
1.0803881 0.61304718 0.0467356 1185280
1.0849016 0.62106752 0.043309942 2957581
1.0867314 0.62118572 0.043844 3813394
1.0897267 0.62494934 0.042784527 4073752
1.0932047 0.62937033 0.040983394 7037506
1.0684124 0.59609914 0.048770629 4340257
1.0749251 0.60902178 0.044834636 3682080
1.0765464 0.61209172 0.044278577 2826496
1.0779277 0.61363119 0.044581845 3024908
1.080587 0.61640978 0.044457987 1776648
1.0811384 0.61894614 0.043003276 2958080
1.0827034 0.62072027 0.042297378 2826754
1.069998 0.60692888 0.043295763 4339210
1.0717924 0.60911864 0.044338606 2498311
1.0740831 0.6124593 0.044547878 1512718
1.0647066 0.60340035 0.044282459 4339471
1.0675213 0.60467643 0.04396566 4603653
1.0684689 0.60838532 0.044477187 2496778
1.0616691 0.60319275 0.042498969 5129728
1.0632478 0.60298634 0.042312406 5656066
1.0586728 0.60060769 0.041494332 7233564
1.0601763 0.60193801 0.041918837 6510601
1.0597762 0.60469919 0.042716049 2171392
1.0359892 0.57154322 0.047252446 8549211
1.0386074 0.57615441 0.046192549 8614744
1.0455935 0.58684498 0.043263398 8483665
1.0467708 0.59087467 0.043945991 8021575
1.048017 0.59168845 0.042994224 8482884
1.0505586 0.59307325 0.043016873 8417345
1.0556307 0.60140753 0.040327393 6708268
1.0570008 0.60430157 0.041565143 4340248
1.0305527 0.56889993 0.047533542 8549191
1.0326321 0.56987441 0.047363788 8614991
1.0362316 0.5752213 0.046576649 8549208
1.0366193 0.5780139 0.046606563 8746837
1.0390127 0.57892537 0.046180986 8680790
1.040414 0.58397382 0.043772899 8614732
1.0421611 0.58563399 0.04333248 8548944
1.0438566 0.58680409 0.043512307 8220493
1.0453739 0.59016395 0.042639755 8482901
1.051142 0.59683126 0.04063537 8286789
1.0524309 0.60196072 0.040669344 6380032
1.0542256 0.60390395 0.040414356 3549952
1.0290598 0.56779277 0.047057062 8549460
1.0284833 0.57106501 0.046547502 8483661
1.0311517 0.57484889 0.046182781 8680779
1.0335767 0.57583922 0.045669049 8483162
1.0346174 0.5793283 0.042416602 8549453
1.0359561 0.58254063 0.042992257 8548433
1.0380312 0.58380717 0.042728208 8483147
1.0389963 0.58583671 0.042437814 8483402
1.0270507 0.5693531 0.045749754 8746579
1.0274446 0.57278454 0.042554408 8746574
1.0313925 0.57687831 0.042811781 8549199
1.0324438 0.58009988 0.042215675 8548176
1.0344198 0.58218157 0.042359263 8482893
1.0362637 0.58554912 0.042392932 8680281
1.0240357 0.57123864 0.043664604 8614727
1.0258152 0.57262594 0.042367846 8746316
1.0272352 0.57592881 0.041664571 8548939
1.0287421 0.57898682 0.041958421 8548432
1.0306093 0.58118582 0.042275697 8680009
1.0309955 0.58352315 0.041699201 8482634
1.0223995 0.57266432 0.04324916 8549195
1.0229048 0.57541448 0.042205781 8614731
1.0251787 0.57704753 0.041532785 8614990
1.0266517 0.57984316 0.04135862 8680276
1.0979998 0.60126424 0.063871577 2038023
1.1365478 0.66133648 0.046153493 8614759
1.1396089 0.66616821 0.045166202 8286307
1.1355482 0.66408378 0.045136042 8352090
1.1378747 0.66688967 0.04555995 8352102
1.1394479 0.66887033 0.045372315 8285791
1.092 0.60317206 0.060085788 2038031
1.1293794 0.65749729 0.045963414 8155226
1.1299556 0.66135323 0.045396574 8286556
1.1320516 0.66309249 0.045094915 8221014
1.1337854 0.66563618 0.044901974 8155463
1.134388 0.66953349 0.044324644 8155981
1.1359226 0.66974956 0.04305435 8417880
1.0902705 0.6028865 0.060345188 1906445
1.1235217 0.6577583 0.045149215 7957592
1.1262239 0.65921259 0.045093305 8088923
1.1282933 0.66066092 0.045656033 8154718
1.1289409 0.66354394 0.041890629 8286029
1.132848 0.6684339 0.041995533 8351820
1.1337032 0.67232001 0.04209394 8484167
1.1356156 0.67273414 0.041844912 8549960
1.0871109 0.6037274 0.057358399 2169096
1.0896751 0.60423684 0.056974426 1643264
1.0940871 0.61360598 0.05599542 1182464
1.0972574 0.61610818 0.054946914 2499606
1.1206691 0.65205073 0.044633456 8154722
1.1204054 0.65549767 0.044165201 8088671
1.1225265 0.65672505 0.044302888 8023126
1.1267451 0.6655404 0.0403964 8088649
1.1287984 0.66726857 0.040906437 8417106
1.1293882 0.66988564 0.040511139 8483404
1.0845464 0.60321796 0.057742313 2234641
1.0849624 0.60398597 0.054864421 1906193
1.1081623 0.64241391 0.045934036 7760725
1.1105874 0.6434043 0.045420304 7760470
1.1120473 0.6457594 0.044988826 7826263
1.113492 0.6481486 0.04441233 7826262
1.1151829 0.65122598 0.043821529 7892048
1.118085 0.65362656 0.043134399 8022866
1.1180454 0.65650851 0.042996414 7957070
1.1202524 0.65736425 0.042038567 7957835
1.1216971 0.66114259 0.041438766 7892041
1.1231034 0.6648407 0.040904947 8221254
1.1252016 0.66550648 0.0400405 8220485
1.1256385 0.66934782 0.040024824 8220991
1.0791507 0.60205507 0.055337027 1906698
1.0815457 0.60327429 0.055414215 2038032
1.0822275 0.60521829 0.055470362 2169365
1.0846188 0.60819381 0.054245368 1906183
1.0864406 0.61122215 0.05146499 1708544
1.0863975 0.61210078 0.052916303 1840645
1.0877945 0.61444485 0.051318303 1839130
1.0905428 0.61910194 0.050289586 1512719
1.0921278 0.61983055 0.049978152 986374
1.1020297 0.63623822 0.045356169 7892844
1.1028481 0.63708669 0.045983151 8484730
1.1044457 0.64028388 0.045551315 7037267
1.1066304 0.64132482 0.045431629 7563344
1.1078213 0.64589733 0.045413986 7760214
1.1093237 0.64711976 0.043643668 7694413
1.1123618 0.65129274 0.044156745 7563079
1.1151971 0.65523893 0.042692848 7957328
1.1166857 0.65542257 0.04117889 7957067
1.1171403 0.65973824 0.04140497 7694152
1.0764011 0.59887266 0.056437694 1971971
1.0777551 0.60112965 0.054264203 2104325
1.0803405 0.60424149 0.052588001 1840904
1.0889934 0.6180346 0.049828604 1708050
1.0889871 0.62095797 0.047934905 2170143
1.0983312 0.63245624 0.045523897 6314557
1.1004974 0.63559198 0.045646921 8024942
1.1034374 0.64192683 0.042615965 6641241
1.1056798 0.64620584 0.042655542 7365706
1.1102551 0.65351433 0.040412322 7562816
1.1143888 0.65817702 0.040270284 7957320
1.0700362 0.59666532 0.055132054 1841680
1.0724295 0.59757668 0.054706536 1709579
1.0746428 0.59926879 0.052590393 1314051
1.0804 0.61164951 0.050365582 1841676
1.0810651 0.61465979 0.049555376 2235136
1.0873483 0.62132645 0.04813166 1973269
1.0909983 0.62446058 0.046232656 1117440
1.0929409 0.62955004 0.045359209 2300928
1.0933219 0.63184988 0.045342579 2433821
1.096523 0.63694942 0.041923478 6840670
1.0987387 0.63999528 0.042536512 4603696
1.1006675 0.64117426 0.042557612 5590317
1.1020896 0.64498591 0.042433098 5326376
1.1070375 0.65266311 0.040143088 7365953
1.0692843 0.5961464 0.052130423 1381124
1.0787086 0.61193556 0.050583199 1973262
1.0798074 0.61361521 0.047518209 1906953
1.085227 0.62257284 0.045936242 1577734
1.0966117 0.63996297 0.041590348 4867907
1.0752023 0.61309952 0.045833372 1512213
1.0763423 0.61374336 0.04718633 2038290
1.0799854 0.62039149 0.045254603 1972480
1.0819575 0.62242568 0.04508777 1774849
1.0930775 0.63706791 0.040399149 3944455
1.0664421 0.60462272 0.047755681 2498330
1.0677381 0.60495186 0.048495196 2498066
1.0709723 0.6099425 0.045689724 2432537
1.0727733 0.61349118 0.046165131 2038552
1.0651301 0.60427445 0.046898685 2367493
1.0673901 0.60966986 0.044673584 2759680
1.0684023 0.61340177 0.045200728 2696705
1.0702112 0.61351639 0.045667313 2301718
1.0601547 0.60401326 0.045526408 2039040
1.0618248 0.60565358 0.045678638 2366983
1.0664481 0.61288166 0.043959998 2499073
1.057897 0.60467219 0.04434409 2236935
1.0388569 0.57988352 0.047663294 8680790
1.047276 0.59293401 0.046177886 6773522
1.0490998 0.59548193 0.044905625 5260820
1.0499673 0.59727889 0.046172462 2629402
1.0564812 0.60531044 0.04304751 2105353
1.0342258 0.57710248 0.047032028 8483160
1.0367913 0.58163106 0.045993052 8680022
1.0446657 0.59114981 0.044194721 7956545
1.0455898 0.59341359 0.045058392 4866587
1.0499377 0.6024093 0.040943883 5260819
1.0517973 0.60437572 0.040704452 2301696
1.0533305 0.60696054 0.041449927 2301709
1.0300417 0.57506752 0.047285348 8614991
1.0326936 0.57645619 0.04732278 8614746
1.0336752 0.5803628 0.046539754 8482899
1.0340458 0.58323044 0.046583325 8548434
1.0368177 0.58538389 0.045306884 8417361
1.0388116 0.58668387 0.044207118 8483407
1.0406767 0.59024894 0.04406812 7431239
1.0420152 0.59313756 0.044722639 5787423
1.0483587 0.60261559 0.041130386 3747840
1.0512377 0.60672927 0.040682696 2037766
1.0250871 0.57109439 0.04720071 8680783
1.0272051 0.57328773 0.046831638 8615247
1.0274333 0.57686496 0.04620257 8549707
1.0305076 0.57911861 0.047051877 8351567
1.0320263 0.58471465 0.043985039 8482895
1.0344412 0.58548617 0.043139607 8482893
1.0362631 0.58970422 0.043956779 8088657
1.0379999 0.58974522 0.043707989 8220243
1.0228024 0.57408398 0.045571297 8746319
1.0242565 0.57565218 0.046814948 8877904
1.0258238 0.57625508 0.046441406 8681294
1.0285839 0.58307618 0.042798549 8416843
1.0305892 0.58467984 0.043212622 8482634
1.0327024 0.58869767 0.042972177 8548946
1.0344393 0.58873862 0.042723268 8483152
1.0210646 0.57631159 0.043748647 8483151
1.0230917 0.57794869 0.042386144 8548944
1.02546 0.58165014 0.041897029 8549196
1.0270698 0.58333242 0.042640775 8482383
1.0174577 0.57596135 0.0431647 8812118
1.0197133 0.57632548 0.042786032 8549203
1.0216495 0.58092231 0.041866273 8680783
1.0237955 0.58123982 0.041586071 8614990
1.0234462 0.58436513 0.040827721 8614733
1.0189465 0.58015639 0.042084306 8878164
1.1051241 0.60538095 0.068660393 2170368
1.0986296 0.60075593 0.068745509 4737090
1.1003767 0.6011675 0.068548277 5196828
1.095461 0.60168153 0.065831199 1184260
1.097326 0.60183024 0.066334084 1446916
1.0999043 0.60607851 0.066140369 6447967
1.1001698 0.60784173 0.063220456 3356202
1.1010927 0.60959172 0.06239523 2173470
1.09417 0.60054594 0.06455113 1445889
1.0983661 0.60776472 0.062676087 987904
1.0892367 0.60123008 0.063907817 1709578
1.091324 0.60245997 0.063969448 1381633
1.095221 0.60975212 0.06162782 2040852
1.1334609 0.67013079 0.046030171 8287313
1.1366906 0.67142612 0.045397051 8286561
1.0873256 0.60141766 0.062456027 2038281
1.0883476 0.60397869 0.06140919 1644806
1.1249026 0.66206765 0.046495326 8023389
1.127266 0.66306025 0.046074934 8088925
1.1287705 0.6654349 0.04559166 8220509
1.1303008 0.66785073 0.045097955 8220771
1.1318464 0.66904032 0.045553692 8221019
1.1340637 0.67402804 0.04545296 8484188
1.0842633 0.60162413 0.061289325 2170374
1.1216986 0.6597681 0.045615025 7957849
1.1238056 0.66099298 0.04570777 7957594
1.1261888 0.66628671 0.045798607 8088927
1.1319211 0.67195195 0.042374142 8681040
1.1185471 0.65755093 0.044713862 7891793
1.1192024 0.65960085 0.044401832 7957844
1.1206428 0.66255534 0.044613011 7958102
1.1260836 0.67324877 0.04138834 8154695
1.1288868 0.67384672 0.040999241 8220489
1.1294471 0.67788494 0.041355141 8286541
1.076259 0.60022688 0.058562838 2038537
1.078566 0.60162807 0.058658078 2104081
1.0806518 0.60443759 0.056849912 2104331
1.0829154 0.60646337 0.056859329 1971986
1.1041112 0.64129061 0.047334388 6840136
1.1063969 0.6427623 0.04765524 7300404
1.1060981 0.64625251 0.047269896 7103295
1.1107523 0.65068287 0.044395581 7826251
1.1113522 0.65367037 0.044534221 7826261
1.1137332 0.65464127 0.044072285 7957586
1.1143326 0.65886152 0.043244138 7759952
1.1165172 0.65995169 0.04331971 7891791
1.1186479 0.66392058 0.041605242 7891786
1.1191771 0.66743702 0.041256256 7892295
1.1214232 0.66788167 0.040530093 8155203
1.1246458 0.67298609 0.040071495 8286532
1.0732706 0.59789717 0.057468139 2038283
1.0747268 0.59958047 0.05885347 2234639
1.0772202 0.60240018 0.056145683 2367749
1.0801889 0.61191171 0.054720655 1974272
1.0818803 0.61162567 0.054503098 1974272
1.1044358 0.64556009 0.047529474 5984814
1.1075226 0.6493876 0.045028701 7234389
1.1083565 0.65213084 0.044550374 7431764
1.110934 0.65743971 0.043269053 7563083
1.1126328 0.65829301 0.041333035 7825481
1.1141574 0.66304392 0.042388573 7956297
1.1159749 0.66336852 0.042025454 7759945
1.117606 0.667005 0.040212519 7957575
1.0687908 0.5939284 0.056999944 2103835
1.0700606 0.59684277 0.058305107 2235410
1.079854 0.61261719 0.051858321 2104072
1.0813773 0.61542487 0.050975636 2038528
1.0994689 0.64451617 0.042832568 2761216
1.0995208 0.64548421 0.044397965 2566427
1.1025413 0.64853865 0.042032257 4997930
1.1039969 0.65219569 0.041460291 6971970
1.1069427 0.65629584 0.040967479 7430980
1.1089702 0.65744203 0.041188255 7627847
1.1106969 0.6610359 0.040668026 7628353
1.1127635 0.66280019 0.040055528 7759431
1.0741251 0.60741866 0.05329176 2170123
1.0764719 0.61274654 0.051500574 2104348
1.0832328 0.62344849 0.047083393 987392
1.1007593 0.64817065 0.042312399 4013873
1.1013236 0.65164387 0.041880384 3553295
1.1028041 0.65557951 0.041113034 5853242
1.1050726 0.65579009 0.040639415 7102525
1.0649729 0.60057288 0.054435514 2369280
1.0603977 0.59819418 0.05361744 2368770
1.0630469 0.60005748 0.053284787 2499586
1.0654629 0.60647815 0.050710164 2696454
1.0716249 0.6149435 0.04841461 2366994
1.0517756 0.5889284 0.054202341 1709312
1.065098 0.60563058 0.049310707 2762247
1.0687144 0.6141668 0.046620987 2433793
1.0690267 0.61493188 0.048041306 2368000
1.0540439 0.59903574 0.049998067 2433037
1.0558351 0.59917212 0.050506137 2499585
1.0596775 0.60488147 0.047040068 2499328
1.0615685 0.60544026 0.048273705 2565378
1.0661085 0.61417258 0.046175085 2433806
1.0518091 0.59792894 0.049568199 2039055
1.057986 0.60516757 0.047257684 2368770
1.0470765 0.59471262 0.04791566 1905925
1.0492091 0.5959745 0.047738872 1774093
1.0544915 0.60493392 0.046137832 2565378
1.0552148 0.60628194 0.044654392 2302734
1.0430831 0.5940029 0.046049498 1185024
1.0444528 0.59444499 0.047545157 2169866
1.0479126 0.60207617 0.044117056 1971973
1.0362672 0.58557701 0.04828801 7957840
1.0381994 0.59059 0.045159303 6444087
1.0401336 0.59363866 0.045952879 2565388
1.0487832 0.60715973 0.040983103 1710090
1.026538 0.57754135 0.047819883 8417873
1.0289402 0.57851565 0.047425479 8351567
1.0319248 0.58591592 0.046328098 8680792
1.0336474 0.58729059 0.04700312 8089425
1.0352758 0.59021354 0.045079909 6641718
1.0369174 0.59293497 0.045438193 4735014
1.0233914 0.57580465 0.047633976 8680271
1.0264363 0.58274728 0.045836896 8483411
1.0285048 0.58389211 0.045995444 8285781
1.0289458 0.58523905 0.045478135 8482644
1.0303497 0.58956349 0.044776112 8285780
1.0330281 0.59000611 0.045138866 6839351
1.0191342 0.57527274 0.046286315 8746587
1.0215236 0.57674927 0.046648532 8614740
1.0221864 0.58018911 0.045371383 8483154
1.0242535 0.582165 0.044732839 8483406
1.0256436 0.58535051 0.044409901 8417103
1.0267892 0.58855689 0.043791503 8416334
1.0301852 0.58867526 0.043241829 8548432
1.0170687 0.57702029 0.044615954 8878169
1.01868 0.57871222 0.04482463 8548694
1.0202707 0.58158028 0.04354915 8548942
1.0217069 0.58326781 0.043617636 8417613
1.0238173 0.58518338 0.043209702 8482633
1.016631 0.58000362 0.042989939 8746315
1.0186177 0.58194661 0.04402259 8417106
1.0196667 0.58445483 0.043316215 8482893
1.0150573 0.58094007 0.043037921 8482380
1.1067454 0.60310692 0.073612884 2565420
1.1018574 0.59699023 0.07497932 7499099
1.1026151 0.60051894 0.07236965 8617075
1.0977817 0.59791321 0.071681395 4669229
1.0998312 0.59921885 0.071787909 6314566
1.100929 0.60069549 0.073370352 10130319
1.1026335 0.60495728 0.068608716 6973997
1.095331 0.59822035 0.07005848 3024406
1.0961001 0.60079354 0.069943145 5788747
1.1002517 0.6068002 0.067477658 7235679
1.0925159 0.59689534 0.070340648 2234638
1.095718 0.60373271 0.068042412 4277821
1.098404 0.60670376 0.066985086 7170660
1.0889255 0.59780085 0.068523899 1577476
1.0912182 0.60080892 0.066536739 1380864
1.0927482 0.60232985 0.067303315 2828308
1.0956521 0.60944396 0.065106884 7434596
1.0848682 0.59781867 0.067937985 1840926
1.0864003 0.59846491 0.067647293 1840645
1.0881853 0.60211849 0.065810218 1643776
1.0899376 0.60346097 0.06587179 2500356
1.0831058 0.5987798 0.064878479 1907225
1.0851508 0.60000229 0.064564303 1841415
1.0866318 0.60102153 0.065141872 1906688
1.0886168 0.6040411 0.064585701 1448192
1.1285303 0.66816127 0.046896942 8154724
1.1307038 0.67268658 0.046054967 8220771
1.1323661 0.673379 0.045795329 8484188
1.0799345 0.59879643 0.064367846 2104328
1.0818003 0.59976828 0.064530626 1972749
1.0850561 0.60525846 0.062075689 1447171
1.1237551 0.66523349 0.046281286 7958365
1.126682 0.67058414 0.046050735 8089183
1.129059 0.67212009 0.046376593 8154978
1.0743454 0.59252632 0.064311102 2696463
1.0781311 0.59857219 0.064443007 2169365
1.081655 0.60109514 0.061725095 2039296
1.0826527 0.60561126 0.062438563 1315339
1.1180927 0.6619994 0.045811005 8089928
1.1197548 0.66269183 0.045551367 7958355
1.1210762 0.66686755 0.044771738 7892310
1.1234914 0.66882807 0.045916624 7892318
1.1239464 0.67270088 0.045349784 8155227
1.1256441 0.67334986 0.045007296 8154975
1.1287551 0.67735422 0.044715114 8220768
1.127665 0.677517 0.041635282 8286284
1.0720297 0.59291828 0.064570084 2696454
1.0756267 0.60101694 0.06153848 2038290
1.0777131 0.60179502 0.059806421 2104078
1.1149411 0.65978217 0.044909783 7891539
1.1167902 0.66479117 0.045083828 7957837
1.1194562 0.6661821 0.045166083 7958103
1.119976 0.67007804 0.044614621 7957848
1.1255934 0.67832989 0.041054137 8155210
1.0687122 0.59499866 0.060566567 2235156
1.0699575 0.59817886 0.060456179 2235677
1.0722749 0.59913915 0.060033165 2169367
1.0745713 0.60053879 0.060335778 2169365
1.0778971 0.60787249 0.059357718 2368000
1.0786551 0.60917681 0.057791367 2039055
1.0794661 0.61056381 0.056204215 1907469
1.1041372 0.64905053 0.04714413 5459753
1.1058346 0.64969951 0.046801701 6907199
1.1085423 0.65614384 0.0445797 7432019
1.1108705 0.66143674 0.044687822 7563344
1.113264 0.66254675 0.043806806 7694414
1.1149395 0.66675019 0.042951949 7826000
1.1178732 0.67066318 0.041125067 7694662
1.120959 0.67522848 0.04010684 8352072
1.1229998 0.67736065 0.040902503 8286540
1.067862 0.59793013 0.058491252 2630915
1.074174 0.60762542 0.057605349 2235916
1.1052352 0.65488493 0.045160964 6644057
1.1059346 0.65695459 0.044797018 6906715
1.1073825 0.65936899 0.044329241 7235153
1.109375 0.6612522 0.042532042 7562310
1.11094 0.6652531 0.041796401 7891528
1.1125797 0.66674691 0.041650549 7759689
1.114373 0.67014235 0.041258402 7957318
1.1163683 0.67065996 0.040186651 8023621
1.1170055 0.67406404 0.040002532 8088647
1.0627584 0.59649742 0.059124433 2369028
1.0654075 0.59836066 0.058791719 2499328
1.073456 0.60824305 0.054867528 2170129
1.1027185 0.65634865 0.042904928 5127734
1.1043371 0.65836132 0.042478815 6313546
1.1062702 0.66075772 0.04252781 7102289
1.1087496 0.66456735 0.041305855 7627846
1.1095828 0.66720426 0.041525915 7759684
1.1119472 0.67065471 0.040272191 7825473
1.0616431 0.59736884 0.056386493 2565378
1.0633943 0.60077924 0.054622076 2435072
1.0709296 0.61409318 0.052904867 2565124
1.0734103 0.61370385 0.052594088 2433793
1.0999933 0.65482861 0.041759744 2829600
1.1023985 0.6596871 0.040902033 6509856
1.1035378 0.66136223 0.040087178 6904874
1.0584083 0.5978179 0.056707703 2301450
1.0594029 0.59800601 0.055162571 2498824
1.0615467 0.60068274 0.054129563 2434307
1.0538856 0.59552169 0.055868827 2433282
1.0556014 0.59897542 0.05418732 2367244
1.0572155 0.59872574 0.053917848 2367489
1.0667335 0.61578262 0.048974179 2499083
1.0685371 0.61585957 0.049518488 2433792
1.047032 0.58979195 0.054751478 1579776
1.0501369 0.58929694 0.054399095 1906688
1.0486662 0.59384769 0.054770373 2235158
1.0535368 0.59805578 0.052284978 2367750
1.0544087 0.59988332 0.051397465 2433792
1.0645751 0.61542565 0.048023723 2499101
1.0517596 0.59802008 0.051730178 2301450
1.0449214 0.59566897 0.050580226 1906700
1.0470073 0.59674257 0.050019823 2169616
1.0359731 0.58791471 0.052004479 1905437
1.0411484 0.59491432 0.050056957 1710347
1.044238 0.59579289 0.048858903 1971730
1.0361288 0.58695638 0.050521992 3617802
1.0378946 0.59314758 0.049720787 1643015
1.0406775 0.59478635 0.047874235 1117960
1.0303756 0.58698046 0.049032122 6247734
1.0332584 0.58839893 0.048971087 4603668
1.036211 0.59378594 0.047024332 1183232
1.0277697 0.58523047 0.048480004 8155223
1.0293794 0.58584028 0.048241228 8023637
1.0305493 0.59040833 0.046227425 5654573
1.0319003 0.59281957 0.046865791 3221780
1.0343121 0.59287345 0.045811564 4405533
1.0208306 0.58051884 0.046854168 8482644
1.0225272 0.58576506 0.047422022 8483413
1.0246736 0.58628309 0.04657498 8352339
1.0262024 0.58982545 0.046134263 6838846
1.0279005 0.58988458 0.045859486 6773053
1.0169131 0.57797861 0.046098381 8549459
1.0184549 0.57958585 0.047238201 8614230
1.0186483 0.58320653 0.046692163 8416850
1.0213064 0.58483744 0.045701116 8482384
1.0224825 0.58841109 0.044330686 8548692
1.0239508 0.58963686 0.044252366 8286289
1.0150185 0.58042312 0.04493168 8483658
1.0164145 0.58319694 0.044523209 8351566
1.0180742 0.58426589 0.044145972 8351568
1.0199546 0.5883134 0.044755846 8351568
1.0219809 0.59073734 0.044588894 8089423
1.012441 0.58222401 0.043715507 8482635
1.0146858 0.58345997 0.043430835 8416845
1.0162556 0.5869025 0.043019563 8285773
1.0110927 0.58325982 0.043638319 8878417
1.0127826 0.5863778 0.042724401 8416851
1.0148351 0.58884317 0.042547017 8351307
1.1018823 0.59672546 0.078323618 10525333
1.1046451 0.60089302 0.07659252 10064790
1.1058978 0.60345978 0.076474801 6117980
1.0987448 0.59624296 0.076159194 8420459
1.1021371 0.60207582 0.075170591 10854294
1.1042882 0.6026274 0.07414712 9341582
1.0960689 0.59863931 0.074071184 7959911
1.0993029 0.60071009 0.074360624 10525064
1.0922736 0.59668481 0.074025467 5459255
1.0945504 0.59809351 0.074315146 7762284
1.0962648 0.60302234 0.073669925 11051400
1.0959237 0.60323542 0.07124342 10196104
1.0992724 0.60865569 0.070432022 10723221
1.0882907 0.59634578 0.072693124 2103055
1.0903877 0.59700334 0.072113827 2104072
1.0933141 0.60403293 0.070200935 8947061
1.095136 0.6052829 0.070344463 8947056
1.09769 0.60784507 0.070103958 11051673
1.0983586 0.61187214 0.069808379 9671573
1.086468 0.59776443 0.070333317 328192
1.0896193 0.60191029 0.069019631 4800302
1.0916346 0.60366106 0.069682613 7367775
1.0961201 0.61059153 0.067237392 10985878
1.0840192 0.59764236 0.070141569 721668
1.0870852 0.6027084 0.068893149 4471333
1.0892339 0.60403425 0.068769887 4737583
1.0821657 0.59839272 0.068902031 1642760
1.0835453 0.60115582 0.066916719 1839872
1.0858194 0.60303921 0.066997066 2498312
1.074659 0.59263551 0.068546906 2827529
1.0793865 0.59841275 0.068435445 2170624
1.0800258 0.59886163 0.066382006 2103569
1.0814414 0.60371703 0.066773787 591872
1.0824873 0.60382766 0.065290883 1249544
1.0723821 0.5921911 0.067390934 2827540
1.0765311 0.59892321 0.066112414 2103572
1.0780632 0.59956956 0.065821782 2103572
1.0783646 0.60312611 0.065294757 1973250
1.0802382 0.60454965 0.064139619 987392
1.1223615 0.67197216 0.045661159 7957848
1.1270574 0.67670524 0.045057602 8023896
1.0697665 0.59368789 0.06549789 2696715
1.0722408 0.59978718 0.064924672 1973016
1.0753293 0.60184598 0.0645556 2301965
1.0768058 0.60565388 0.063672438 658437
1.1175478 0.6690625 0.045019634 7957592
1.1198003 0.6719299 0.045500405 7957596
1.1188056 0.67337626 0.046552248 7892576
1.1219448 0.67728591 0.044030733 8089689
1.124456 0.67830294 0.043599911 8221275
1.125392 0.68173099 0.043288954 8220755
1.064169 0.59211183 0.065514043 2105106
1.0658141 0.59267837 0.065192357 2039313
1.0677023 0.59598833 0.062895611 2236432
1.0713371 0.60020208 0.062354647 1906972
1.0741136 0.60466778 0.062563375 2105357
1.0761731 0.60718244 0.060192727 2104838
1.1131724 0.66703707 0.045307413 7826012
1.1151773 0.66999859 0.045613714 8023387
1.117299 0.67172551 0.045329519 7957596
1.1202296 0.67695302 0.043175407 7957850
1.1212035 0.68035907 0.043434747 8089170
1.1234776 0.681054 0.043132015 8089429
1.0603815 0.58961743 0.06478931 2235159
1.0627927 0.59050727 0.064322308 2235159
1.0638853 0.59481728 0.063495949 2236182
1.0649967 0.59777772 0.061695538 2499585
1.0682092 0.59894818 0.06292893 1973270
1.1081406 0.66067487 0.045655981 7300946
1.1077294 0.66424495 0.04530175 7564119
1.1098628 0.66595745 0.044989899 7629390
1.1112161 0.66872865 0.043531671 7497024
1.1148645 0.67348486 0.041326053 7957575
1.1172454 0.67787284 0.04142762 7825996
1.0550617 0.58647692 0.064355344 2104098
1.056594 0.58712322 0.064064652 2169891
1.059495 0.59377193 0.062661663 2105856
1.0631033 0.59809124 0.060305797 2499590
1.0716637 0.60750586 0.057989143 2367245
1.1048384 0.66152972 0.044048265 6643042
1.1055444 0.66436034 0.043976501 6840910
1.1080437 0.66621292 0.04235597 7627847
1.108907 0.66936272 0.042119399 7562563
1.1119851 0.67432016 0.041194156 7760195
1.114293 0.67723715 0.040567346 8022602
1.0612323 0.5967862 0.059290193 2565120
1.0625374 0.59965712 0.060512446 2565378
1.1023567 0.66295087 0.043155745 5852208
1.1052065 0.66804302 0.043148354 7102278
1.107312 0.67044258 0.041399971 7497034
1.0558445 0.59508491 0.059581302 2170376
1.0569818 0.59852904 0.05759915 2235657
1.0589291 0.59904802 0.058817349 2302208
1.0685102 0.61448032 0.053122483 2499084
1.1010281 0.66600007 0.041780546 4536864
1.0545452 0.59700859 0.058626376 2104072
1.0550345 0.59801012 0.05638095 2301451
1.0478724 0.59317714 0.057798646 2103315
1.048866 0.59469259 0.056221806 2301203
1.064465 0.61651456 0.04997959 2498581
1.0417975 0.59276187 0.054231606 1971980
1.0435778 0.59326518 0.054724 1971979
1.045215 0.59600544 0.053141378 2037772
1.0352753 0.5877887 0.05527088 1117711
1.0373684 0.59173477 0.053371452 1972227
1.0399609 0.59229851 0.053754948 1972231
1.0343634 0.58730471 0.052243263 2037023
1.029982 0.58810443 0.051050335 3616812
1.0323753 0.58901584 0.050624758 3090212
1.0336052 0.59312761 0.050322145 1577222
1.035342 0.5931685 0.050073229 1708809
1.0276915 0.58615232 0.050014287 6314568
1.0271327 0.58955055 0.049566776 4866878
1.0283433 0.59203666 0.049503475 1116928
1.0310129 0.59256387 0.049938768 1248514
1.0231268 0.58748758 0.049518436 7234903
1.0255482 0.58837897 0.04908523 6248523
1.0270782 0.591434 0.048719078 3024663
1.0176879 0.58385986 0.048293918 8351058
1.0200509 0.58522141 0.04861477 8351574
1.0228353 0.59194475 0.046409875 5393451
1.0240568 0.59263033 0.047252983 4341020
1.0142957 0.58317554 0.046127051 8220234
1.015785 0.58470041 0.047287732 8351567
1.0172915 0.5863511 0.048510522 8220245
1.0186774 0.59113866 0.045750052 7103299
1.020414 0.59117961 0.045501202 7169092
1.012686 0.58256555 0.046365827 8483401
1.0128531 0.58614498 0.04583016 8417356
1.0167973 0.59021306 0.044532031 8088655
1.0096242 0.58396417 0.044877142 8417610
1.0102037 0.58635759 0.043087214 8483148
1.0122299 0.58878165 0.042920262 8351322
1.0140282 0.59238511 0.042763084 8154705
1.0075957 0.58568132 0.044062227 8417097
1.0097373 0.58864045 0.043262511 8548945
1.0105499 0.59182262 0.042545527 8219472
1.0122092 0.59189987 0.042244762 8416851
1.006912 0.59085244 0.041509062 8351566
1.1070324 0.60072464 0.082215503 5001048
1.1055219 0.59963906 0.081780508 7434099
1.1038542 0.60069054 0.080763713 8026225
1.1005824 0.59760571 0.080687419 11248804
1.1015382 0.59974271 0.081241265 10000012
1.1038042 0.60151684 0.078139916 10525343
1.104519 0.60399443 0.077267781 8224611
1.107384 0.60800719 0.0763845 2108416
1.0979061 0.59643775 0.079137698 10591377
1.0977807 0.59761345 0.079634979 11183519
1.1016592 0.60318601 0.077240482 9933698
1.1023327 0.60695195 0.077204123 5461831
1.104941 0.60748082 0.076768413 3490393
1.105302 0.61092448 0.076265588 4540494
1.1076261 0.6139099 0.076112166 3881250
1.094629 0.5968793 0.078359798 10854549
1.0961612 0.5975256 0.078069165 10854549
1.0993983 0.60214037 0.076667145 10985621
1.0988992 0.6053763 0.076209381 10328707
1.0897945 0.59708762 0.076560631 10064523
1.0921122 0.59804803 0.076137558 10196622
1.096458 0.60560358 0.07525529 10789268
1.0978073 0.60760403 0.074098125 9408641
1.0992035 0.61068612 0.073982731 6448978
1.0873086 0.5974384 0.075020507 9077378
1.0923532 0.6051293 0.073077932 11380631
1.0930777 0.60663795 0.073198989 11380884
1.095892 0.60795897 0.072737768 10921101
1.0979283 0.60966331 0.071986988 9935496
1.0986707 0.61263722 0.071228638 7764329
1.084244 0.59614563 0.075601771 7957603
1.0866981 0.5961569 0.073683456 2957074
1.0886247 0.60330826 0.071965709 10722441
1.0907195 0.60518664 0.07205303 10854543
1.093353 0.60728472 0.071168974 11775384
1.0817155 0.5967837 0.072687641 919047
1.0840138 0.59775323 0.072251692 1575950
1.0840579 0.60178351 0.071669176 8154979
1.0862786 0.6031335 0.071423128 9143925
1.0878104 0.60536104 0.070827559 10460555
1.0770358 0.59692007 0.072438732 2039560
1.0800308 0.59741426 0.070919409 984583
1.0805895 0.60015309 0.070688263 3023114
1.0831364 0.60249293 0.070183411 5195061
1.084525 0.60336798 0.070797399 6710612
1.0738047 0.59353352 0.070065692 2762247
1.0759255 0.5963428 0.071184233 2434837
1.0774674 0.59894043 0.069675997 1051651
1.0786436 0.60058475 0.069395259 1643016
1.0800458 0.60286689 0.069128111 3486752
1.0719039 0.59439129 0.069774821 2565400
1.0733845 0.59753609 0.068677738 2236432
1.075273 0.59928787 0.068100527 1906445
1.0763203 0.60237986 0.067741349 1972747
1.0692577 0.59581363 0.068550602 2433049
1.070169 0.5973326 0.068705454 2037780
1.0713755 0.60038263 0.066536859 1971986
1.0743258 0.60322946 0.066058472 723457
1.0762979 0.60377657 0.066006437 1577984
1.1238286 0.68165344 0.04447455 8221003
1.0643631 0.59499609 0.06686081 2762246
1.0667071 0.59807473 0.066486076 2630434
1.0691202 0.59853452 0.065521494 2169626
1.0707655 0.60222304 0.065073863 2236162
1.0715436 0.60456294 0.062853709 2301954
1.1138362 0.67142498 0.047393091 7760471
1.1163473 0.67244184 0.046962269 7760471
1.1200013 0.68020976 0.043967135 8023138
1.0589942 0.58823431 0.067817882 2301203
1.0610443 0.59127659 0.066795006 2039063
1.0615997 0.59260511 0.065451637 2236172
1.062837 0.59528482 0.06702657 2630660
1.0651864 0.59825295 0.064541712 2761754
1.1090223 0.66851526 0.046751574 7563077
1.111207 0.66970396 0.046896115 7694668
1.1122267 0.67081505 0.047631815 7694679
1.1147751 0.67848629 0.044579692 7826001
1.1173891 0.67928064 0.044128247 7826004
1.1174088 0.68281329 0.043876 8023646
1.120577 0.6837644 0.043286331 8089177
1.0548811 0.58784926 0.06645444 2300952
1.0569957 0.58853424 0.065868273 2235159
1.0579579 0.59457576 0.064362004 2170880
1.0637829 0.59883165 0.063281491 2696467
1.105238 0.66629207 0.046469107 6578005
1.1074766 0.6673255 0.046295896 7629148
1.1086885 0.67204893 0.046449199 7629127
1.1114937 0.67949253 0.04362525 7694679
1.1131912 0.68014145 0.043282695 7760471
1.0530059 0.58918542 0.064115494 2039313
1.0552621 0.59371209 0.063247591 1973519
1.057016 0.59417415 0.063750282 2104841
1.0570956 0.5990541 0.062617674 2303761
1.0601568 0.60002613 0.060755931 2435072
1.1026452 0.66443765 0.045695677 5593695
1.1025332 0.66749096 0.043568566 6379049
1.1104636 0.67949337 0.04149951 7628866
1.1122811 0.67981803 0.041136399 7826246
1.0508895 0.59264529 0.062371813 2235409
1.0526134 0.59318835 0.062879652 2235409
1.0537201 0.59571779 0.060559057 2235403
1.0557922 0.59805125 0.060629867 2104584
1.057585 0.60005575 0.060372256 1776903
1.098717 0.66553307 0.043455377 3155715
1.10026 0.66952372 0.042022541 3418112
1.0470448 0.59117413 0.061871253 1906700
1.0493398 0.59202027 0.062221788 2235148
1.0502493 0.59525865 0.059567414 2300933
1.0524169 0.59637541 0.061068676 2235648
1.1014218 0.67492694 0.041377082 6576187
1.0451839 0.5912534 0.061039947 1840901
1.0468591 0.59369856 0.058904432 1971981
1.0486586 0.5956763 0.060241185 2103814
1.0420491 0.5907169 0.060713552 1578761
1.0426763 0.59285951 0.057809077 1971986
1.0443945 0.59395498 0.058327101 1906200
1.0461234 0.59730452 0.057067357 1972491
1.0473289 0.59876645 0.05886402 2170625
1.0391283 0.59164608 0.056757174 1840645
1.0409608 0.59267461 0.058021806 1906695
1.035167 0.58879215 0.057774693 1577754
1.0368414 0.59140348 0.056817792 1775360
1.0326538 0.58805591 0.054741949 1314054
1.0326219 0.59069788 0.055998832 1708817
1.0347635 0.59167337 0.053744763 1906688
1.0290562 0.5891571 0.05336228 1051653
1.0301534 0.59067833 0.053755552 1511430
1.0240152 0.58847183 0.053269178 986888
1.0262514 0.59003299 0.052376658 920581
1.0285075 0.59292489 0.051037699 1577222
1.0221161 0.58904278 0.052646786 1775107
1.0256134 0.593602 0.050721139 1314565
1.0187807 0.58787572 0.049671322 7366469
1.0203671 0.58891284 0.050827056 4603439
1.0216898 0.59339559 0.049103528 1183232
1.0234878 0.59387726 0.049554378 1183491
1.0156821 0.58574098 0.048749357 8483666
1.017136 0.58730924 0.049992949 7958606
1.0196044 0.59272307 0.048369259 3617557
1.0135287 0.58744955 0.047182709 8352080
1.0142392 0.58871055 0.048452407 8154957
1.0162112 0.5946033 0.046266943 4932903
1.0088447 0.58458608 0.046572179 8417101
1.0097229 0.58898371 0.04651323 8352581
1.0113587 0.5896349 0.046263963 8418118
1.0134416 0.5936535 0.045105964 7103570
1.0152607 0.59413862 0.045624226 5985851
1.0072044 0.58835834 0.04559055 8286283
1.0089128 0.59220409 0.043520063 8219981
1.0113198 0.59301585 0.044418424 8023130
1.005275 0.59123385 0.042483598 8285520
1.0068046 0.5929004 0.043104976 8219981
1.0024124 0.58991349 0.043707699 8482643
1.0029519 0.59102637 0.042590767 8285526
1.108583 0.60061419 0.086669281 6709857
1.107111 0.59951043 0.086260155 5397598
1.1045266 0.60152799 0.08338429 5067350
1.0991762 0.59935308 0.082371727 9408135
1.1013575 0.60111505 0.083340421 5856095
1.1096976 0.61587155 0.078316525 2959122
1.0967038 0.60009956 0.081474319 10131862
1.101555 0.60773361 0.07881625 5331016
1.1045326 0.61166668 0.077901974 7105144
1.1059959 0.61448938 0.077890292 5132618
1.10853 0.61508006 0.077511504 2040083
1.0944872 0.59823346 0.080484942 11315876
1.0982076 0.60672992 0.078382865 5593413
1.0996826 0.60716182 0.078220204 5659720
1.1006945 0.61118621 0.077941015 7829606
1.0903778 0.5992133 0.079253092 11842216
1.0926955 0.60017371 0.078830078 11710634
1.0938084 0.6055187 0.076385573 10789534
1.0958009 0.60651189 0.07719399 7895147
1.0973769 0.60992455 0.076318756 6186046
1.0995156 0.61145133 0.07540293 5397302
1.0864004 0.59846938 0.077291027 11117731
1.0879713 0.59909743 0.077026263 11183524
1.0914328 0.60614645 0.076465681 10855581
1.0931391 0.6080218 0.075796738 9540224
1.0946695 0.60924917 0.07475926 9342834
1.0833573 0.5967375 0.077146545 9406585
1.0848294 0.59784114 0.077555612 10920086
1.0875846 0.60492432 0.075100079 11908004
1.0894979 0.60673141 0.074604824 11644057
1.0914706 0.60847467 0.074168637 10855306
1.080795 0.5978741 0.074921802 7300949
1.0838681 0.60294122 0.073695913 11907240
1.0852252 0.60455263 0.073695853 11907216
1.086967 0.6068576 0.07326372 12104092
1.0777035 0.59856343 0.07439436 6642005
1.0801169 0.60160023 0.073307648 10524283
1.0815554 0.60409516 0.07289429 11183758
1.0832163 0.60433239 0.072269455 11579042
1.0754323 0.59724516 0.072552636 1580294
1.0760045 0.60013855 0.072349742 6114867
1.0778565 0.60134953 0.072841063 9997949
1.0788399 0.60417831 0.071075276 9407599
1.0700538 0.5965032 0.070416883 2302227
1.0722498 0.59874058 0.071022406 2103047
1.0733879 0.60077804 0.070077851 2169870
1.0754093 0.60314715 0.070333734 6052681
1.0674716 0.59690404 0.070115939 2103323
1.0699707 0.59872657 0.070846155 1708042
1.0709541 0.60188746 0.069239572 2301203
1.0734022 0.60251296 0.069055632 3546657
1.0651815 0.5958454 0.069577172 2367256
1.0673018 0.59924436 0.070467427 1315334
1.0677021 0.60111892 0.068716124 2039566
1.069764 0.60154271 0.068019107 853504
1.0573941 0.58858532 0.069487229 2039063
1.0596398 0.58947235 0.069072023 2104856
1.0631845 0.59600663 0.06836392 2762246
1.0645387 0.60071576 0.066655889 2828583
1.1194212 0.68731624 0.043258794 7892576
1.0524447 0.58781636 0.068331391 2103827
1.0547426 0.58922851 0.068688422 2039063
1.0587459 0.59401894 0.067037478 2302208
1.0620615 0.60261673 0.06551446 2630667
1.1024328 0.66587859 0.047986761 5460810
1.1041304 0.66652757 0.047644213 6118740
1.1054165 0.67074668 0.046947554 6839889
1.1070261 0.67135668 0.046708718 7432026
1.1146978 0.68179208 0.044505544 7695197
1.1143639 0.68532586 0.04420317 7629401
1.1165502 0.68712074 0.043870576 7957854
1.0500512 0.58690506 0.068756849 1841934
1.0541403 0.59508497 0.06585142 2169874
1.0564734 0.59546226 0.066041425 2301203
1.0575039 0.60021651 0.064654723 2433800
1.0593294 0.60126776 0.064789191 2565133
1.1021342 0.66936898 0.047601417 5856090
1.1037965 0.67006141 0.047341838 5922140
1.1073027 0.67780489 0.044357017 7497555
1.1098315 0.67880011 0.043884769 7694669
1.1103461 0.68265814 0.043411151 7694928
1.1121373 0.68521988 0.043273523 7760467
1.1155639 0.6896652 0.042080767 7825744
1.0481762 0.58824104 0.066417962 1841934
1.0509764 0.59356976 0.063854247 2104078
1.0518224 0.59486544 0.064881951 2170120
1.0538201 0.59772694 0.063730448 2105095
1.0554395 0.59929675 0.062752455 2236941
1.1046309 0.67934179 0.042961612 6774096
1.1069863 0.68131673 0.044013277 7563604
1.1106184 0.68640184 0.040905192 7760451
1.1111352 0.68997759 0.040519908 7694659
1.0432228 0.58759433 0.065256804 1774853
1.0453222 0.5885638 0.065118164 1840650
1.0464542 0.59097946 0.064736873 1906949
1.0468971 0.59283447 0.063833803 1972230
1.0487065 0.59582496 0.063358933 1906698
1.0960649 0.66840202 0.044988826 2894084
1.0965532 0.6707319 0.04512246 2960384
1.1029688 0.67864937 0.04322125 5987669
1.1035787 0.68051898 0.040633097 7430974
1.104305 0.68204117 0.043219641 6774096
1.0412563 0.58886617 0.062912732 1709060
1.043689 0.5921393 0.062811702 1709825
1.0465958 0.59526658 0.061649941 1971979
1.0466924 0.59665489 0.061547361 2104580
1.0972333 0.67444396 0.041600361 4338716
1.0973376 0.67757064 0.0410337 4667661
1.099517 0.67961448 0.040949777 6837785
1.1009125 0.68187284 0.040209904 7167792
1.1029379 0.68392193 0.040118232 7497022
1.0396469 0.58825642 0.063151568 1774853
1.039605 0.59107566 0.061719142 1578501
1.0410907 0.59465182 0.061142109 1906953
1.0436532 0.59514862 0.060703717 2038285
1.0955687 0.67789304 0.041199461 3812352
1.0363073 0.58765453 0.060963772 1511961
1.0356921 0.58985567 0.061560772 1775372
1.0380187 0.59196925 0.062206171 1972237
1.039283 0.59335703 0.059846424 1972745
1.0326312 0.58967763 0.061118394 1708558
1.0338058 0.5910877 0.059583038 1708816
1.0359105 0.59236902 0.058690749 1644290
1.030828 0.58930445 0.057955891 1708558
1.031212 0.59103143 0.058079451 1709067
1.0277238 0.59069633 0.056814522 1577736
1.0279816 0.5915122 0.054688424 1840137
1.0216464 0.58773798 0.056867748 1379074
1.024897 0.58903676 0.056302041 1708544
1.0264444 0.59231603 0.056388766 1775360
1.0252336 0.59368777 0.05298689 1513219
1.0178589 0.58865893 0.052367002 3683376
1.0205624 0.59477556 0.051721245 1840903
1.0228835 0.59516734 0.051938802 1776391
1.0148933 0.59045428 0.050530761 5656122
1.019323 0.59416085 0.050954133 1381127
1.0131959 0.58980525 0.05087319 6576710
1.0159414 0.5960266 0.048824161 1315845
1.0087904 0.58983845 0.048503727 8089427
1.0111303 0.59155291 0.049202949 7234128
1.0128549 0.59492207 0.047448844 3880230
1.0146738 0.59540701 0.047967225 1448192
1.0075824 0.59182668 0.048518389 8154959
1.0098461 0.59615743 0.046248883 5393459
1.0057616 0.59147596 0.046361655 8286286
1.0058463 0.59490603 0.04478386 8154189
1.007665 0.59539121 0.045302123 7825990
1.0003364 0.59188199 0.045293361 8285783
1.0022421 0.59276783 0.044372708 8285781
1.0037045 0.59427321 0.044065326 8285768
1.0041484 0.59796864 0.04445073 7760467
0.99959821 0.5933938 0.043405503 8285527
1.0005106 0.59699839 0.043414086 8482901
1.1074212 0.60125059 0.088495746 6843263
1.105338 0.60069388 0.089349762 7765393
1.1052377 0.60234737 0.086030796 7896458
1.1035776 0.60300738 0.086367443 7765126
1.099034 0.60070723 0.084496811 5791345
1.1000453 0.60205472 0.085667983 6054239
1.1086515 0.61684686 0.080497101 1909787
1.0943449 0.59958762 0.082609966 10460576
1.0949907 0.60082549 0.083864167 8817046
1.0973064 0.60221618 0.084179774 6186352
1.1020499 0.61204416 0.07984598 8423299
1.1032269 0.6129027 0.080619827 7503240
1.1060479 0.61590654 0.080155268 4937052
1.0927449 0.59993863 0.084279433 10987691
1.0925148 0.60154605 0.080929294 11118506
1.0968046 0.60825253 0.080387011 6910052
1.0983198 0.60951906 0.080749288 8226437
1.0994105 0.61168587 0.079837516 8817806
1.101373 0.61399722 0.080104306 6321263
1.1069038 0.62237096 0.078493252 3882035
1.0904082 0.60101825 0.081838623 11645099
1.0922401 0.60580224 0.08027406 9145740
1.094299 0.60767043 0.079668239 5266516
1.0962865 0.61090481 0.079008654 7173477
1.0998771 0.61569071 0.07677497 8358498
1.0854321 0.59995764 0.080261186 11908272
1.0877692 0.60090905 0.079851046 11710896
1.0895544 0.60516196 0.080554262 10527397
1.0909094 0.60646057 0.078912631 9081489
1.0920274 0.60902327 0.078317896 6056295
1.0939578 0.61090279 0.077430382 5462828
1.0831769 0.59810972 0.079245761 12170671
1.0866737 0.60584491 0.077117518 11776424
1.0881329 0.60828096 0.077053145 10855833
1.0906485 0.61047029 0.076151624 7633237
1.0797968 0.59944367 0.077897146 12170667
1.0813977 0.59999067 0.077627197 12170667
1.0825193 0.60416186 0.076403394 11973801
1.0840224 0.60605901 0.076229766 12170662
1.0858439 0.60827088 0.075544372 11907483
1.0775424 0.60007858 0.076789036 11841189
1.0784076 0.60257447 0.075368121 12170403
1.0807867 0.60538864 0.074755028 12499620
1.0827188 0.60706002 0.074972048 12301993
1.1047779 0.64268762 0.066118196 2235145
1.1050973 0.64498973 0.066194847 2959625
1.073215 0.59968179 0.073712841 5983288
1.0748309 0.60112941 0.075048104 11314064
1.0761737 0.60310835 0.074110523 11446680
1.0781209 0.60575998 0.073683396 12499881
1.1049318 0.64884478 0.062781587 3157506
1.0692893 0.59812409 0.07442911 3876128
1.0715661 0.59953278 0.074718788 7760476
1.0729232 0.60322201 0.072580948 10131082
1.0740948 0.60431314 0.073381498 11709339
1.0639521 0.59456241 0.073243394 1774617
1.0652188 0.59730327 0.072407439 1181964
1.0668153 0.59796679 0.073189929 1903886
1.0675013 0.60008919 0.071918741 3942420
1.0702008 0.60329163 0.071595803 8682866
1.0719869 0.60419798 0.072155371 11247757
1.0624199 0.59391606 0.073534027 1906965
1.0648613 0.59955454 0.071530119 2431498
1.0666468 0.60298967 0.071033373 5590860
1.0683088 0.60279071 0.070486501 6640973
1.0613533 0.59899944 0.071265951 920840
1.0642471 0.60381496 0.068106189 3026459
1.0522288 0.58923209 0.070513397 2039063
1.0617386 0.60385495 0.067683652 2566154
1.0489676 0.58761173 0.070579916 1841938
1.0578495 0.60340023 0.066210523 2498830
1.0593475 0.60429597 0.067945257 2040064
1.0456232 0.58870554 0.069010109 1710348
1.0462228 0.59020483 0.06685248 1776141
1.0496387 0.59521854 0.067005783 2039056
1.0508045 0.59607518 0.067486554 1973520
1.0515761 0.59848738 0.064671189 2236939
1.1058638 0.68421704 0.045214847 7564118
1.1083837 0.68522322 0.044763282 7497554
1.1115983 0.69027054 0.043215767 7825744
1.0421623 0.58767426 0.067538053 1774853
1.0453311 0.5923928 0.067017466 1907712
1.0462308 0.59471673 0.066726118 1972749
1.048268 0.59662604 0.065506786 1907979
1.1042792 0.68304563 0.044733122 6774603
1.1074831 0.68920255 0.041183904 7563337
1.1093698 0.69062102 0.042448357 7628871
1.110037 0.69374669 0.042422667 7825223
1.0395259 0.58961385 0.065344125 1709061
1.0434881 0.593961 0.065390676 1906438
1.0443804 0.59623361 0.064765424 2038784
1.0468565 0.5965519 0.06380102 1907726
1.0951995 0.67612493 0.044077829 3288583
1.0969598 0.67900878 0.04337658 4405000
1.097944 0.67927003 0.044019356 4997387
1.1023951 0.68446636 0.042466655 5592922
1.1028156 0.6877923 0.041086033 7496514
1.104875 0.68991017 0.040108576 7563068
1.1059327 0.69278109 0.040542796 7562570
1.0371956 0.58999914 0.065138131 1643015
1.039667 0.59266043 0.064473301 1643780
1.0406214 0.59448981 0.064524323 1840646
1.0959755 0.67874759 0.042733684 4009736
1.097891 0.68304527 0.040574923 6771472
1.1014806 0.69049674 0.040250078 7562310
1.0345411 0.58888829 0.064271122 1708558
1.0354593 0.59112287 0.063310891 1774859
1.036644 0.59433985 0.062512666 1644296
1.0393518 0.59474605 0.062163375 1906952
1.097167 0.68644089 0.040179327 7166980
1.0311853 0.59054595 0.063306004 1840651
1.0327091 0.59083426 0.062777013 1774604
1.0348897 0.59362739 0.061095923 1774597
1.0295651 0.59114546 0.060295075 1643532
1.0304872 0.59264189 0.060948521 1774600
1.026648 0.59195381 0.059558481 1709829
1.0286205 0.59255368 0.058514327 1446926
1.0207421 0.58835143 0.058454007 1642515
1.0231076 0.58980554 0.058787793 1446409
1.0237404 0.59253353 0.057297617 1972482
1.0192314 0.58726591 0.058018953 1182218
1.0201304 0.59166718 0.058027297 1578512
1.0171484 0.58903515 0.056390136 1116424
1.0195194 0.59439188 0.05525741 2038023
1.0147161 0.59185183 0.052738756 1576192
1.016049 0.59492362 0.052903205 2103565
1.0162485 0.59576845 0.054354578 2103816
1.0130713 0.59128529 0.053060561 1773571
1.0134615 0.59484053 0.053235084 2103315
1.016697 0.59721756 0.050652057 2103565
1.0113999 0.59617001 0.049916178 1380627
1.0131367 0.59621096 0.049667329 1249041
1.0092305 0.59642565 0.048801392 1973261
1.0053303 0.59401095 0.047625571 8089935
1.0070961 0.59663796 0.047603637 4145178
1.0015672 0.5951094 0.046297699 8220749
1.0031769 0.59571934 0.046058923 8154956
1.0034233 0.59883279 0.046041995 5326905
0.99845582 0.59506202 0.045122474 8285528
1.0015434 0.59790725 0.044823974 8023383
1.0001311 0.60020584 0.04507181 6707784
0.99780905 0.59851897 0.043883473 8285780
0.99368852 0.59832948 0.042957157 8351825
0.99629384 0.59839094 0.042583972 8285775
1.1067495 0.60225499 0.090458527 5924486
1.1052173 0.60160869 0.090749159 7306139
1.1042093 0.60429311 0.089700654 7305872
1.1064861 0.60570198 0.089990392 5661562
1.1011337 0.60336584 0.086890951 7370880
1.1020935 0.60523385 0.088792935 7765903
1.0987717 0.60297626 0.088021293 8357002
1.0925041 0.60176826 0.087078348 9015179
1.0948682 0.60217071 0.086002246 7765113
1.0970653 0.60404593 0.086978689 8553346
1.0983605 0.60981405 0.083787456 8358293
1.1009622 0.61341447 0.083008125 5729922
1.1020977 0.61439526 0.083640173 6189692
1.1035489 0.61631191 0.082047597 6386058
1.1066606 0.62121415 0.08267273 5921873
1.1078217 0.62393701 0.080535188 2105879
1.0926245 0.60085338 0.085678831 9804964
1.0917494 0.60405147 0.084598914 8620179
1.0937223 0.60549611 0.084981993 7633788
1.0958472 0.60922694 0.084233657 8554635
1.0972294 0.61061001 0.082996324 7635847
1.099733 0.61312693 0.082326785 6781832
1.1018708 0.61550593 0.081576183 6518643
1.104813 0.61948228 0.080744699 5662593
1.0887511 0.60224497 0.083949879 10658978
1.0904622 0.6034863 0.084066823 9474965
1.0898763 0.60688823 0.083405092 8488586
1.0935141 0.60934198 0.082049683 8554634
1.0941079 0.61174065 0.081456855 8226691
1.0837193 0.60068381 0.082650915 11579819
1.0868007 0.60239732 0.082821324 11185323
1.0879656 0.60574198 0.081837252 10461600
1.0909598 0.60801256 0.08122696 8554624
1.0915532 0.61045766 0.080320254 6845018
1.0936155 0.61215013 0.0795867 8751746
1.0820806 0.60090411 0.081297591 11842218
1.0852137 0.60696685 0.079889789 11119267
1.0878755 0.60880476 0.07896091 10264728
1.0886738 0.61039972 0.079691187 7503727
1.0796759 0.60080123 0.080089644 12039597
1.0802703 0.60241121 0.080042258 11842217
1.0820942 0.60582805 0.0793304 11382184
1.0830414 0.60708433 0.078894272 11711400
1.0846312 0.60983932 0.078067556 11054237
1.1016834 0.63791394 0.07134147 4146480
1.1025716 0.63926446 0.069806114 3948062
1.076885 0.60108525 0.0787967 11841446
1.0778953 0.60396546 0.078436449 11973547
1.0799396 0.60632539 0.07716693 12236712
1.0806181 0.60778975 0.077798143 11974307
1.0823282 0.61011267 0.078032151 11646114
1.1017001 0.64248794 0.069317296 4080414
1.1032805 0.64298594 0.067758098 1974272
1.1047726 0.6463629 0.068413332 2499585
1.106126 0.64839226 0.0661778 3288839
1.1058857 0.65126604 0.067104533 3485703
1.071286 0.60182351 0.078284815 11644325
1.0737041 0.60228097 0.077383712 11841442
1.075139 0.60582751 0.077463761 12301724
1.0767096 0.60697109 0.075874165 12236453
1.1021918 0.64632958 0.067998603 1975044
