# .PCD v0.7 - Point Cloud Data file format
VERSION 0.7
FIELDS x y z rgba
SIZE 4 4 4 4
TYPE F F F U
COUNT 1 1 1 1
WIDTH 1157
HEIGHT 1
VIEWPOINT 0 0 0 1 0 0 0
POINTS 1157
DATA ascii
0.9830175 0.52162451 0.070371389 1118750
0.9856236 0.52345848 0.070664823 1052694
0.98659515 0.52552509 0.06975919 1184545
0.98803389 0.52778089 0.069178998 658725
0.99095821 0.53051198 0.069477558 658466
0.99378133 0.53333747 0.069805264 592668
0.95583397 0.49433991 0.072648227 1315882
0.95725769 0.49720952 0.073115885 1644589
0.96023405 0.49825254 0.072538435 1381415
0.9618634 0.50091147 0.073201597 1513261
0.96367043 0.5035882 0.072505713 1446946
0.96576077 0.5056473 0.072628498 1315355
0.96801221 0.50804603 0.073379219 1578791
0.96932983 0.50964403 0.071419418 1184282
0.97136354 0.51268858 0.07155484 1184283
0.97476912 0.51357973 0.070387721 1118489
0.97523475 0.51668942 0.070524335 1053208
0.97760558 0.51846468 0.069591761 921631
0.97863835 0.52150869 0.069167435 461339
0.98064387 0.52317947 0.069188654 592420
0.98341209 0.5249449 0.068981826 526883
0.98610842 0.52751732 0.069515526 527132
0.94494128 0.48606727 0.072875619 1644587
0.94747704 0.48915306 0.07324934 1710382
0.94956303 0.49136463 0.072830915 1579046
0.95136917 0.49362838 0.072814405 1710633
0.95408183 0.49569795 0.072215199 1447202
0.95525134 0.49787647 0.0721367 1381665
0.95751715 0.49974719 0.071873188 1315870
0.95916563 0.50213706 0.071615398 1315868
0.96163356 0.50442386 0.070937753 1250076
0.96461272 0.50614369 0.070639014 1118488
0.96610004 0.50822425 0.07113564 1118746
0.96699417 0.51006657 0.07188493 1184794
0.96894217 0.51361632 0.068664432 657951
0.9715361 0.5154556 0.068869889 526876
0.97381389 0.5174433 0.068869174 592416
0.97680831 0.52139878 0.069338977 592924
1.0445573 0.5996747 0.054351866 7044243
0.93777096 0.48228243 0.072894394 2039087
0.93970549 0.48397028 0.072557032 1710633
0.94173032 0.48589191 0.072691679 1776427
0.9434188 0.48827091 0.072579443 1579043
0.94612253 0.49063665 0.072150707 1381661
0.94789666 0.49267697 0.072402179 1316380
0.95052874 0.49436212 0.072324693 1316125
0.95194155 0.49730545 0.071945786 1315617
0.9532482 0.49961707 0.070099056 855332
0.95590866 0.50170481 0.069675624 723999
0.95667624 0.50403571 0.070291817 921378
0.95950919 0.50530386 0.069174707 723998
0.96129853 0.50817108 0.069548845 724258
0.96393371 0.5106532 0.06896317 724000
0.9656387 0.51304066 0.068538666 724001
0.96765888 0.5145613 0.069609702 790306
0.92257434 0.46860358 0.073592544 1381406
0.92313886 0.47027963 0.074420214 1446943
0.92539924 0.47202367 0.074232876 1381408
0.92793238 0.47460508 0.073486805 1644582
0.92982501 0.47684127 0.073345065 1578787
0.93187457 0.47851968 0.073151886 1775913
0.93394923 0.48014531 0.072898209 1710117
0.93639803 0.48230651 0.072734773 1578784
0.93849409 0.48480287 0.072813094 1579043
0.94066608 0.4873518 0.072162986 1381916
0.9406302 0.49000877 0.070537567 921633
0.94348443 0.49240702 0.070525825 921891
0.94584262 0.49376476 0.069813013 855844
0.94837821 0.49589115 0.070201695 855587
0.94941497 0.49779421 0.070393324 921633
0.87992251 0.42433062 0.081431329 1578525
0.88257462 0.42670831 0.080728114 1578267
0.88473237 0.42881626 0.080995977 1512474
0.88752258 0.43120986 0.081302345 1381403
0.91203821 0.46032661 0.074385941 1316124
0.91394532 0.46220839 0.074354529 1316382
0.91592908 0.46456018 0.074441731 1316381
0.91840231 0.46666935 0.074212909 1710629
0.91991365 0.469212 0.073406935 1841702
0.92214572 0.47193316 0.073113501 1973033
0.92413962 0.47310531 0.073117673 2038828
0.92616475 0.4751755 0.072961748 1907240
0.92888278 0.47734845 0.07260561 1775395
0.92970145 0.47868609 0.073295593 1906980
0.93323457 0.48454612 0.070226133 1052198
0.93591857 0.48630136 0.06993103 1052454
0.9377687 0.48868734 0.070528269 987173
0.86413544 0.41042933 0.083368003 1578781
0.86685336 0.41279963 0.082574546 1578524
0.86938602 0.41447249 0.081791818 1578270
0.87066305 0.41639394 0.082129657 1644062
0.87313324 0.41842896 0.082501352 1578269
0.87595785 0.42053881 0.081890702 1578525
0.87806833 0.42241639 0.081180394 1578271
0.88151658 0.42781791 0.081694722 1643805
0.89779323 0.44932428 0.076249778 1447453
0.89979815 0.45101938 0.075505257 1644575
0.90223271 0.45306343 0.07526201 1579038
0.90449715 0.45477563 0.074742675 1710626
0.90656972 0.45679682 0.074621558 1710627
0.90881777 0.45871139 0.074632406 1710626
0.91080749 0.4607015 0.074214578 1776423
0.91324317 0.46331823 0.074128807 1973544
0.91512835 0.46517378 0.073358417 1907493
0.91731763 0.46798107 0.073635578 1972771
0.9237901 0.47725156 0.070264101 1117736
0.9259041 0.47870204 0.070688009 1052201
0.92861295 0.48116109 0.070204258 1052199
0.93056124 0.48301649 0.070344031 1052454
0.93147814 0.48469034 0.071373701 1052201
0.84661067 0.39437523 0.084686697 1775647
0.84887588 0.39683262 0.084267616 1775390
0.85128433 0.39852458 0.084077179 1775645
0.85391736 0.40054503 0.083347917 1644317
0.85559779 0.402796 0.084221125 1709854
0.85756958 0.40490642 0.083390176 1644316
0.86032897 0.40685004 0.082662463 1578780
0.86229157 0.40841097 0.083147109 1513244
0.88225603 0.43367448 0.07630831 1250586
0.88409239 0.43674162 0.076714039 1316123
0.88664883 0.43900657 0.076213777 1447709
0.88826764 0.44092101 0.076298535 1579039
0.89036274 0.44257328 0.075354278 1579038
0.89256978 0.44489789 0.075505197 1644831
0.89440024 0.44690052 0.074996889 1776162
0.89669156 0.44913408 0.074869275 1776163
0.89926434 0.45113936 0.074053884 1842215
0.90099657 0.45299688 0.074648082 2039597
0.90296614 0.45776936 0.071720719 1118501
0.9064256 0.46146375 0.072135508 1184546
0.9078753 0.46330535 0.07190305 1184546
0.90964329 0.46580935 0.071320653 1119009
0.91234201 0.4670465 0.071551085 1053217
0.91452783 0.46943891 0.07089442 1118754
0.91599417 0.47125819 0.070620477 1184036
0.91833371 0.47343126 0.070464432 1118245
0.92115253 0.4763768 0.070103824 986661
0.83772022 0.38732606 0.083971024 1906973
0.83961546 0.3894591 0.084742606 1840927
0.84199125 0.39103454 0.084672034 1775645
0.8439855 0.39255482 0.084197879 1709853
0.84538126 0.39354026 0.083802998 1775390
0.84764564 0.39667419 0.085306644 1906974
0.86809134 0.42241621 0.078113437 1776160
0.87056315 0.42426166 0.077167273 1578781
0.87262464 0.42647213 0.077626526 1710366
0.87516636 0.42882097 0.077729344 1579038
0.87683332 0.43084785 0.077155828 1710626
0.87897062 0.43271074 0.076699793 1776162
0.88098466 0.43490019 0.076630712 1710369
0.88308251 0.43704277 0.075576961 1973029
0.88461256 0.43955326 0.075347543 2038825
0.88644028 0.44119218 0.075796425 2039080
0.88863748 0.44406629 0.074423552 1710377
0.88996518 0.44707033 0.073496521 1053223
0.89178783 0.44859964 0.073340416 1118759
0.89399004 0.45096958 0.072642267 1119013
0.89577484 0.45312011 0.072517633 1119012
0.8985815 0.45529157 0.072388411 1053223
0.90031409 0.45724261 0.072270095 1118757
0.90292168 0.45924932 0.072952628 1119013
0.90442395 0.46043035 0.071953297 1184548
0.82138538 0.37219611 0.085748672 1841177
0.82392704 0.37508252 0.086101711 1840922
0.8256591 0.37711099 0.085560322 1840922
0.82746118 0.37869421 0.084644616 1906459
0.82929969 0.38083196 0.084347665 1906460
0.83176327 0.3833299 0.084828675 1775389
0.8341881 0.38479662 0.084765971 1709852
0.83619398 0.3861917 0.084394038 1841438
0.85170937 0.40661618 0.079288065 1184539
0.85250509 0.40777987 0.07966125 855827
0.85474968 0.40997344 0.078994751 1053206
0.85702527 0.41221982 0.078693449 1710623
0.85888243 0.414399 0.078642547 1382172
0.86106384 0.41672119 0.078474879 1579039
0.86339271 0.41858238 0.077869058 1710368
0.86597973 0.42077962 0.07787329 1644574
0.86674577 0.42353964 0.076393664 1775651
0.86850989 0.42628118 0.076127231 1513255
0.87116957 0.42769003 0.075804114 1710118
0.87280983 0.43026695 0.076118588 1513255
0.87515843 0.43168533 0.075148702 1512998
0.87657839 0.43461108 0.074651718 1053222
0.87903178 0.43591988 0.074655235 1053477
0.88097298 0.43860716 0.074424446 1053223
0.8826831 0.44058135 0.074324906 1053478
0.88508093 0.44243315 0.073923647 1053222
0.88819295 0.44502428 0.072927833 1053477
0.81617594 0.36940813 0.085983217 1840669
0.81868792 0.37039012 0.086246371 1906713
0.82958531 0.38631615 0.082471848 782
0.83125007 0.38794911 0.081775546 330512
0.83323288 0.38941759 0.08168596 264208
0.83590078 0.39129713 0.081618309 395789
0.83760905 0.39393821 0.081128836 329997
0.83965242 0.39574832 0.080568433 987414
0.84138596 0.39831877 0.080071986 1513246
0.84371275 0.40006879 0.080223799 1118486
0.84549958 0.40255603 0.079818487 1776417
0.84753001 0.40415713 0.079465747 1250585
0.84974563 0.40671119 0.07931304 1710623
0.85132885 0.40939271 0.077821791 2104614
0.85273123 0.41152361 0.077775836 1775909
0.8553642 0.41397735 0.077445328 1776166
0.85716194 0.41620991 0.077020884 1512997
0.85911995 0.41781798 0.076274395 1315878
0.8613764 0.42001134 0.076518536 1512999
0.863644 0.42199752 0.076732457 1250341
0.86557639 0.42400399 0.075701058 987687
0.86725444 0.42629021 0.075681508 987945
0.86949658 0.42838752 0.075146139 1119011
0.81147856 0.36578172 0.085278571 5851967
0.81308901 0.36732987 0.085067689 2824989
0.81795692 0.37601554 0.082414091 657931
0.81979793 0.37762356 0.082523763 658698
0.82208383 0.37905478 0.082635343 592905
0.8232789 0.38173065 0.082022667 986899
0.82567239 0.384159 0.081538498 790035
0.82787567 0.38576165 0.081413984 1053211
0.82974112 0.38837072 0.080916166 1841951
0.8319422 0.39031735 0.080696344 2433576
0.83442187 0.39252976 0.080213904 2630699
0.83663607 0.39459768 0.08010453 2499113
0.83707196 0.39818197 0.078348577 1512738
0.83883643 0.40012297 0.078087926 1052444
0.84076083 0.40137541 0.077956915 1184032
0.84324014 0.40383223 0.07800889 987168
0.84580719 0.40557298 0.077662706 1249828
0.84756702 0.40781927 0.077930033 1118243
0.84995449 0.41034561 0.077141404 790051
0.85244918 0.41250035 0.076896548 1052713
0.85386819 0.41416091 0.076629102 921641
0.81088018 0.37187499 0.081337631 7628378
0.81298935 0.37451884 0.081658721 2168345
0.81565797 0.37636742 0.081608057 1578784
0.81849456 0.37839279 0.081637621 1447453
0.82025063 0.38064238 0.081881583 1578782
0.82178748 0.38276002 0.080431819 461075
0.82400864 0.38492963 0.08036077 789527
0.82549012 0.38794202 0.07954073 460564
0.8270452 0.38986433 0.079156458 395283
0.82932454 0.39224356 0.078935504 329496
0.83164024 0.39373618 0.078313708 723992
0.83388996 0.39633554 0.07840997 592412
0.83591574 0.39803517 0.077893972 855585
0.83764756 0.39971593 0.078474641 197910
0.80938941 0.37382287 0.081178486 7037788
0.81197214 0.37485135 0.080652356 658459
0.81559563 0.38137156 0.079189658 1249304
0.81722236 0.3828612 0.079337835 1315095
0.82010376 0.38468939 0.078921676 1380632
0.82193136 0.38632494 0.07935226 1117717
0.8244828 0.38760558 0.078416944 1249045
0.80974674 0.37812802 0.078962922 4734516
0.81191421 0.37924626 0.078704238 919825
0.81472594 0.38096592 0.078338683 1052186
0.79539067 0.40732056 0.05631119 9600095
0.79768628 0.40786529 0.056693316 9534561
0.79901373 0.41035005 0.056928515 9731943
0.80049664 0.41291597 0.056299329 9338217
0.78912342 0.40287536 0.055601418 9797220
0.79104847 0.40461606 0.055974185 9731682
0.7929976 0.40676594 0.056136191 9600098
0.79469383 0.41039228 0.05630523 9666145
0.77989721 0.39627546 0.055352449 10125664
0.78222978 0.40027159 0.055335462 10060127
0.78513455 0.40245157 0.055290937 9928800
0.78691083 0.40472341 0.055830061 9862755
0.78911853 0.40536204 0.055945814 9797218
0.79162216 0.40925431 0.056173563 9731683
0.79282188 0.41109818 0.053011179 9928554
0.79378313 0.41443622 0.053102195 10060655
0.77737176 0.39759421 0.055119038 10125660
0.77996266 0.39931029 0.055369616 10125663
0.78150821 0.4034425 0.055266321 9994591
0.78303051 0.40412313 0.055266678 9994338
0.78743279 0.40831065 0.051879764 9403236
0.78868818 0.41073364 0.052520752 9468775
0.79114401 0.41380733 0.053170085 10060140
0.77442098 0.39825267 0.05463028 10125149
0.77745748 0.40164548 0.051126122 10190947
0.77848852 0.40423214 0.051830173 10256742
0.78112614 0.40513632 0.051553428 9600099
0.78256309 0.40755761 0.051545441 9271392
0.78471559 0.40982425 0.051882386 9074529
0.78620905 0.41123855 0.05222249 10125671
0.77276349 0.3999477 0.051170051 9533532
0.77512276 0.40228298 0.051014721 9599583
0.77672744 0.40444881 0.050729811 9140318
0.77862734 0.40741542 0.051194847 8877404
0.7805323 0.40900677 0.051038146 8417625
0.77108371 0.40211356 0.050336659 8482648
0.77299392 0.40440416 0.050708294 9074267
1.0535744 0.5549587 0.082749784 6912150
1.0565256 0.55704963 0.082982302 4738391
1.0487134 0.55209219 0.081991911 4805491
1.050643 0.55300713 0.08299166 4674667
1.0512655 0.55595005 0.082498193 5727841
1.0538951 0.55743003 0.082389772 6122608
1.0557641 0.5600099 0.080542743 5661808
1.0407922 0.54716545 0.081724048 5132636
1.0464654 0.554299 0.081110358 3291726
1.0483515 0.55589485 0.081244588 4146260
1.0498773 0.55842322 0.080913484 4082008
1.0528986 0.56082749 0.080463707 6452603
1.053345 0.56232053 0.079416513 7834258
1.0362148 0.54605961 0.08117485 2829885
1.0400472 0.55019915 0.080816448 2895932
1.0421314 0.5539791 0.080636263 1382445
1.044673 0.55394471 0.079803228 3093064
1.0461231 0.55746734 0.080652177 3290697
1.0476938 0.55962598 0.079815805 4475221
1.0516868 0.56293654 0.07818228 5596787
1.0322555 0.54429179 0.080225408 1448498
1.0333953 0.54748797 0.079681695 1842740
1.0370154 0.55250603 0.078605115 3290178
1.0385262 0.55369645 0.079831183 1579553
1.0426033 0.55664921 0.077761829 4736606
1.0440822 0.55809236 0.078518033 3224134
1.045925 0.56050456 0.078034878 4342111
1.0497068 0.56420565 0.077491283 5200488
1.0289239 0.543917 0.07889688 2763582
1.0297527 0.54743606 0.07885778 1251117
1.0323532 0.54909921 0.078398168 2829630
1.033113 0.55044073 0.079784811 987677
1.0362806 0.55344468 0.076963782 5789037
1.0397923 0.55772054 0.076965928 5262688
1.0419358 0.56131625 0.077329934 3354947
1.0438646 0.5628165 0.076208532 3750492
1.0474637 0.56678414 0.076110482 4541035
1.0215583 0.54028463 0.07763207 4012624
1.0257796 0.54482245 0.07739526 3157567
1.0281117 0.54796147 0.079003394 987937
1.0306665 0.5501318 0.076747715 4078409
1.0305719 0.5518353 0.075371385 3420493
1.0339971 0.55484653 0.076160252 4736341
1.0353074 0.55835456 0.076399565 3749438
1.0369288 0.55954075 0.075625479 4472662
1.039884 0.56337857 0.075882137 3091530
1.041374 0.56263304 0.073868692 4408170
1.0430603 0.56537068 0.073789895 3750491
1.0453197 0.56835514 0.073646545 4343134
1.04831 0.57018918 0.073531449 6385281
1.0193799 0.54209411 0.076390326 3486276
1.0223913 0.54563677 0.07676816 1973809
1.0238754 0.54773951 0.077010751 987942
1.0250435 0.55004936 0.076173007 1644839
1.0275595 0.55197167 0.075269401 3091005
1.0295922 0.55495209 0.075950563 2235945
1.0313019 0.55592835 0.075304747 2828600
1.0333704 0.55884528 0.073917687 3354703
1.0373424 0.56015915 0.073350906 5855350
1.0389438 0.56379235 0.072996795 4013397
1.0405314 0.56639844 0.072829068 2763579
1.0406289 0.56844318 0.072730184 2171465
1.0419878 0.57050288 0.072163522 3158071
1.0458634 0.57229656 0.072624147 3818583
1.0498738 0.57725805 0.06914556 7373715
1.0117629 0.53855157 0.075618923 2762545
1.0137336 0.53847826 0.075843036 3420735
1.0159669 0.54242468 0.075813293 2630708
1.0182378 0.54624236 0.075988293 1775400
1.0195283 0.5462147 0.075073481 2631225
1.0225133 0.55030191 0.073943794 2894399
1.0237364 0.55054146 0.074844718 2762298
1.0262988 0.55388504 0.072080731 2828603
1.0274289 0.55596375 0.073398829 2236219
1.0293573 0.55775678 0.071216762 3026232
1.0306433 0.55903828 0.071882665 2369343
1.0347379 0.5623703 0.071903408 4868442
1.0359479 0.56559527 0.072194695 2434616
1.0383582 0.56814373 0.071985185 1645350
1.0024559 0.53062618 0.075088263 2630967
1.0042734 0.53324711 0.074643314 2302519
1.0070419 0.53529817 0.074884593 2960437
1.0088199 0.53653789 0.074766159 2762815
1.00928 0.53916061 0.075142682 1907236
1.011552 0.54281425 0.075165689 1446687
1.0134115 0.54279953 0.074471116 2367796
1.0168183 0.54650098 0.074680507 2039085
1.0191185 0.54878515 0.072201729 1973801
1.0193975 0.55044866 0.072821915 2105146
1.0220503 0.55250263 0.072423577 1908013
1.0241278 0.55457467 0.072769105 1973039
1.0243487 0.55642474 0.071499944 1710391
1.0274495 0.55823237 0.071282685 1841958
1.0295317 0.56153476 0.070696771 1908268
1.0317856 0.56394815 0.071179688 1974319
1.0344524 0.56627083 0.071675599 1447456
0.99569935 0.52609235 0.075194061 1644326
0.99989319 0.53103912 0.074625552 1841705
1.0022494 0.53423327 0.074026704 1578291
1.0038147 0.53582573 0.074315727 1644325
1.0059383 0.53858459 0.074600756 1446690
1.0072776 0.54226518 0.073755383 1249577
1.0103408 0.54245257 0.073673189 1644594
1.0114739 0.545591 0.072435498 1381666
1.0142535 0.54750466 0.07247442 1447211
1.0167526 0.55018306 0.071467876 1250087
1.0194746 0.55393624 0.071616828 1052448
1.0215582 0.55649984 0.07150954 921117
1.0244299 0.55923349 0.071103513 1315099
1.0261768 0.56056452 0.071324825 986670
1.02704 0.56239569 0.070803702 1052693
1.0304751 0.56585085 0.070193946 1250585
0.98970097 0.52340412 0.074367821 1315103
0.99267805 0.5263148 0.074440181 1315364
0.99321139 0.52982783 0.074537277 1447206
0.99603462 0.53103316 0.073931575 1315363
0.9980334 0.53357875 0.073930442 1512490
1.0004498 0.53512824 0.073970258 1249573
1.0027159 0.53810441 0.073934317 1250338
1.0041142 0.54023159 0.071059704 1052950
1.0069456 0.54239917 0.071143091 1184281
1.007198 0.54483199 0.072040558 1052697
1.0098436 0.54620582 0.07073164 855330
1.0121976 0.5489248 0.070688605 986908
1.0136474 0.55123615 0.071166396 855323
1.0163594 0.55376625 0.071548522 855324
0.98238015 0.51997066 0.073415101 1381157
0.98411179 0.52221477 0.073660314 1381412
0.98650062 0.52353531 0.074007034 1446951
0.98825288 0.52616894 0.074287534 1512742
0.99062145 0.52810431 0.074371338 1512743
0.99196702 0.52970839 0.074887395 1512992
0.99529415 0.53327447 0.07080406 986647
0.99512935 0.53555298 0.071437538 1052954
0.9976958 0.53737026 0.071162403 987157
1.0007585 0.53936136 0.070791006 855579
1.0026267 0.54157442 0.071267903 855320
1.0045398 0.54250455 0.070848525 921117
1.0057442 0.54575527 0.070180714 592412
1.0086381 0.54840702 0.070630252 592160
1.0508929 0.59763974 0.060183167 9011594
0.97261333 0.51201582 0.073439121 1446944
0.97422898 0.51472509 0.073949397 1710378
0.97625995 0.51683193 0.073906481 1644582
0.97829831 0.51903445 0.073694527 1644325
0.9805907 0.52066648 0.073951483 1644328
0.98207819 0.52257091 0.073218763 1447458
0.98339617 0.52573645 0.071679175 1184537
0.98599422 0.52744186 0.071075559 1118487
0.9878971 0.52973199 0.071765602 1118742
0.99074018 0.53155768 0.071395695 987159
0.99223137 0.53397167 0.070771217 855580
0.99413133 0.53618371 0.070619345 789791
0.99525172 0.53940821 0.070373654 790055
0.99813855 0.53986561 0.069835007 592417
0.99987793 0.54343951 0.069808602 658468
1.0027437 0.54586816 0.070367038 789793
1.0479279 0.6002382 0.058403313 5856094
0.96068728 0.5036149 0.074948251 2039601
0.96242231 0.50423068 0.074526727 1908016
0.96447194 0.50716448 0.074447274 1710375
0.96619052 0.5083847 0.074185193 1776169
0.96866953 0.51055431 0.07406646 1710632
0.97064346 0.51310062 0.073834419 1644580
0.972175 0.51492846 0.07295996 1381919
0.97340012 0.51797068 0.072352588 1184794
0.97580087 0.52019304 0.071793199 1185050
0.97863579 0.52245855 0.071343601 987421
0.98013949 0.52324879 0.071839273 1184537
0.98197156 0.52654576 0.071487367 1118496
0.98388088 0.52854991 0.070869446 921631
0.98696625 0.53035188 0.07001698 658464
0.98869753 0.53283477 0.070574939 855840
1.0448283 0.59853876 0.057419181 5595249
1.0465869 0.59918988 0.05765003 5463149
0.95056415 0.49530581 0.074880421 2105137
0.95253599 0.49774775 0.075034678 2170930
0.95412916 0.49954557 0.07464242 1841959
0.95643556 0.50130308 0.073999584 1644835
0.95851481 0.50321317 0.074189246 1710371
0.9602626 0.5053817 0.073543727 1447455
0.96273363 0.50756085 0.073158801 1381660
0.96497369 0.51009822 0.073107958 1250586
0.96773064 0.51229835 0.072542131 1184795
0.96864223 0.51413822 0.073359907 1316379
0.9705258 0.51762235 0.071212411 987682
0.97204518 0.51995116 0.070504665 921636
0.97429502 0.52181768 0.070798934 856355
0.97665966 0.52309716 0.070532084 921637
0.97858191 0.52607125 0.071022153 921893
0.93933284 0.4860321 0.075110316 2236468
0.94037354 0.48784816 0.075510919 2039342
0.94236386 0.48991829 0.074789345 1710370
0.9448632 0.49160033 0.074789941 1776679
0.94730312 0.49390826 0.074724615 1710626
0.94922602 0.4956466 0.074503958 1710369
0.95120186 0.49776867 0.074049592 1513246
0.95377088 0.49994299 0.073543012 1316379
0.95482755 0.50335062 0.070885956 987169
0.95835716 0.50777692 0.071235597 987683
0.96014881 0.50994849 0.07078141 987684
0.96195388 0.51166391 0.070818901 987426
0.96471059 0.51392531 0.070340455 921892
0.9667992 0.51613796 0.071126282 987428
0.9247629 0.4737581 0.075843871 1710628
0.92652142 0.47616288 0.076234043 2302511
0.92851424 0.47811744 0.076037228 2105131
0.93069798 0.48014456 0.075511277 2104875
0.93327385 0.4820812 0.075496614 1973290
0.93534899 0.48394617 0.07544601 1973290
0.93739867 0.48597333 0.074559093 1841957
0.9394573 0.48786116 0.074704826 1579042
0.94069982 0.49212971 0.072493076 1118756
0.94187963 0.49364439 0.072950959 1118756
0.94494617 0.49595988 0.071944892 1053218
0.94684124 0.49790707 0.072916865 1053219
0.94924366 0.50031447 0.0722785 1052963
0.95105547 0.50114858 0.07158947 1052963
0.95303214 0.50378752 0.071980774 987681
0.95565701 0.50596189 0.071496308 987681
0.87705064 0.42402226 0.084965527 1710368
0.87915993 0.42601287 0.084314346 1709855
0.88159692 0.42847005 0.083863497 1644065
0.88314092 0.43040949 0.083756566 1709600
0.88496685 0.43169415 0.083031058 1644063
0.91126704 0.46247277 0.077196181 1579296
0.91299087 0.46396229 0.077082098 1448223
0.91468203 0.4652321 0.077193797 1513760
0.91702628 0.46783489 0.076693535 1841700
0.91957468 0.47009724 0.076320529 2236458
0.9212203 0.47238591 0.075605214 2301998
0.92296064 0.47449797 0.075308025 2169898
0.92554665 0.47638679 0.075383365 2170156
0.92789185 0.47864753 0.07536298 2169895
0.93239737 0.48632208 0.072547257 1117740
0.93451232 0.48770389 0.072968423 1249836
0.93758899 0.49017319 0.07258594 1118504
0.93888909 0.49131572 0.073292136 1184298
1.0403985 0.6087423 0.051060081 6844258
0.86152577 0.41029909 0.086038172 1709600
0.86359251 0.41186279 0.085419238 1775648
0.86598545 0.41416645 0.085254192 1709854
0.86817867 0.41588795 0.084991932 1709600
0.87035739 0.41754931 0.084816456 1709854
0.87256575 0.41989583 0.084614933 1775646
0.87512827 0.42224956 0.08479172 1775903
0.87743044 0.42402583 0.08318913 1710366
0.87953085 0.42564669 0.082673132 1643806
0.89786434 0.45009005 0.077792108 1513503
0.89865434 0.45190293 0.077829421 1776161
0.90107882 0.45377639 0.077382445 1841955
0.90329075 0.45595539 0.077762723 1907749
0.90566397 0.45798621 0.077335536 1907749
0.90783584 0.45979762 0.077026367 1907752
0.90995097 0.46188888 0.076884985 2039079
0.91193259 0.46412811 0.076129019 2170669
0.91440809 0.46646616 0.075866222 2104617
0.91491079 0.46835986 0.076564014 2368051
0.91813564 0.47534212 0.074452698 2499638
0.92049497 0.47693518 0.073212385 1973554
0.92255282 0.47880536 0.073227286 1841970
0.92569995 0.48025954 0.072657108 1184048
0.92737031 0.48248172 0.073331058 1578802
0.92975807 0.48476768 0.072692037 1381166
0.84621078 0.39523992 0.085987747 1841440
0.84862292 0.39869037 0.08629632 1512474
0.84985358 0.40010324 0.086688936 1184024
0.85181934 0.40144131 0.086361766 1447195
0.85415912 0.40350983 0.085830808 1578524
0.85663688 0.40624049 0.085951269 1447194
0.85836685 0.40782788 0.086027801 1381661
0.86083633 0.40908369 0.085173488 1578782
0.88095438 0.4357909 0.079344213 1119771
0.88485354 0.4389877 0.078095734 1316639
0.88690388 0.44211572 0.078777492 1644832
0.88964427 0.44420317 0.078265786 1644833
0.89197969 0.44674143 0.077908576 1907749
0.89399147 0.44854006 0.077923596 1841956
0.8958742 0.45023999 0.077082634 1973542
0.89734209 0.4528088 0.076962411 2302002
0.8999542 0.45426172 0.077222645 2236721
0.90308452 0.46045676 0.074414015 1315879
0.90455234 0.46221408 0.074173987 1250342
0.90852666 0.46668696 0.073632777 1185059
0.91204178 0.46849823 0.073699236 1184805
0.91382033 0.47070417 0.073602557 1250341
0.91563618 0.4726454 0.073462665 1315366
0.9179641 0.47450683 0.072787523 1380905
0.91932726 0.47591081 0.071612537 1184039
0.83706117 0.38840225 0.086258471 1512474
0.83823758 0.38996631 0.08648777 1118228
0.84013295 0.39154571 0.08693552 921620
0.84254682 0.39378393 0.087054968 789780
0.8450942 0.39591995 0.086540282 1249816
0.84729946 0.3981092 0.08632189 1381399
0.86824846 0.42424184 0.079408228 2301991
0.8693102 0.42580518 0.079812825 1579038
0.87194687 0.42775148 0.079740882 1447709
0.87370074 0.42977247 0.079950631 1447453
0.87632465 0.43216038 0.079595745 1381917
0.87791157 0.4341251 0.078999996 1841957
0.88000715 0.43644053 0.079097927 1579041
0.88227928 0.43838066 0.078403354 1841955
0.88429701 0.4404417 0.078234375 1907748
0.88545573 0.44369778 0.077100039 1907758
0.88717902 0.44547358 0.076294005 1513260
0.88942277 0.44758296 0.07639879 1447467
0.89106369 0.44988707 0.076090038 1184555
0.89331383 0.45233408 0.075309336 1184554
0.89551318 0.4548282 0.074543297 1184553
0.89713776 0.45682955 0.075257719 1249835
0.90023804 0.45861945 0.074467897 1184551
0.90136933 0.45979661 0.075048029 1315880
0.90293598 0.4621551 0.075607181 1381419
0.9061693 0.46469557 0.073483229 1250595
0.81861854 0.37321073 0.089485228 1972762
0.82056582 0.37355784 0.088269711 1906970
0.82225752 0.37532866 0.088192105 1709337
0.82458913 0.37862647 0.088029087 1184279
0.82613146 0.38093174 0.087363303 789525
0.82846594 0.3827152 0.087134123 460562
0.83075821 0.38469082 0.086423397 592398
0.83325279 0.3867321 0.087002158 592658
0.83489656 0.38817891 0.087119997 460817
0.83674532 0.38991663 0.087122798 263945
0.8503803 0.40852922 0.082542837 70191
0.85204905 0.40981299 0.081674993 266013
0.85407889 0.41158673 0.081048548 132620
0.85587275 0.41411927 0.080737948 790294
0.85810173 0.41612688 0.080971897 790818
0.86009347 0.41797882 0.080759645 1184794
0.8621465 0.4198572 0.080617726 921627
0.86428273 0.42174035 0.080235779 1316380
0.86655575 0.42394888 0.080059767 1184540
0.86784101 0.42723131 0.078616142 1184032
0.8697058 0.42965522 0.078423381 855842
0.87184358 0.43138015 0.078420043 1250084
0.8739633 0.43346301 0.077951908 1118757
0.87578344 0.4363001 0.076885879 724516
0.87815821 0.43776277 0.076805413 987688
0.87969279 0.44000211 0.077295601 790311
0.88258541 0.441872 0.076439977 987433
0.88438916 0.44365603 0.07648021 1184555
0.81333822 0.36893889 0.087872148 1772813
0.81516731 0.36995885 0.088012874 1840670
0.81789058 0.37223345 0.08851701 1906714
0.82773006 0.38200074 0.085860789 855309
0.83012253 0.38918397 0.084151745 4220044
0.83206171 0.39075056 0.084021986 2702193
0.83396494 0.39295292 0.083655953 3952745
0.83597505 0.3951782 0.082959116 1254231
0.83812964 0.39763051 0.082575977 990260
0.84006339 0.39982355 0.082912147 1451077
0.84227026 0.40167227 0.082200587 1515829
0.84415811 0.40395829 0.082087219 991046
0.84651041 0.40595478 0.081834197 1253169
0.84876519 0.40803656 0.081682026 923174
0.85034949 0.41068915 0.080855966 1250078
0.8528955 0.41264874 0.080706656 1053732
0.85398102 0.41571695 0.079588175 658722
0.85622036 0.41715667 0.079054654 658717
0.85820353 0.41940495 0.079310596 395810
0.86049116 0.4212701 0.078875303 855328
0.86268455 0.42327461 0.078740299 921374
0.86485821 0.42596912 0.07850951 329755
0.81064641 0.36757553 0.088073671 5127731
0.81200898 0.3686057 0.087761819 2233106
0.81727362 0.37770376 0.086408854 723980
0.81850874 0.37864104 0.085012734 1184275
0.82068503 0.38086605 0.084949851 1249811
0.82267702 0.3832373 0.084887624 4275774
0.82445443 0.38501483 0.083773196 3488338
0.82640469 0.38730809 0.084039152 3818860
0.82870096 0.38910776 0.083336532 2962497
0.83053327 0.39209116 0.083552957 858931
0.83325493 0.39358467 0.082520783 921883
0.83549207 0.39623269 0.083101392 462368
0.83703971 0.39660692 0.081952512 1645345
0.83868194 0.4016408 0.079957724 1302
0.84014833 0.40351993 0.080072939 133934
0.8420133 0.4054527 0.080518961 199739
0.84446359 0.40748322 0.080122769 332090
0.84712446 0.40966409 0.07998234 198698
0.84872103 0.41133046 0.080071449 264494
0.85127103 0.41369054 0.079156339 133160
0.85236132 0.41529652 0.079208195 544
0.80934334 0.37257737 0.085040987 8153690
0.81030548 0.37500978 0.085319102 4404534
0.8128345 0.37600052 0.083929062 1511707
0.81539881 0.37811819 0.084594786 1841698
0.81710351 0.37915432 0.083874524 1184538
0.81922686 0.381675 0.08378607 526609
0.8211298 0.3839581 0.083015323 197129
0.8225261 0.38644052 0.083439767 5331036
0.82501614 0.38901606 0.08196336 3423094
0.82692838 0.39103898 0.081637442 1916289
0.82803905 0.39362168 0.081123412 2898031
0.8308022 0.39564878 0.080761552 2173792
0.8324523 0.39753339 0.08085674 992102
0.83487403 0.39979395 0.08038348 464209
0.83695209 0.40117887 0.080328703 727625
0.8073771 0.37347835 0.083530366 8090981
0.80938202 0.37466919 0.083352268 5525840
0.81158495 0.37632191 0.083979607 132377
0.81222796 0.38036528 0.082059145 657424
0.81407559 0.38168389 0.082327306 1183767
0.8168968 0.38369125 0.081750453 1315349
0.81871128 0.38536322 0.082076073 1051663
0.82150197 0.38771778 0.08130002 854283
0.82259876 0.38896775 0.081867278 1446716
0.82555044 0.39217418 0.08089751 1843542
0.82717896 0.39258063 0.079583049 66331
0.80651802 0.37819177 0.082455337 9403488
0.80880296 0.37846997 0.081492066 5458238
0.81134605 0.37979591 0.081351638 328203
0.80680162 0.37783787 0.080471814 9271899
0.79856789 0.41351175 0.057616293 9863787
0.79622906 0.41344583 0.057079554 9600355
0.79702169 0.41694766 0.057255924 9666404
0.79958677 0.41693488 0.055577993 9075305
0.78845942 0.40873158 0.055794716 9863267
0.789922 0.40908968 0.05594486 9797473
0.79152215 0.41307068 0.056005001 9666144
0.79430503 0.41468549 0.05684793 9666144
0.77844834 0.40138203 0.05575639 10060125
0.7801168 0.40291089 0.055237949 9994590
0.78232062 0.40679801 0.055469155 9928804
0.78459632 0.4073872 0.05563879 9928549
0.78586602 0.41016793 0.055631459 9863267
0.78832155 0.41267663 0.055421233 9797726
0.78931522 0.41353369 0.053189397 10125675
0.79222405 0.41704872 0.05330044 10191725
0.79387295 0.4177984 0.052832603 9929844
0.7761246 0.40135568 0.055144131 10060122
0.77778339 0.40499943 0.055469453 10060126
0.78000283 0.40588391 0.055517912 9994336
0.78226811 0.40994954 0.055557072 9928804
0.78603411 0.41379461 0.052381516 9600102
0.78842431 0.41684848 0.053095639 10125930
0.79032421 0.41694856 0.05319804 10060395
0.79039466 0.42045712 0.052901983 10126189
0.77234244 0.40161335 0.054719746 10059867
0.77372754 0.40330786 0.055423558 10059868
0.77614385 0.40499336 0.054938734 10125661
0.77771044 0.40695667 0.051978886 10191206
0.77964264 0.4101364 0.052181482 10190950
0.7820214 0.41214132 0.051790535 9534563
0.78312379 0.41409808 0.051979482 9271651
0.78509176 0.41695052 0.052392721 9600358
0.7705124 0.40268281 0.051768422 9993308
0.77230895 0.40662134 0.051448166 10190690
0.77431846 0.40723068 0.051199853 9665376
0.77616864 0.40980273 0.051596642 9599842
0.77828085 0.41281253 0.051260531 9008990
0.77964127 0.41466293 0.051489294 9074273
0.76797163 0.40537521 0.051270902 9467739
0.76997793 0.40658993 0.050655127 9074011
0.77225429 0.40941322 0.050805986 9139804
0.77426904 0.41037831 0.0505687 8614745
1.0467267 0.56051779 0.081116617 1119787
1.0493633 0.56306493 0.081238747 1647910
1.0391859 0.55616587 0.079968631 592663
1.0426937 0.56012696 0.079175591 921886
1.0447013 0.56296098 0.081099391 922143
1.0463729 0.56371242 0.079676569 2303792
1.0313709 0.55106056 0.079959571 856090
1.0346797 0.55488646 0.079541266 593172
1.0365863 0.55719721 0.080121338 790552
1.0389308 0.5589503 0.080253601 724761
1.0411328 0.56131828 0.080017984 987672
1.0420413 0.56318021 0.080581784 987929
1.0447896 0.56588805 0.077090681 3486798
1.0456688 0.56917393 0.077237368 3946823
1.0492556 0.56989497 0.077076793 5726809
1.0285323 0.55183667 0.079251528 1053469
1.0318887 0.55387723 0.079853594 921878
1.0323732 0.55673862 0.079830527 922391
1.0396184 0.5618853 0.076700568 2960441
1.0409248 0.56561989 0.076936603 2038826
1.0428436 0.5682416 0.076611757 2038833
1.0446179 0.56995982 0.076876283 1775921
1.0473738 0.57201743 0.076025665 3226425
1.0247192 0.55065632 0.07788372 791069
1.0252436 0.55324483 0.078023493 1119256
1.0310824 0.55921555 0.07557404 1644320
1.0326998 0.55856657 0.076087296 2433832
1.0351619 0.56269169 0.075932264 1381155
1.0366656 0.56428015 0.075677156 1775913
1.0373733 0.56618679 0.076257229 1249562
1.0403197 0.56945741 0.0748896 1315632
1.0430096 0.57170635 0.074391186 1513525
1.0450561 0.57323992 0.073399067 2041144
1.049227 0.57666063 0.072940946 5726549
1.0216931 0.55086672 0.076923788 1119264
1.0233898 0.55429101 0.077803731 1053721
1.024953 0.55575722 0.075752139 1512222
1.0269351 0.55667043 0.075740516 1578022
1.029595 0.55935383 0.075447619 1315104
1.0304447 0.5619238 0.075576723 1380901
1.0326084 0.56348753 0.075407684 1052193
1.0373943 0.56828547 0.075376511 986913
1.038357 0.5686754 0.072661519 1184819
1.0402507 0.57295752 0.072596312 1052964
1.0421615 0.57442671 0.072768509 921629
1.0445576 0.57720518 0.07359314 2039328
1.0129093 0.54577327 0.075799465 1381149
1.0147154 0.54825044 0.075607896 1381149
1.017096 0.55039036 0.075586319 1380894
1.0188916 0.55224937 0.07598424 1447197
1.0206254 0.55406135 0.074777603 1315617
1.0228419 0.55632198 0.075167298 1381155
1.0238706 0.55954945 0.075164199 1578286
1.0270405 0.56021821 0.074925721 1380902
1.0323167 0.56722754 0.071451604 395031
1.0346209 0.57026863 0.07193768 723989
1.0368209 0.57231677 0.072013795 723993
1.0386283 0.57491589 0.072118282 1315609
1.0414331 0.5777238 0.072267532 592656
1.0448121 0.58090866 0.069252789 3357231
1.0069987 0.54289365 0.075552762 1512479
1.0091577 0.54411399 0.075677097 1446943
1.0112017 0.54721183 0.075848222 1446944
1.0127029 0.54948217 0.074923992 1446949
1.0151328 0.55110621 0.074056208 1381159
1.0173099 0.5534761 0.074070394 1446952
1.0185435 0.55563951 0.074360967 1250337
1.0218101 0.55975151 0.071644962 855577
1.0245163 0.56187606 0.070918918 986655
1.0262327 0.56506085 0.071213365 986912
1.0284235 0.56679749 0.071493804 790045
1.0309615 0.56872988 0.072288871 724248
1.0323656 0.56964505 0.072035432 789524
0.9951281 0.53380525 0.076049805 1578272
0.99675328 0.53488737 0.075453699 1578018
0.99946129 0.53738773 0.074947357 1578277
1.0016155 0.53943527 0.075306594 1512992
1.0032762 0.54184949 0.075030625 1579046
1.0051609 0.54298282 0.074370027 1512999
1.0069668 0.54517865 0.074229538 1579054
1.0091854 0.5475198 0.073453128 1316132
1.0109613 0.54982245 0.073263168 1250338
1.0119423 0.55283022 0.073118567 1315611
1.0146028 0.55427563 0.072258532 1052700
1.0169488 0.55664039 0.071961701 986912
1.0186062 0.55935943 0.072242618 1118490
1.0207043 0.56124008 0.071906865 1052956
1.0229384 0.56400514 0.071670771 1118495
1.0248605 0.56549215 0.07139653 1250073
1.0444238 0.58771455 0.065794468 6253908
0.98360032 0.52413201 0.07551378 1578785
0.9852984 0.52618992 0.075444579 1644321
0.98652232 0.52754951 0.075642347 1841963
0.9890908 0.52953589 0.075798571 1710117
0.99119782 0.53142107 0.075764954 1775658
0.99325043 0.53296506 0.07533145 1710379
0.99525183 0.53574741 0.075173795 1776432
0.99709117 0.53863567 0.074111998 1447716
0.9987765 0.54065585 0.07360661 1316126
1.0006717 0.54310298 0.073135614 1184538
1.0034974 0.54440939 0.072897971 1250074
1.0047817 0.5477106 0.072515786 1118750
1.007185 0.5494597 0.07195133 1053215
1.0091639 0.55162811 0.071814299 987425
1.0114492 0.55357337 0.071919799 921638
1.0132979 0.55676305 0.072144032 1118504
0.97328711 0.51648825 0.075834334 1907756
0.97514367 0.51879358 0.075915873 1907754
0.97714376 0.51997876 0.076184332 1907754
0.97919214 0.52182192 0.076105714 1841961
0.98187971 0.52437645 0.076290548 1842218
0.98354292 0.52527404 0.076079786 1841963
0.98704302 0.53168476 0.074827373 1513505
0.98858482 0.53271085 0.073666394 1250075
0.99120229 0.5351513 0.073667884 1250074
0.99420834 0.53745019 0.073419154 1250330
0.99693745 0.54241168 0.070633054 921637
0.99791622 0.54436612 0.071656764 1053223
1.0007781 0.54642904 0.071326971 987431
1.0026402 0.54850906 0.071070611 987427
1.0046301 0.54995024 0.072292626 1119269
1.0429101 0.59477395 0.063435793 8156510
1.0481822 0.60068977 0.060910046 7105114
0.96128368 0.5060634 0.076817334 2171185
0.96291399 0.50831687 0.076224625 1973546
0.96509552 0.51065254 0.07642144 1907753
0.96754587 0.51251662 0.076162994 1973804
0.97014451 0.51483232 0.076330483 1842216
0.97158551 0.51666462 0.075983167 1644577
0.97299266 0.51938939 0.074989378 1381918
0.97538137 0.52200276 0.073741078 1316380
0.97708726 0.52339971 0.074121237 1250843
0.97975343 0.52576661 0.073900819 1316122
0.98124051 0.52818751 0.073411524 1184544
0.98376358 0.52998352 0.072939813 1184542
0.98527932 0.53210342 0.07306546 1118753
0.9877547 0.53489101 0.072823405 1053220
0.98966002 0.53602266 0.072011411 987427
0.99219024 0.53874159 0.071838081 922149
0.9933821 0.54069436 0.072064936 1053479
0.99511528 0.54256344 0.071870625 987686
1.0429147 0.5974251 0.059000611 6713701
1.0438609 0.59915829 0.059769213 6907755
1.0462648 0.60160255 0.060044587 8945794
0.94954723 0.49692255 0.077777267 2302770
0.95117986 0.49902403 0.077397704 2039081
0.95322013 0.50085127 0.077079654 1842473
0.95546114 0.50287807 0.076703548 1907751
0.95760107 0.50501299 0.076411784 1776421
0.95968914 0.50729799 0.076238453 1710370
0.96123958 0.50924098 0.075480044 1513502
0.96348757 0.51154077 0.075510144 1382173
0.96610808 0.5138737 0.074898541 1382174
0.96798038 0.5157944 0.074792266 1382174
0.96955472 0.51799893 0.074333847 1316129
0.97130907 0.52181661 0.073058665 1119012
0.9730922 0.52297896 0.073264837 1119012
0.97561753 0.52460939 0.072993696 1053476
0.97762519 0.52681458 0.073008776 1053477
0.93515599 0.48516011 0.078848422 3092526
0.93635571 0.48739925 0.079205096 2171426
0.93947029 0.48922676 0.077875078 1841959
0.94168591 0.49093121 0.077919245 2039341
0.94404221 0.49317494 0.077288508 1842213
0.94632053 0.49495178 0.077155054 1908008
0.94842863 0.49720979 0.076950431 1776420
0.95066977 0.4988279 0.076717913 1513245
0.95484543 0.50744545 0.074165761 1119013
0.95651942 0.50844043 0.073334932 1119012
0.95822752 0.51117361 0.073688686 1184550
0.96100712 0.51400816 0.073151469 1184550
0.96374762 0.5154683 0.072977543 1118759
0.96585548 0.51706481 0.073079526 1053478
0.96764779 0.51851475 0.073074341 1118757
0.92130506 0.47177854 0.078117967 3552565
0.92409372 0.47545224 0.078155756 2960688
0.92552763 0.47770399 0.078599036 3289147
0.92726552 0.4790704 0.078075469 3354939
0.92955852 0.48113653 0.078196228 3289143
0.93205953 0.48327512 0.077875257 2828595
0.93461621 0.48513621 0.077281594 2630962
0.93664676 0.48739189 0.077669978 2499629
0.9381783 0.48873088 0.077289402 1907492
0.9396987 0.49120891 0.075418353 1578537
0.94081724 0.49498108 0.075338423 1184554
0.94318891 0.49673766 0.073954761 1119012
0.94490647 0.49911875 0.074622214 1250341
0.94698161 0.50126112 0.074617863 1184550
0.94944048 0.50279039 0.074214041 1250086
0.95180774 0.5052346 0.073963225 1119012
0.96011925 0.51229167 0.071674824 1053221
1.0392091 0.60693395 0.055170536 4535335
0.87276119 0.42086846 0.087118626 1447453
0.87393594 0.42249453 0.087313831 1447453
0.87596089 0.42503312 0.087397158 987416
0.87865895 0.42702946 0.08648628 1447198
0.88036835 0.43011236 0.086742401 1118236
0.8822912 0.43184727 0.086184442 1512737
0.88423657 0.43331179 0.085720897 1512994
0.90679663 0.45941105 0.079708934 1513765
0.90949988 0.46360645 0.080334604 1053466
0.91149163 0.46515131 0.079369068 1579298
0.91439629 0.46720257 0.079429567 1447969
0.91639346 0.46961957 0.079095781 1973546
0.91811395 0.47137958 0.078353226 3025205
0.92005777 0.47375974 0.078696251 3617594
0.92244339 0.47568458 0.077913702 3420216
0.92487502 0.47820479 0.078400016 3288885
0.92686355 0.47988117 0.077659011 3025457
0.92999876 0.48604304 0.075231314 2894140
0.93116689 0.4875592 0.075643599 2434100
0.93427467 0.48929286 0.074947298 2236976
0.9361999 0.49131933 0.075768292 1776430
0.93903673 0.49424633 0.075986505 1315631
0.9422189 0.49867889 0.075110674 1315880
0.8609584 0.41163316 0.087982595 527123
0.86306828 0.41322187 0.087517798 855574
0.86489928 0.4150666 0.087827146 659475
0.86673272 0.41714823 0.087979853 658712
0.86937147 0.41901252 0.0875175 856088
0.87136811 0.42039883 0.087056279 1184793
0.87352747 0.42373112 0.088411152 330002
0.8752014 0.42407262 0.086608052 1447453
0.89241868 0.44719252 0.081271827 329998
0.89240742 0.44862783 0.082420588 2338
0.89548951 0.4513889 0.081000328 264464
0.89841402 0.4535912 0.080038726 1119259
0.90032423 0.45551217 0.080348611 1447708
0.9023391 0.45748502 0.079809606 1513252
0.90440547 0.45931315 0.079649985 1907496
0.90682435 0.46133426 0.079888344 1644836
0.90889692 0.46323612 0.079536676 1907752
0.91174626 0.46659058 0.079062581 2302256
0.91341269 0.46801156 0.078200102 2367790
0.91509199 0.47001591 0.078352928 2301738
0.91640854 0.47187111 0.078641891 2564394
0.91739249 0.47622457 0.07638967 2960189
0.91982496 0.47796965 0.075939298 3223872
0.92164278 0.47976679 0.075757325 2960961
0.92404938 0.48161742 0.075390279 2697528
0.92654967 0.48423541 0.075610578 3091773
0.92810631 0.48526505 0.074774504 2959933
0.84729195 0.39916852 0.08869791 791079
0.84868085 0.4012194 0.089291632 1581370
0.85110927 0.40325233 0.088925362 857641
0.85362279 0.40515426 0.088021696 724763
0.85486305 0.40747178 0.088151634 330264
0.85746151 0.40937778 0.088613927 593954
0.85964644 0.41055581 0.088279843 527127
0.88415098 0.44135422 0.0808267 790551
0.88575482 0.44367665 0.081083 791593
0.8883267 0.44564143 0.080989778 856094
0.89048302 0.44689333 0.080660403 1184541
0.89319462 0.44977745 0.080069304 1513506
0.89488041 0.45163202 0.079791665 1710887
0.89669245 0.45388794 0.079664826 1710633
0.89899427 0.45549685 0.079665601 2105142
0.90296549 0.46333757 0.077028692 790306
0.90603036 0.46716502 0.076672733 658207
0.90804899 0.46827787 0.076999485 724512
0.90956497 0.46956041 0.07589072 1053224
0.91243088 0.47157732 0.076580584 1052708
0.91552496 0.47384089 0.075723886 1775404
0.83743137 0.39202538 0.089029968 2766165
0.83949947 0.39287731 0.08891505 1449783
0.84163165 0.395542 0.089334428 2765656
0.84397787 0.39728275 0.089112878 1844546
0.8459655 0.39871123 0.088655472 1054509
0.86630183 0.4254055 0.082940459 330259
0.86850083 0.42743373 0.082906544 527644
0.87045896 0.42898867 0.082092404 1449271
0.87271225 0.43152216 0.08239466 1055278
0.87487918 0.4335444 0.081620276 725801
0.87724221 0.43580016 0.08163476 659492
0.87894118 0.43755153 0.081255853 659491
0.88115239 0.43968466 0.080766141 724767
0.88238531 0.44172958 0.080630183 1053473
0.88387519 0.4448669 0.0792647 395808
0.88647753 0.44720969 0.078963637 856109
0.88831067 0.44878459 0.079346836 527140
0.89105135 0.45099515 0.078702629 790056
0.89255047 0.45381248 0.077820182 263709
0.89423704 0.45609182 0.077566922 395297
0.8969543 0.45823348 0.077337801 526885
0.89893889 0.46014002 0.077324033 395552
0.90078247 0.46192592 0.077439249 461089
0.9049089 0.46594626 0.075918257 855843
0.81816947 0.37342066 0.091359854 2038299
0.8193115 0.3750504 0.09160018 1709851
0.82144332 0.37737396 0.090979278 2235935
0.82364613 0.37889305 0.090518832 6381153
0.82546628 0.38206607 0.090640306 9803951
0.82732701 0.38349795 0.089789331 6975377
0.82895494 0.38559267 0.089471638 6778777
0.83131438 0.38756001 0.088792264 3621741
0.83398652 0.38966092 0.089680612 5858443
0.83609569 0.3912805 0.089198887 4015980
0.85088563 0.41091019 0.083629489 6387361
0.85236001 0.41320634 0.083784044 8687273
0.85478407 0.41544807 0.083151281 4739947
0.85668564 0.41774568 0.083447576 3228262
0.85881877 0.41953295 0.083135903 5069941
0.86135161 0.42148212 0.083017051 2832469
0.86393392 0.42356038 0.082567573 2108231
0.86492211 0.42599216 0.081953526 1516360
0.86715353 0.42833534 0.081376016 596039
0.86883378 0.43064594 0.081309855 792146
0.870915 0.43248114 0.080891609 2602
0.87288845 0.43481311 0.080293179 330804
0.87404841 0.43680754 0.078989983 66864
0.87656081 0.43921831 0.079236388 133680
0.87938166 0.4418067 0.079008639 133171
0.88129234 0.44333717 0.079268217 1063
0.88210839 0.44502324 0.080250978 135249
0.88508832 0.4470579 0.078539073 66594
0.81166708 0.37070584 0.091610849 1773841
0.81447685 0.37154123 0.090440571 1972251
0.81683755 0.37321141 0.091181636 1972765
0.82958966 0.39012557 0.085598946 13619670
0.83204877 0.39233974 0.085267842 13619678
0.83708715 0.3994734 0.085122943 8292513
0.83877981 0.40129724 0.085117519 11646409
0.8410511 0.40351316 0.084870934 9147559
0.84317333 0.40536302 0.084449589 8883875
0.84527481 0.40728402 0.084401965 9213099
0.84740448 0.4091391 0.0839504 7239566
0.84925586 0.41148448 0.084084332 7437457
0.85188866 0.41373166 0.083192766 1384255
0.85278362 0.4164626 0.082902074 6386599
0.85473496 0.4188008 0.081656694 3490685
0.85670447 0.42104301 0.081970632 3951766
0.8594048 0.4225885 0.081223071 1582940
0.86138535 0.42528787 0.081402719 2372733
0.86309618 0.42683098 0.080231428 1055343
0.86478877 0.42878273 0.080999613 4151175
0.86945796 0.43408448 0.08024925 1782914
0.87094152 0.43469015 0.079672515 69438
0.8101027 0.36876106 0.090408444 4273447
0.81062019 0.36991054 0.090718389 2891544
0.81764114 0.38006121 0.087900281 1578777
0.82000619 0.3817516 0.087710321 1578515
0.82182902 0.38411397 0.087564349 8748639
0.82376003 0.38637292 0.086797655 13026500
0.82606763 0.38864002 0.086397588 13355735
0.82748371 0.39088544 0.086251318 12567246
0.82997465 0.39284068 0.085976064 12435408
0.83190536 0.39521948 0.085746706 12370124
0.83414328 0.39699432 0.084990621 10133688
0.83581477 0.3986057 0.084721267 13225433
0.83868635 0.40438494 0.082243979 4741034
0.84090859 0.40718755 0.082786977 11515339
0.84375286 0.40873638 0.082514822 5598137
0.84568238 0.41069049 0.082614124 8160182
0.84820616 0.41311991 0.082182825 5859226
0.85009181 0.41485867 0.081768513 4149654
0.85188073 0.41700238 0.081508756 5003401
0.80957103 0.37486666 0.086487472 5391169
0.81175208 0.37754089 0.087302446 1380382
0.81398475 0.37842596 0.08685708 1710368
0.81683552 0.38062322 0.086678445 1184284
0.81864899 0.38306919 0.086356103 328971
0.81960958 0.38587123 0.085880816 2697250
0.82178873 0.38860613 0.085157573 13355954
0.82348442 0.39055613 0.084435284 13684443
0.82552385 0.3931362 0.084377646 15724788
0.82757616 0.39508501 0.083549559 13620710
0.82934177 0.39748365 0.083584666 14474218
0.83186376 0.39894325 0.082962692 12173022
0.8338936 0.40114486 0.083051682 12370395
0.83624369 0.40302423 0.082513332 11318490
0.83798456 0.40561616 0.083196878 16185082
0.80694348 0.37389821 0.08706373 8878954
0.80832434 0.37575591 0.086654663 4801860
0.81016386 0.37783417 0.085868537 329237
0.81176865 0.38092101 0.085007489 657683
0.8141309 0.38263172 0.084938943 1315093
0.81633615 0.38464987 0.084702313 1380884
0.81874663 0.38629773 0.083633482 853770
0.80684036 0.37830803 0.084567904 8746590
0.80892241 0.37933296 0.084485888 3155749
0.79323256 0.41530591 0.057289839 9600608
0.79400694 0.41879019 0.057287753 9731939
0.79611158 0.42022496 0.05687362 9732455
0.78901666 0.41542715 0.05614382 9731936
0.7904501 0.41715038 0.056751132 9731939
0.79226607 0.41887823 0.056786239 9666146
0.79469228 0.42225784 0.057259142 9798245
0.77929145 0.40862072 0.055686414 9994592
0.78224772 0.4132202 0.055713952 9994592
0.78506899 0.41466844 0.056030154 9863264
0.78686273 0.41693771 0.056637704 9797730
0.77537823 0.40730298 0.055556417 10060124
0.77692199 0.41013652 0.056272149 10060380
0.78004277 0.41171581 0.05600512 10060387
0.78295022 0.41620463 0.054507792 10060131
0.78763771 0.41994482 0.053040564 10126188
0.78774601 0.42332453 0.052949369 10126187
0.79004478 0.42541251 0.052983403 10060912
0.77148998 0.40629184 0.055150926 10191454
0.77291822 0.40907729 0.055906594 10125917
0.77627921 0.41280246 0.052112281 10322535
0.77915502 0.4163624 0.052306294 10257000
0.78135598 0.4170453 0.051914155 9271650
0.78290868 0.42012584 0.052319765 10125929
