# .PCD v0.7 - Point Cloud Data file format
VERSION 0.7
FIELDS x y z rgba
SIZE 4 4 4 4
TYPE F F F U
COUNT 1 1 1 1
WIDTH 1177
HEIGHT 1
VIEWPOINT 0 0 0 1 0 0 0
POINTS 1177
DATA ascii
0.86419106 0.45726076 0.20728895 6974912
0.86605549 0.45885846 0.20703369 7106500
0.86774015 0.46127272 0.20716539 7171526
0.87065542 0.46365032 0.20683247 7567311
0.87267482 0.46530142 0.20585319 8160229
0.83605707 0.426819 0.20810351 12159110
0.83798403 0.42830694 0.20807108 11765646
0.83974886 0.42993829 0.2072857 11240344
0.84224784 0.43179387 0.20781401 10450824
0.8443377 0.43435121 0.20781296 10319743
0.84615767 0.43681106 0.2079941 9663346
0.84715331 0.43919373 0.20712903 8877194
0.84867227 0.44158858 0.20666382 7826323
0.85110211 0.44411904 0.20634755 6906010
0.85289931 0.44615433 0.20667365 6708123
0.8552255 0.44870421 0.2062493 6642078
0.85740322 0.45053342 0.20639908 6839713
0.85909212 0.45280352 0.20599654 6972073
0.81916559 0.40872735 0.20770374 14723218
0.82426792 0.41474321 0.20712239 14657944
0.82638121 0.41771245 0.20712727 15118751
0.8283298 0.41999561 0.20698678 15119789
0.83021283 0.42174211 0.20701647 13870241
0.83298624 0.42382878 0.20715615 12882576
0.83490825 0.42585358 0.20720258 13342874
0.83639836 0.42977354 0.20610017 10521008
0.83797961 0.43226147 0.20604664 8352676
0.83980495 0.43396625 0.20552629 8285861
0.84149516 0.43601295 0.20582902 7956894
0.84390378 0.4380613 0.20601138 8023454
0.84541225 0.44017667 0.20524737 8089251
0.8476522 0.44313288 0.20525008 7628190
0.85005319 0.44552612 0.20601436 6970007
0.81231952 0.40303087 0.20673922 11497297
0.81388617 0.40477026 0.20666292 11564627
0.81548661 0.40652326 0.20655668 12487010
0.8177619 0.40782812 0.20676777 14525577
0.81929219 0.41170353 0.20635894 15514031
0.82183695 0.41382557 0.20611307 15250861
0.82306695 0.41661078 0.20609146 13937076
0.82482427 0.41849971 0.20558724 13479616
0.82652342 0.42145151 0.20500502 11508675
0.82864612 0.42333001 0.20531008 10126773
0.83067775 0.42554078 0.20519441 9928624
0.83301961 0.4274233 0.20516229 10390196
0.8346023 0.42947662 0.2053403 10061754
0.83688998 0.43212378 0.20540696 8877230
0.83889103 0.43321711 0.20424253 8614326
0.79877144 0.39023584 0.20667523 6829613
0.80012631 0.39203334 0.20660883 7025964
0.80326211 0.3949523 0.20609334 8141872
0.80483168 0.39664939 0.20579681 9392172
0.80655247 0.39911789 0.20565993 10247470
0.80856657 0.40083194 0.20564729 10247735
0.8106178 0.40305036 0.20599595 10050372
0.81245756 0.4058665 0.20545503 10906712
0.81361973 0.40844846 0.20496139 12094097
0.81579089 0.41044885 0.2049866 13346741
0.81744641 0.41307104 0.20471033 12167105
0.81986749 0.41483161 0.20490769 11837115
0.82192779 0.41671407 0.20502245 11770559
0.77812612 0.36772913 0.2073808 1447455
0.78055513 0.36929983 0.20654929 1578779
0.78285742 0.37118572 0.20641437 1579034
0.78473121 0.37407026 0.20667115 2104094
0.78671479 0.37597609 0.20703542 2760482
0.78863883 0.37828282 0.20646495 3810086
0.79036087 0.38050982 0.20634484 4401190
0.79190016 0.38332754 0.20589706 5385255
0.79406178 0.38532755 0.20552978 5911592
0.79581994 0.38778809 0.20509323 6961192
0.79746175 0.39005065 0.2053344 7420199
0.7992543 0.3929362 0.20542169 7879978
0.80106467 0.39508724 0.20510972 7946301
0.80209613 0.39824045 0.20401537 8276818
0.80404651 0.40047061 0.20434761 9001045
0.80618834 0.40246969 0.20401523 9528674
0.80851299 0.40449831 0.20416015 9398127
0.81039697 0.40684736 0.20428526 10123134
0.8127352 0.40856144 0.20397469 11573939
0.81539404 0.41138572 0.20353839 13615069
0.77849221 0.36763239 0.20585629 1513246
0.77891773 0.37159953 0.20496565 1316384
0.78130025 0.37278083 0.20494696 1644577
0.7824567 0.37507415 0.2053436 856354
0.78454119 0.37768662 0.20522809 1381158
0.78650045 0.38007182 0.20405063 2102318
0.7876271 0.3827275 0.20433971 2758452
0.79000044 0.3849996 0.20455348 3676985
0.79223907 0.38703936 0.20356232 4727868
0.79341304 0.38977537 0.20393389 5453127
0.79522282 0.39214647 0.20338717 6370883
0.79745185 0.39393908 0.2034705 6962501
0.79956704 0.3958298 0.20319125 8078912
0.80170095 0.39877576 0.2028653 9199975
0.80377746 0.40060642 0.20264515 9727336
0.77764642 0.36982673 0.20328054 790568
0.77805138 0.374331 0.20272237 1973284
0.78071535 0.37658083 0.20343062 2104611
0.78247952 0.37857753 0.20321164 2301222
0.78461796 0.38107878 0.203385 2890279
0.78617722 0.38321811 0.20299947 3742250
0.78813887 0.38612616 0.202898 4660270
0.78999883 0.38869047 0.2023026 5254458
0.79238176 0.39015505 0.20239207 6173758
0.79463565 0.39266777 0.20177254 6637656
0.99286389 0.567608 0.2227945 1381920
0.99560297 0.56909811 0.22244376 1447968
0.98179364 0.5576942 0.22227147 1249818
0.98445666 0.55964863 0.22235212 1447197
0.98608112 0.56214702 0.22219428 1775912
0.98767364 0.56390047 0.22190303 1710375
0.99000025 0.56653333 0.22236922 1776167
0.99175686 0.5684855 0.22166461 2039081
0.99258494 0.57054508 0.2214196 1711149
0.99484009 0.57241565 0.22141942 2039851
0.96930254 0.5452888 0.22172156 1644316
0.9712916 0.54668915 0.22122541 1907488
0.97335565 0.54933095 0.22212142 1709604
0.97529507 0.55120718 0.2220642 1709605
0.97692263 0.55339313 0.22129145 1906983
0.97886515 0.55529225 0.22135293 1709604
0.98064482 0.55804735 0.22152442 1710116
0.98273081 0.56018949 0.22097391 1578531
0.98493671 0.56341386 0.22012222 1052704
0.98551095 0.56581873 0.21991464 987430
0.98778653 0.56785131 0.22002232 987430
0.99030447 0.56993747 0.22022012 1119274
0.99272764 0.57231534 0.22002751 1053481
0.99391413 0.57364291 0.22009596 987681
0.95929581 0.53688437 0.22130349 2366248
0.96213818 0.53861141 0.22083357 2497833
0.96427691 0.54020405 0.22060329 2498091
0.96635854 0.54346734 0.220929 2104350
0.96750349 0.54548371 0.22043735 2169892
0.96928424 0.54782879 0.22025624 1709352
0.97114635 0.55007589 0.22039554 1841446
0.97302896 0.55319083 0.21979374 1052960
0.97440958 0.55608493 0.21949404 724257
0.97661054 0.55758858 0.21951643 658463
0.97799706 0.56003869 0.21902704 855589
0.9804765 0.56173444 0.2193343 592669
0.98262465 0.56397915 0.21945018 856103
0.9488188 0.52701354 0.22020736 4602678
0.95035231 0.52846587 0.21992594 4668474
0.95209241 0.53082812 0.22031403 3353130
0.95451987 0.53303635 0.22004908 3418669
0.95639712 0.53499424 0.21975076 3550256
0.95816076 0.53669077 0.21971056 3550001
0.9606272 0.53967929 0.21941745 3485232
0.96180654 0.54236722 0.219621 1709860
0.96381915 0.54454815 0.21894205 986906
0.96508574 0.54720831 0.21908668 395289
0.96755004 0.54902685 0.21873069 395034
0.96938562 0.55112392 0.21835956 658215
0.97116846 0.55406439 0.21814531 921387
0.97329164 0.55633289 0.21828824 1250096
0.9755106 0.5579049 0.21816707 1316144
0.94112259 0.52089173 0.21920341 5654599
0.94317687 0.52259302 0.21984628 4931133
0.94507241 0.52443421 0.21948227 5325377
0.94711936 0.52690196 0.21918404 5128255
0.94887066 0.5287289 0.218595 5522756
0.95161843 0.531299 0.21863347 5457736
0.95252621 0.53433806 0.21764281 3222065
0.95413589 0.53702772 0.21810281 1117976
0.9561196 0.5392462 0.21752712 1644330
0.95802295 0.54090565 0.21817565 1184288
0.96013474 0.54322577 0.21759564 1447468
0.96210241 0.54601979 0.21744925 1053229
0.96376801 0.54673272 0.21709234 1184302
0.92788005 0.50797033 0.21892563 6509668
0.9300338 0.50937784 0.21887878 6509405
0.93216133 0.51177537 0.21836108 6706783
0.9342382 0.51364297 0.21893817 6575962
0.93651992 0.51657295 0.21864185 6180694
0.93825519 0.51879019 0.21840709 6312019
0.93961918 0.52127028 0.21798924 5655627
0.94159365 0.52392721 0.21772882 5326153
0.94318646 0.52574492 0.21766937 3945525
0.94515216 0.52820849 0.21709198 4077367
0.94717467 0.53011906 0.21768275 2499112
0.94919372 0.53325236 0.21704289 2827568
0.95035285 0.53620768 0.216948 2499123
0.95247495 0.53772116 0.21650502 2893621
0.95413077 0.53926909 0.21768671 1513006
0.95719087 0.54129457 0.21565777 3288639
0.92022651 0.50191307 0.2183148 6905982
0.92274857 0.50379503 0.21803823 7168641
0.92429852 0.50629681 0.21796286 7760264
0.92631125 0.50845093 0.21787333 7496316
0.92862833 0.5111745 0.21696624 7891069
0.93020797 0.51423836 0.21710777 5787225
0.93224895 0.51591945 0.21666807 6904680
0.93354559 0.51787817 0.21680292 5523800
0.93566728 0.52017283 0.21655828 5326930
0.93798935 0.52214539 0.21638289 5984608
0.93905818 0.52552831 0.21580464 5391959
0.9408989 0.52779341 0.21596137 4669001
0.94314897 0.52954531 0.21673718 3090995
0.94536054 0.5314244 0.2157166 4340299
0.9476285 0.53347087 0.21567148 4405829
0.90993088 0.49195719 0.21638212 7301778
0.91182959 0.49407047 0.21675816 7236753
0.91304064 0.49583477 0.21759135 7762325
0.9155823 0.49768257 0.21706891 7696536
0.91761029 0.50056231 0.21674162 8090783
0.91896361 0.50246572 0.21715823 7301522
0.92098218 0.50537133 0.21680439 6840973
0.92229342 0.50755346 0.21597987 7302041
0.92453098 0.51025832 0.21531972 7564195
0.92643541 0.51250017 0.21584409 6247797
0.92827439 0.5145613 0.21567219 5984874
0.92998099 0.51680225 0.21552899 5524068
0.93232095 0.5185163 0.21520057 6576243
0.93356216 0.52036399 0.21543717 5787238
0.93648189 0.52289522 0.21509552 6313578
0.93786436 0.52442276 0.2143434 6971516
0.8988573 0.48213971 0.21645615 7103372
0.90005386 0.48354256 0.21699724 7103117
0.90223277 0.48581949 0.21590728 7498391
0.90406281 0.48774248 0.21566421 7827874
0.90604913 0.48971272 0.21638054 7499161
0.90821528 0.49227124 0.21599829 7762598
0.90991569 0.49486849 0.21583194 8289724
0.91102493 0.49690294 0.21535459 8027585
0.91300762 0.49907646 0.21527356 8027585
0.91509831 0.50206673 0.21478325 7829951
0.91689229 0.50390434 0.21445143 7895488
0.91921037 0.50625193 0.21482134 7500207
0.92158937 0.5088625 0.21484402 7236519
0.92330158 0.51050377 0.21492475 7235234
0.92567199 0.51280391 0.21434009 7497887
0.9271102 0.51403964 0.21362972 7432606
0.89244175 0.4775196 0.21539783 7169167
0.89491785 0.47994947 0.21483028 7498138
0.89719975 0.48210728 0.21598968 7432086
0.89920735 0.48354277 0.21533555 7629982
0.90002894 0.48722738 0.2150794 7368633
0.90183878 0.49008667 0.21404156 7173324
0.90365452 0.49174297 0.21472898 7567563
0.90556264 0.49354684 0.21428782 7633872
0.90763229 0.49582699 0.21416393 7699148
0.90986967 0.49803883 0.2136192 7633870
0.91160071 0.50079978 0.21415603 7961541
0.91371995 0.50199926 0.21419862 8093385
0.87941593 0.46509495 0.2150448 7300494
0.88143533 0.46704397 0.21459109 7300495
0.88317937 0.46974269 0.21525365 7300497
0.88540173 0.47196206 0.21432215 7366805
0.88728738 0.47387859 0.21405914 7695777
0.88953638 0.47589767 0.21469876 7432088
0.89132291 0.47815031 0.21379137 7564972
0.89206123 0.48097229 0.21426529 6317497
0.89396983 0.48364973 0.21346051 6645948
0.89661241 0.48585513 0.21342945 6712255
0.89882588 0.48770845 0.21338227 6844100
0.90066636 0.49074164 0.21268103 6974914
0.90241927 0.49281645 0.21302339 7107012
0.90392756 0.49421498 0.21335757 7237827
0.86821723 0.45572889 0.21484864 7234180
0.8717221 0.45915875 0.21401656 7299977
0.87440419 0.46231562 0.21405286 7562642
0.87672257 0.4634138 0.21407914 7694741
0.87795091 0.46523973 0.21336666 8024226
0.88030136 0.46795529 0.21361327 8155304
0.88216609 0.47033587 0.2129806 7434165
0.88380754 0.47306883 0.21269041 6844356
0.88525379 0.47569773 0.21292359 6646211
0.88755238 0.47773516 0.21280307 6514882
0.88938165 0.47976485 0.21247214 6580158
0.89154029 0.48205262 0.21191198 6580159
0.89406008 0.48436931 0.21138293 6712002
0.86026514 0.44931975 0.21409333 7625074
0.86272085 0.45096233 0.2129904 8020352
0.86492312 0.45300445 0.21314219 7757954
0.86745381 0.45522141 0.21291986 7956372
0.86896521 0.45830604 0.21293795 7366555
0.87109107 0.45972648 0.2126483 7563936
0.87237132 0.46196112 0.21237534 7695529
0.87431192 0.46505412 0.21215788 7105724
0.87592196 0.46759388 0.21178886 6580931
0.87796402 0.4695279 0.21165478 6580418
0.87994111 0.47158203 0.21145731 6580163
0.88206959 0.47422323 0.21194306 6645696
0.88331318 0.47522572 0.2104612 6843850
0.8863076 0.47812963 0.21070746 6777799
0.85205603 0.44145602 0.21249786 9201523
0.85375625 0.4430455 0.2119936 8544883
0.8558991 0.44510239 0.21278682 8215667
0.85776985 0.44721636 0.21190047 7953267
0.85977519 0.44893646 0.21188951 8150653
0.86132669 0.4524073 0.21173859 6838919
0.86250359 0.4553321 0.21144539 5921442
0.86493814 0.45702496 0.2109822 6251703
0.86628926 0.45957515 0.21067637 6448569
0.86842906 0.46169874 0.21084711 6514107
0.87075698 0.4635143 0.21024978 6383038
0.87277806 0.46551073 0.21065146 6645952
0.87519848 0.46828678 0.21017277 6908869
0.83891618 0.42985415 0.21232337 10251631
0.84183252 0.43256074 0.21105471 9792115
0.84411347 0.43517214 0.21132746 9529196
0.84592456 0.43771619 0.2110391 9135724
0.84810913 0.43873486 0.21161541 9661556
0.84995764 0.44134694 0.21088576 8939630
0.85148215 0.44455335 0.21036139 8348779
0.85346329 0.44632891 0.21048182 6970243
0.85553706 0.44856679 0.21051127 6445196
0.85744864 0.45114583 0.21075562 6182290
0.85950619 0.4525212 0.21005708 6248343
0.86166453 0.45540017 0.20990479 6249118
0.8629781 0.45719892 0.20948786 6512038
0.86521065 0.45944965 0.2093007 6578869
0.83232486 0.42425945 0.21041161 11564404
0.83503413 0.42697257 0.21030465 12092029
0.83652097 0.42891234 0.21037793 11303797
0.83907616 0.43121004 0.21043071 10186866
0.84154058 0.4329187 0.21041417 9332587
0.84329367 0.43480718 0.21055141 9398127
0.84382141 0.43838695 0.20939553 7627653
0.84612834 0.44075769 0.20930994 7627913
0.84800136 0.44276777 0.20923868 7431559
0.84999967 0.44530618 0.20932609 6707852
0.85189545 0.44794357 0.208433 6443919
0.85374427 0.44927841 0.20910445 6181263
0.85595167 0.45019621 0.20861697 6378647
0.81804562 0.4104656 0.2105715 11565656
0.82337832 0.4165538 0.20994905 11433562
0.82569087 0.41879979 0.2095018 13078395
0.82764757 0.42067751 0.20931172 12618876
0.82997239 0.4227773 0.20990294 11171185
0.8316735 0.42537773 0.20997271 10186346
0.83344877 0.42769033 0.209416 10057337
0.83474076 0.43042684 0.20893982 8547203
0.83696431 0.43271464 0.20861542 7693191
0.83884895 0.43472403 0.20833406 7363719
0.84102178 0.43700078 0.20864826 7100806
0.84235168 0.43915725 0.20868 6902398
0.8447085 0.44142467 0.20808381 7429261
0.84685111 0.44447929 0.2086063 7166601
0.80899841 0.40201122 0.20932055 9785906
0.81085241 0.40384129 0.20923877 9851967
0.81258667 0.40573853 0.20916361 9393733
0.81468594 0.40780258 0.20928693 10709836
0.81701577 0.41008785 0.20948726 12617832
0.81859708 0.41287401 0.20874298 12224634
0.82089669 0.41487053 0.20864594 11632493
0.82164186 0.41749173 0.208318 10517126
0.82377654 0.42020559 0.20799285 10126487
0.82550007 0.4220708 0.20805013 9270677
0.82780778 0.42416543 0.20821902 8480396
0.82998276 0.4261654 0.20771754 9137556
0.8319509 0.42812258 0.2079466 9137807
0.83419383 0.43079209 0.20758289 8874901
0.78604519 0.37685236 0.21050274 2367264
0.78726536 0.37874836 0.2106263 2892840
0.78935003 0.38128424 0.2102347 3680551
0.79310507 0.3843081 0.20838642 5058601
0.79420334 0.3858307 0.20797965 5517613
0.79628807 0.38836655 0.20758802 6042670
0.79758275 0.39186037 0.20907944 5779757
0.79934365 0.39340478 0.20895746 5910572
0.80128771 0.3959316 0.20843068 7025448
0.80308497 0.39756203 0.20797116 7813681
0.8052156 0.39951882 0.20781371 8734767
0.80735713 0.40227163 0.20818388 8406325
0.80925435 0.40528217 0.20822248 8407367
0.81045437 0.40764397 0.20776081 8870753
0.81269562 0.4089027 0.20744663 10645610
0.81455958 0.41146645 0.20744562 10716299
0.81666809 0.41349196 0.20742542 9402508
0.81875968 0.41568917 0.20768133 9006729
0.77787519 0.36938959 0.20902237 1513244
0.77974141 0.37010401 0.20936617 1513499
0.78160608 0.37238812 0.20934489 1776157
0.78360951 0.37437549 0.20885357 1907487
0.78522408 0.37706143 0.20916903 2760995
0.78775603 0.37954706 0.20918807 3679780
0.78990936 0.38208216 0.20864439 4335653
0.79137421 0.3843869 0.20855612 5188906
0.79260135 0.38671607 0.20897925 5911596
0.79494548 0.38879871 0.20819399 6502446
0.79653841 0.39127395 0.20778912 6435883
0.79761124 0.39410329 0.20727187 6107444
0.79934782 0.39682394 0.20706627 6174281
0.80118984 0.39889795 0.20690596 6897231
0.80336535 0.40109241 0.20683372 7882575
0.80561829 0.40331095 0.20687354 7621471
0.80765551 0.40526921 0.20684642 8542047
0.80952501 0.40769115 0.20663783 8875133
0.81149942 0.41018426 0.20652544 9797515
0.77586341 0.37056819 0.20773154 790318
0.77762812 0.37217346 0.20725158 1053731
0.77998722 0.37371403 0.20785132 1382179
0.78221095 0.37645537 0.20794109 922145
0.78369212 0.37881935 0.20751384 1447462
0.78539091 0.38087508 0.20727566 2037547
0.78715771 0.38397622 0.20682845 2824497
0.78852928 0.38574314 0.20704573 3350068
0.79060519 0.38824463 0.20661747 4663870
0.79246318 0.39109725 0.20629209 5388871
0.79396141 0.39282176 0.20605022 5978175
0.79647434 0.39487678 0.20606351 6305856
0.79840529 0.39709666 0.20637318 6762545
0.77796745 0.37543884 0.2060281 2038819
0.78001529 0.37748396 0.20620731 2170149
0.78202868 0.37988213 0.20614591 2367013
0.7838825 0.38220897 0.20603931 2891302
0.78534496 0.38466203 0.20550132 3480615
0.78676289 0.38674057 0.20583847 4070698
0.78951597 0.38969177 0.20522073 5317933
0.79095936 0.3907519 0.20447356 5519686
0.98851675 0.56550121 0.22561657 1448224
0.99204445 0.56899786 0.22575983 1447712
0.99414134 0.57053608 0.22562465 1382175
0.99458194 0.57332057 0.22521606 2039850
0.97707796 0.55532086 0.22555873 1644835
0.9787029 0.55632055 0.22450638 1579044
0.98071265 0.5579623 0.22455198 1579043
0.98357874 0.56066662 0.22561148 1579040
0.98492503 0.56301343 0.22488484 1842214
0.98726809 0.56480885 0.22464898 1710885
0.98876166 0.56710899 0.22447038 1908008
0.99086505 0.56994498 0.2247934 2105387
0.99246073 0.5720557 0.22439876 1908269
0.99463141 0.57310569 0.22316879 2105387
0.96567661 0.54361284 0.2242358 1578534
0.96763474 0.54550773 0.22480232 1644325
0.96974266 0.5477317 0.22429499 1644324
0.97200072 0.55048513 0.2234557 1710374
0.9734441 0.55265462 0.22385165 1907753
0.97616577 0.55440098 0.22436082 1776166
0.97790015 0.55700386 0.22382671 2104874
0.9802801 0.55917442 0.22402033 2105130
0.98227668 0.56138343 0.22393766 2105131
0.98273903 0.56537402 0.22220796 1053478
0.98480248 0.56708467 0.22267613 1119529
0.9870621 0.56901073 0.22262824 1250859
0.98884791 0.57060283 0.22298491 1185064
0.99095261 0.57310808 0.22295102 1119526
0.99298328 0.57576531 0.22324058 922143
0.95629126 0.53535783 0.22375193 1644582
0.95858753 0.53705335 0.22355133 1579046
0.96137869 0.53965837 0.22401702 1644580
0.96304184 0.54245257 0.22323889 1841703
0.9645049 0.54389524 0.22246501 1775908
0.96656859 0.54700518 0.22244087 1907493
0.96786737 0.54908824 0.22298878 1776166
0.9698602 0.55182242 0.2222493 1184804
0.971385 0.55437469 0.22256041 987680
0.97334814 0.55618936 0.22200063 1119270
0.9753204 0.55826139 0.22231114 1053735
0.97741187 0.56066012 0.22190183 1119272
0.9794994 0.56293678 0.22204161 1185323
0.98167515 0.56449831 0.22200063 1185322
0.94504714 0.5256592 0.22368729 1578272
0.94753218 0.52714282 0.22271246 1578271
0.9496913 0.52957118 0.22246742 1775392
0.95157731 0.53182733 0.22292182 1709601
0.95389569 0.53375769 0.22295511 1906726
0.95551586 0.53577751 0.22209194 2038309
0.95719683 0.5386337 0.222922 1973031
0.9587903 0.54115283 0.22163376 1316132
0.96020281 0.54337209 0.22184286 1184804
0.96235329 0.54543078 0.22114143 856095
0.96442199 0.54805475 0.22162592 1053478
0.9666245 0.55045605 0.22145486 1185068
0.96860969 0.55267322 0.22136292 1382450
0.96995556 0.55458546 0.22035462 1382193
0.97221673 0.55654907 0.22099769 1382450
0.937846 0.51919484 0.2223812 2038558
0.94068092 0.52114379 0.22185519 2564387
0.94286299 0.52377772 0.22199866 1643802
0.94418174 0.52556467 0.22193158 2235425
0.945701 0.52771473 0.22185105 1578270
0.94857717 0.53018194 0.22159809 2038559
0.94928408 0.53391296 0.22086218 658717
0.95094824 0.53523099 0.22018442 526876
0.9529916 0.53709328 0.22088826 724000
0.95509291 0.5400492 0.22063208 856098
0.95669019 0.5425235 0.22017455 1119275
0.95915949 0.54424095 0.22044674 1316400
0.96133286 0.54651743 0.22039953 1250607
0.92727649 0.50926375 0.22122729 2630184
0.92942607 0.51133907 0.2214424 2498852
0.93129277 0.51290822 0.22157195 2433058
0.93320549 0.51517427 0.22116056 2695717
0.93488443 0.51761329 0.22055438 3484714
0.93676174 0.51899254 0.22113881 2300955
0.93872559 0.52216071 0.22065675 1709341
0.9404943 0.52440661 0.22053769 657940
0.94250441 0.52648044 0.22013029 329488
0.94432783 0.52898514 0.22034866 395285
0.94590336 0.5322721 0.21937984 658463
0.94737959 0.5344348 0.21986753 856103
0.9492538 0.53644454 0.21919391 921642
0.95194924 0.5389967 0.21953657 987693
0.91744417 0.50085914 0.2208949 3945800
0.91927707 0.50324899 0.22059798 3945540
0.92197746 0.50514907 0.22072417 4011328
0.92381859 0.50718474 0.22027561 4602952
0.92557007 0.50896192 0.22049972 3747387
0.9274137 0.51219887 0.22060022 2892073
0.92951286 0.51456678 0.21975067 2366501
0.93071347 0.51734263 0.21914607 657945
0.93271649 0.51910454 0.219183 526616
0.9350338 0.52134293 0.21894544 657946
0.93632245 0.52417314 0.2192103 526884
0.93836808 0.52598107 0.21857342 1052704
0.94064248 0.52862763 0.21822363 526365
0.94221604 0.53036451 0.21939823 592676
0.90607595 0.49149984 0.22073299 4142920
0.90818894 0.4926106 0.21920538 6511733
0.90988219 0.49499348 0.21951267 6247785
0.91238391 0.49674633 0.21951094 6774388
0.91480243 0.49903747 0.21959734 6379377
0.91683465 0.50080538 0.21973631 5524325
0.91845548 0.50415587 0.21905178 3748940
0.91952717 0.50642622 0.21853742 1250090
0.92130959 0.50870657 0.21883935 1184548
0.9235028 0.51092887 0.21870634 1052455
0.92549127 0.51319468 0.21823165 1447209
0.92697871 0.51511347 0.21867678 789538
0.92973995 0.51757336 0.21792856 1117993
0.89549553 0.48115835 0.21912044 6180981
0.89680624 0.48241156 0.21894243 6378616
0.8988868 0.48475012 0.21915269 5852781
0.90142131 0.48658565 0.21903431 6313591
0.9034102 0.4888036 0.2188634 6576758
0.90550774 0.49079078 0.21869171 7168901
0.90648651 0.49371707 0.21897399 3617364
0.90865868 0.49552229 0.21808895 4867953
0.91079456 0.49797887 0.21845263 2632014
0.91309673 0.50039268 0.21833465 2960972
0.9139123 0.50316441 0.21769384 2762827
0.91581208 0.50508368 0.21729577 3091790
0.91753513 0.50795841 0.21761528 1380921
0.92026722 0.50959158 0.21739596 2302018
0.88795197 0.47482443 0.21774679 7628436
0.8895694 0.47619092 0.21818951 6904706
0.89163387 0.47834116 0.21839356 5852787
0.89433646 0.48028219 0.21828172 6642048
0.89568943 0.48262778 0.21811366 5788023
0.89697301 0.48567864 0.21730185 4736631
0.89903629 0.48773107 0.21697271 4802944
0.9009589 0.49014691 0.2166777 4540805
0.90331662 0.49197087 0.21741265 3553643
0.90460348 0.49521929 0.21636036 4802172
0.90618521 0.49705312 0.21580559 5920390
0.90848625 0.49915671 0.21671504 4276078
0.91115797 0.50184095 0.21691468 3683933
0.8761633 0.4635931 0.21703854 7167619
0.87829256 0.46593186 0.21768469 6970497
0.88057745 0.46823543 0.2174786 7102085
0.8826189 0.470202 0.21705773 7431315
0.88443547 0.47275251 0.2178646 6444670
0.88597107 0.47465441 0.2170195 6116740
0.88755453 0.47698128 0.21670485 4999295
0.89000559 0.47980529 0.21613652 5131917
0.89192116 0.48189333 0.21637228 4802690
0.89389867 0.48409304 0.21625587 5131913
0.8948431 0.48645145 0.21562821 4999559
0.89783072 0.48920861 0.21557713 5262986
0.89933473 0.49144477 0.21582323 4934263
0.90113986 0.49329934 0.21627304 3552362
0.86693347 0.45571673 0.21695831 7496322
0.86884296 0.45779333 0.2168842 7759501
0.87111092 0.46004051 0.21660545 7496585
0.8730098 0.4623121 0.21603587 7627921
0.87530529 0.46406892 0.21687993 7627664
0.87711847 0.46696609 0.21610194 7036564
0.87857473 0.4697713 0.21579778 6117786
0.88063014 0.47183245 0.21584052 5460375
0.88262308 0.47391447 0.21547315 6117793
0.88461918 0.47600782 0.2150217 6380966
0.88676286 0.47875997 0.21546355 5393294
0.8882134 0.47969341 0.21501967 5919642
0.85630345 0.44597965 0.21556443 8150387
0.85782278 0.44791695 0.21589601 7822192
0.8599388 0.45006138 0.21576115 7493743
0.86252737 0.45200244 0.21595216 7494006
0.86420321 0.45383099 0.21615246 7035004
0.86566633 0.45647162 0.21542466 6971027
0.8678875 0.45881927 0.21523535 7103651
0.86903983 0.46170256 0.21490097 6513323
0.87090719 0.46373525 0.21467581 6512812
0.87322295 0.46612248 0.21453333 6380713
0.87538052 0.46813866 0.21482322 6380709
0.8772155 0.47015393 0.21401322 6447278
0.87941545 0.47197574 0.21427378 6578351
0.8807019 0.47356012 0.21332777 6775990
0.84413278 0.43507382 0.21596551 8673375
0.8462491 0.43710253 0.21510035 8673633
0.84837657 0.43918315 0.21530214 8805989
0.85094118 0.44142905 0.21471733 8938347
0.85270274 0.44346994 0.21523038 8150377
0.85477775 0.44543973 0.21526673 7822185
0.85684061 0.44821674 0.21479309 7034991
0.85807693 0.45080504 0.21405751 6445192
0.8600738 0.45351502 0.21416941 5920144
0.86186516 0.45547208 0.21368459 5986201
0.86377704 0.45752874 0.21381587 6249636
0.86585903 0.45997104 0.21377981 6643882
0.86783808 0.46211481 0.21375895 6907315
0.86987025 0.46387339 0.21267593 6644403
0.83924192 0.43119857 0.21505737 8542038
0.84118938 0.43342423 0.21387762 8410972
0.84341419 0.43561122 0.2136156 8542303
0.84497666 0.43762535 0.21314889 8345697
0.84721339 0.44088042 0.214268 7886688
0.84887135 0.44324166 0.21330565 7757163
0.85041624 0.44501191 0.21293104 6839934
0.85260761 0.44755691 0.21320271 6379913
0.85471714 0.44971195 0.21293908 6182538
0.85687751 0.45220602 0.212805 6181516
0.86061502 0.45510313 0.21177062 6050706
0.86305785 0.45828992 0.21185663 6183068
0.82854974 0.42185071 0.21335244 10315103
0.83011723 0.42303079 0.21387702 9985885
0.83219135 0.42543781 0.21311769 10183519
0.8342067 0.42788488 0.21327588 9659223
0.83660275 0.42931411 0.21331638 9593945
0.83744526 0.43267825 0.2129488 7033451
0.83913606 0.43465465 0.21252626 6968177
0.84075141 0.43740547 0.21221155 6443127
0.84322739 0.43957347 0.21207872 6377593
0.84556746 0.44174749 0.21227276 6443900
0.84744561 0.44399789 0.21225643 6575232
0.84937537 0.44615635 0.21216443 6509188
0.81353045 0.40645251 0.21322811 8012861
0.81842196 0.41274124 0.21295986 9723454
0.82059073 0.41591978 0.21295547 10117456
0.82214749 0.41688433 0.21210706 10709846
0.82455468 0.41936663 0.21255681 11170653
0.82688123 0.42172876 0.21248481 9856872
0.82793546 0.42383742 0.21189088 8543082
0.82952642 0.4264484 0.21188566 7624309
0.83169842 0.42883754 0.21147549 7297142
0.83383286 0.43099141 0.2119053 6639727
0.83603901 0.43303448 0.21116945 6507118
0.83830941 0.43538022 0.21095699 6507380
0.84183621 0.43899298 0.21097565 6244210
0.80787492 0.4032827 0.21260354 7879984
0.80987978 0.4043321 0.21238801 7946549
0.81213087 0.40618002 0.21206459 9261371
0.81334895 0.40927523 0.21183336 10182467
0.8155756 0.41166779 0.21133649 10709579
0.81675482 0.41350293 0.21160874 9527899
0.81864399 0.41587198 0.21104431 8872300
0.82084733 0.41845828 0.21078143 9464697
0.82287878 0.42063934 0.21082073 8678016
0.82508236 0.42257208 0.21081126 7889023
0.82685149 0.42471778 0.2105096 7625856
0.82917118 0.42676982 0.21001491 7755129
0.78155464 0.37322021 0.21291485 1579293
0.7830689 0.37512609 0.21259511 1710365
0.78499883 0.37750834 0.2130731 2235681
0.78683138 0.38019395 0.21268749 3155237
0.78852594 0.38226593 0.21208999 3549733
0.79473877 0.38933823 0.21151641 4993331
0.79645348 0.39132887 0.21154529 4927275
0.79819703 0.39379197 0.21151105 5780518
0.80057871 0.3965354 0.21156254 5911334
0.80255711 0.39853406 0.21111175 6698281
0.80466098 0.40051413 0.21100101 7617580
0.80611545 0.40308422 0.21077353 6698297
0.80775332 0.40669137 0.21004242 7750740
0.80915594 0.40815341 0.21033558 8278877
0.81167889 0.41038615 0.2104868 8345700
0.81380916 0.41215724 0.20991182 8413300
0.81583333 0.41437107 0.21011594 8152440
0.81832778 0.41705376 0.20965242 8743816
0.81991851 0.41851196 0.20921543 9467540
0.77711892 0.36966556 0.2120817 1447197
0.77930176 0.37084475 0.21220899 1513244
0.78046703 0.37385038 0.21201745 1973279
0.78243136 0.37585586 0.21124125 1907489
0.78430247 0.3775146 0.21147221 2957348
0.78705275 0.3804335 0.211431 4138790
0.78856611 0.38317168 0.21160024 4729638
0.78995371 0.38520166 0.2112273 4730407
0.79189312 0.38742256 0.21101469 5453100
0.79351175 0.39103651 0.21043843 5583154
0.79517883 0.3931483 0.20971656 5385526
0.79685789 0.39546287 0.20982462 4993343
0.79876912 0.39818484 0.20966056 5451327
0.80061698 0.39994007 0.20935106 6173763
0.80263454 0.40197641 0.20989332 6240330
0.80462158 0.40379113 0.2094323 7291470
0.80651152 0.40627235 0.2095215 7359585
0.80929148 0.40868261 0.20873007 8677752
0.81024694 0.41115934 0.20859581 8348788
0.77379858 0.37011197 0.20897993 657969
0.77673155 0.37330124 0.20954651 790819
0.77823156 0.37510571 0.21050894 1316388
0.780496 0.37726396 0.20968068 1381923
0.78251398 0.37986505 0.20988953 1775398
0.78362381 0.38243538 0.20928511 2563113
0.78560793 0.38455951 0.20908493 2890543
0.78735667 0.38727015 0.2089861 3809072
0.7895062 0.38907552 0.20933038 4335415
0.79094219 0.39189374 0.2084856 5715774
0.79328287 0.39410615 0.20860472 5323074
0.79487681 0.39625448 0.20887527 6040358
0.79681873 0.39767855 0.2089681 6170152
0.77712905 0.37623274 0.20850599 2104866
0.7784915 0.37769225 0.20898163 2104612
0.78588867 0.38688201 0.20775631 3939626
0.98733044 0.56621003 0.22816426 1447967
0.9893657 0.56805032 0.22756761 1447966
0.99138725 0.57007301 0.22798544 1447712
0.99300599 0.57249045 0.22866631 1644834
0.99434263 0.57508898 0.22747669 1974057
0.976367 0.55631459 0.22782579 1644834
0.97780174 0.5577749 0.22749224 1644834
0.98010743 0.55931199 0.22736955 1513761
0.98241997 0.56191486 0.2274608 1711141
0.98406041 0.56426072 0.22726074 1908006
0.98579276 0.56591851 0.2272231 1908007
0.98780525 0.56854439 0.22747803 2105387
0.98998046 0.57081842 0.22705096 2105386
0.9905749 0.57464492 0.22593436 1251115
0.99207067 0.57630849 0.2263006 1053733
0.99311024 0.57838029 0.2268573 987936
0.96278173 0.5423522 0.22707745 1645092
0.96505105 0.54454726 0.22657222 1710371
0.96702993 0.54636681 0.2271837 1645090
0.9691273 0.54925442 0.22707787 1645090
0.97068393 0.55152714 0.22674996 1842212
0.97294372 0.55337965 0.22633824 1776677
0.97465611 0.55562937 0.22664014 2039592
0.97665447 0.55787098 0.2264629 2171179
0.97885537 0.55992103 0.22635302 2171179
0.97965819 0.56179017 0.22684708 2171179
0.9812516 0.56627822 0.22458777 1185321
0.98288691 0.56782091 0.22530356 1119528
0.98551482 0.56987417 0.22515351 1119528
0.98795319 0.57228768 0.22557783 1185321
0.98958194 0.57427549 0.22551763 987681
0.99167842 0.57550347 0.22471163 922144
0.95446575 0.53489661 0.22560257 1776166
0.95513654 0.53622997 0.2265209 1776165
0.9579851 0.53816611 0.22596729 1776163
0.96067333 0.54055703 0.22633082 1645092
0.96117443 0.54183102 0.2279774 1710884
0.96273756 0.54571629 0.22541916 2236459
0.9648869 0.54768419 0.22536221 2170923
0.96667159 0.55057979 0.22510731 1447974
0.96887934 0.55247736 0.22514373 1579558
0.9696632 0.5549925 0.22502816 1053733
0.97239107 0.55747169 0.22493806 1119526
0.97410083 0.55943459 0.2244567 1316909
0.97667658 0.56166935 0.22471669 1185064
0.97899961 0.56409204 0.22425315 1185321
0.97975647 0.5661543 0.22560012 1448499
0.94462609 0.52661866 0.22520787 1973030
0.94644952 0.52831411 0.22543865 1841702
0.94810498 0.53052884 0.22561225 1973544
0.95035833 0.53256518 0.22502792 1973544
0.95256579 0.53521383 0.22556901 2104873
0.95437533 0.53726161 0.22512749 2236459
0.95587099 0.5390991 0.22531271 2302253
0.95775944 0.54194868 0.22486061 1776680
0.95949209 0.54402041 0.22435424 1447973
0.96101683 0.54704642 0.22408038 1119527
0.96327031 0.54914939 0.22383109 1250857
0.96535063 0.55148375 0.22399288 1514035
0.96774805 0.55290139 0.22391018 1251117
0.96998656 0.55641282 0.2235046 1448498
0.93511069 0.5181461 0.22397688 1709860
0.93715221 0.52028632 0.22447073 1775400
0.93930262 0.52275062 0.22480783 1841961
0.94109017 0.52476859 0.22406775 1907239
0.94309938 0.5268451 0.22499743 2105129
0.94509029 0.52950978 0.22419474 1842218
0.94509953 0.5313549 0.22282702 987683
0.94743109 0.53422248 0.22310668 922145
0.95000017 0.53643799 0.22318128 922146
0.95257521 0.53863895 0.2233862 921891
0.95410883 0.5414449 0.22342348 1185065
0.95600897 0.54280436 0.22264123 1185321
0.95816565 0.54559565 0.2229206 1448243
0.92611396 0.50984883 0.22279853 1446685
0.92747641 0.51150692 0.22362456 1775395
0.92971432 0.51433939 0.22412777 1907494
0.931903 0.51628602 0.22368586 1841701
0.93363965 0.51842421 0.22437283 1973034
0.93574238 0.52132261 0.22297814 1512996
0.93682528 0.52333468 0.22273943 856353
0.93938357 0.52557433 0.22287798 922147
0.94197965 0.52802688 0.22313753 921892
0.94248945 0.53081977 0.22197512 1251117
0.94458634 0.53369296 0.22230789 1316655
0.94624174 0.53537184 0.22171015 1382450
0.94873571 0.53782135 0.22224274 1448498
0.95084584 0.53941721 0.22167522 1448242
0.95258582 0.54118586 0.221771 1448242
0.91606212 0.50193453 0.2231206 1512736
0.91872263 0.50382668 0.22273031 1512734
0.92072266 0.50592464 0.22309476 1512478
0.92328894 0.50871825 0.22338298 1578530
0.92489499 0.51056719 0.22336382 1775397
0.9259603 0.513659 0.22240794 1184547
0.9272877 0.51586723 0.22173613 790563
0.92927229 0.51796925 0.22215939 987686
0.93163991 0.52003002 0.22166115 921896
0.93348157 0.52247626 0.22162691 1184813
0.93545026 0.52400744 0.22173357 1250865
0.93763494 0.52683294 0.22119677 1250865
0.93942362 0.52913606 0.2213304 1250865
0.90473431 0.49163941 0.22262344 1446686
0.90684021 0.49358037 0.22235668 1380892
0.90899909 0.49538112 0.22230127 1841441
0.9113729 0.49760506 0.22186846 2301480
0.91313988 0.50014794 0.22197673 1052186
0.91459525 0.50231153 0.22167984 1183778
0.91588414 0.50545776 0.22116831 592924
0.91868353 0.50766277 0.22146124 593438
0.92052436 0.51030213 0.22098055 658724
0.92243022 0.51209676 0.22099686 658981
0.92397034 0.51410162 0.220835 921640
0.92657197 0.51650286 0.22054824 987692
0.92806262 0.51796931 0.22078204 987434
0.89180601 0.47877073 0.22233471 2169909
0.8939535 0.48095042 0.22174069 2105646
0.89603007 0.48319933 0.22141352 2762807
0.89804733 0.4851656 0.2212624 2827833
0.90040606 0.48774678 0.22199932 2301999
0.90228879 0.48968911 0.22142544 2367536
0.9041 0.49231842 0.22071174 1644332
0.90545595 0.49514231 0.22035202 329242
0.90756047 0.49706069 0.22078854 329497
0.90992117 0.49905556 0.22145596 527133
0.91070032 0.5014627 0.22029245 395548
0.91262543 0.50459814 0.21945471 395300
0.91448712 0.50705898 0.22011414 724263
0.91649497 0.50855225 0.21964449 592933
0.9180932 0.50963533 0.22004813 724521
0.8847537 0.47346577 0.22114825 3221311
0.88703513 0.47519511 0.22096488 3221822
0.88928401 0.47737253 0.22104651 2368569
0.89073563 0.47910219 0.22069144 3291733
0.89198542 0.48199642 0.22032753 265511
0.89426261 0.48416647 0.22018754 660012
0.89644289 0.48669291 0.21994966 725031
0.89809972 0.48853895 0.21995878 462121
0.90040064 0.49070472 0.22000527 330013
0.901474 0.49400553 0.21912551 198175
0.90321213 0.49632755 0.218301 789546
0.90540892 0.49846581 0.21905288 329252
0.90815532 0.50090986 0.21945047 460578
0.87383109 0.46352369 0.2203891 4931409
0.87546372 0.4643968 0.21939909 5983853
0.87721026 0.46673861 0.22033849 4602706
0.87920094 0.46864828 0.21976024 5457758
0.88133585 0.47129348 0.21982956 3616584
0.88340592 0.47389248 0.21997306 2038832
0.88476908 0.4761667 0.21923435 1184042
0.88686419 0.47829518 0.21926606 2106171
0.8890841 0.48019406 0.21879315 1383226
0.89064848 0.4826462 0.21915001 1317695
0.89246452 0.48488623 0.21928602 264749
0.89426816 0.4873293 0.2189804 660788
0.89659512 0.48996481 0.21860129 988986
0.89863956 0.4922097 0.21850547 593970
0.86199993 0.45315096 0.22046897 5390156
0.86430752 0.45438728 0.21919981 6837099
0.86657345 0.45646867 0.21905506 6705770
0.86853266 0.45840549 0.21938559 6837358
0.87012136 0.46105298 0.21964324 4273997
0.87247318 0.46336696 0.21909592 4537177
0.8740983 0.46547195 0.21870229 3813972
0.87586761 0.46845534 0.21893796 1447475
0.87769711 0.47039786 0.21913585 526373
0.87908161 0.4723894 0.21785054 2367818
0.88172787 0.47477487 0.21797284 2104389
0.85314447 0.4448314 0.21882752 7952737
0.85506994 0.44616589 0.21846727 7690853
0.85701287 0.4481456 0.21894225 7099231
0.85959226 0.45031106 0.21865451 7099491
0.86102366 0.45280033 0.21798125 6245740
0.86247021 0.45501927 0.21824732 4800346
0.86467391 0.45757765 0.21795398 3223125
0.8664782 0.45992091 0.218328 2236224
0.86796188 0.46183956 0.21722758 3946336
0.8699528 0.46507904 0.21664131 4011112
0.87194937 0.46695682 0.21759641 2893900
0.87423599 0.4689205 0.21724695 3090774
0.87666506 0.47090295 0.21691847 3617126
0.8404566 0.43252045 0.2188409 8608862
0.84209585 0.4332422 0.21762273 8674146
0.84408367 0.43569851 0.21764255 8871781
0.84563905 0.4377439 0.21808255 8346205
0.84763926 0.44050062 0.21810442 7491925
0.85041249 0.44272938 0.21755511 7886943
0.85190547 0.44478422 0.21751788 7296605
0.85300636 0.44769192 0.21723148 5523807
0.85493147 0.44972071 0.21671879 4998247
0.85677201 0.45191348 0.21700937 4603992
0.85887671 0.45382994 0.21669298 4998252
0.86053306 0.45616463 0.21650591 4405352
0.86298418 0.45909607 0.2165131 4405595
0.86523175 0.46082008 0.21657699 4800865
0.83219016 0.42563203 0.21779132 9265770
0.83367908 0.42718613 0.21756163 8740707
0.83661115 0.42977202 0.2170198 8411483
0.83934736 0.43163112 0.21722066 8279898
0.83987296 0.43439877 0.21727568 7295318
0.84206581 0.43711239 0.21697548 7231838
0.84403062 0.43929136 0.21615258 6442334
0.84530759 0.44171283 0.21624476 5193305
0.84746867 0.44353482 0.21599683 5522275
0.84950536 0.44593045 0.21585327 5786212
0.85172194 0.44815418 0.21556741 5720689
0.85398072 0.44999376 0.21582457 5588329
0.85595155 0.4522444 0.215509 5917042
0.8579073 0.4537676 0.21467835 6378374
0.82503736 0.42028603 0.21621269 10251618
0.8272782 0.42184737 0.21602106 9593697
0.82950461 0.42366901 0.21597081 9067360
0.83130121 0.4259032 0.21596342 8543336
0.83310163 0.42882442 0.21583986 7560560
0.83480453 0.431207 0.21529737 6772077
0.83674264 0.43352336 0.2152133 6246509
0.83880538 0.4355914 0.21536404 6245997
0.84075612 0.43749693 0.21501738 6706804
0.8430512 0.43963164 0.21489441 6509942
0.80806446 0.40297908 0.216616 6239277
0.81004059 0.40414137 0.21581149 6502192
0.81252325 0.40561336 0.21577567 6830646
0.81419414 0.40983307 0.2158494 8867386
0.81581777 0.41108167 0.21474159 8999739
0.81745315 0.41380152 0.21585357 9395532
0.82003534 0.41612911 0.21532002 9723732
0.82188696 0.41802534 0.21549588 10579045
0.82303506 0.42022347 0.21501815 9530227
0.82465148 0.42339531 0.21490666 7363710
0.82706857 0.42540669 0.2142373 7035263
0.82970816 0.42747945 0.21458843 6903933
0.83170652 0.42954406 0.21492025 6771577
0.83288372 0.43131363 0.21441782 6507379
0.79720342 0.39245746 0.21627575 4074277
0.79880106 0.3946088 0.21588343 4205605
0.80037117 0.39676937 0.21535268 4401959
0.80199134 0.39873105 0.21540087 5189415
0.80447668 0.40133083 0.21511188 6304809
0.8067199 0.40293586 0.21496636 6632748
0.80888146 0.40558898 0.21460339 8406322
0.81055713 0.40813252 0.21481165 8210231
0.81259137 0.41017273 0.21447182 8342602
0.81370449 0.41281861 0.21389651 7821154
0.81612021 0.41501665 0.21372753 7887981
0.81817818 0.41715971 0.213622 8282745
0.82006109 0.41912621 0.21369159 8415363
0.82247347 0.4215017 0.21357241 8351112
0.82482505 0.42335021 0.2130025 7496833
0.78077221 0.37405145 0.2148602 1579038
0.78236151 0.37590751 0.21463051 1710366
0.78404605 0.37856388 0.2157357 2104608
0.78600323 0.38108999 0.21512318 2958115
0.7875843 0.3836903 0.21510002 3351845
0.78912485 0.38546953 0.21427891 3417893
0.79148221 0.38832456 0.21439603 4270119
0.79410303 0.39040253 0.21449932 4729383
0.79613227 0.39245117 0.21488485 4860967
0.79756707 0.39488545 0.21398017 5910565
0.79998112 0.39678514 0.2138274 5845542
0.80131727 0.39993817 0.21347994 4927546
0.80306125 0.40197456 0.21337998 5452863
0.80467463 0.4046075 0.21336475 6241095
0.80688918 0.40684795 0.2131643 6831950
0.80887586 0.40868774 0.21322083 7424082
0.81048489 0.41119748 0.21297649 7231850
0.81340861 0.41317499 0.21247083 7759222
0.77641338 0.37021035 0.21431783 1512993
0.7779038 0.37168932 0.21505827 1513245
0.77940238 0.37383634 0.21458918 1776415
0.78064787 0.37702894 0.21444702 2104611
0.78294647 0.3794674 0.2140331 2301221
0.78352755 0.38331953 0.21427646 2104365
0.78680754 0.38438338 0.21403646 4072997
0.78895879 0.3868351 0.213626 4204070
0.79028732 0.38921475 0.21263421 4203819
0.79166329 0.3912825 0.21235275 4203569
0.79379106 0.39378542 0.21269095 3612213
0.79542875 0.39670959 0.21246126 4401977
0.79776573 0.39799896 0.21260116 4336700
0.79926789 0.40018269 0.21253899 5188664
0.80155146 0.40248162 0.21190226 6106938
0.80419374 0.40543473 0.21068665 6704221
0.80539715 0.40728211 0.21205065 6771038
0.80746287 0.4092904 0.2112304 7033698
0.77356672 0.37248626 0.2124716 658995
0.7755028 0.3735314 0.2128776 725031
0.77753741 0.37567055 0.21272248 1382180
0.77947021 0.37873232 0.21230942 1644580
0.78115159 0.38073167 0.21245864 2038566
0.78333634 0.38329819 0.21212488 2497321
0.7851584 0.38568997 0.21159795 3021612
0.78655863 0.38796017 0.21214527 3152683
0.78794742 0.39015135 0.21094456 4202024
0.79045385 0.39301991 0.21186024 4660517
0.79227948 0.39503965 0.21123564 4336701
0.7939378 0.39597857 0.21123588 4729401
0.79662812 0.39871043 0.21044755 5841706
0.99328893 0.57245171 0.23219004 1644575
0.98423564 0.56503654 0.2304855 1579297
0.98554325 0.56612909 0.23134515 1513761
0.98778576 0.56856287 0.23080689 1448224
0.9901253 0.57097661 0.23089829 1645090
0.99073648 0.57319534 0.22984001 2171178
0.99299359 0.57607126 0.22979793 2105387
0.99524212 0.57809305 0.23002595 2105389
0.97434282 0.55655289 0.23015991 1710883
0.97645676 0.55801064 0.22997984 1710370
0.97903979 0.56072849 0.23012239 1710882
0.98066878 0.56291103 0.22953805 1973800
0.98285061 0.56413937 0.22973862 1710885
0.98483598 0.56759423 0.22935563 2170923
0.98608136 0.57008612 0.22977874 1973806
0.98910326 0.57156509 0.22937089 2171179
0.98901916 0.5747478 0.22891274 1382447
0.99130964 0.57718539 0.22862533 1053734
0.99345821 0.57945645 0.22924381 988198
0.96211982 0.5437519 0.22936171 1710883
0.96396697 0.54562974 0.22947955 1645347
0.96571517 0.54742467 0.22970784 1645091
0.96811914 0.54982948 0.22917166 1645093
0.96959174 0.55299735 0.22944382 1973543
0.97167897 0.55467093 0.22922403 1907750
0.97417003 0.55671799 0.22859168 2039337
0.97580409 0.55897307 0.22923461 2236716
0.9762547 0.56341869 0.22864541 1053221
0.97703695 0.56430119 0.22825912 1250859
0.97970212 0.56670868 0.22743976 1119270
0.98226899 0.56874627 0.22770411 1185322
0.98485351 0.57104123 0.22798678 1053476
0.98685431 0.57323241 0.22821999 1185064
0.98867029 0.57512903 0.22779131 1119272
0.95241225 0.53498298 0.22811314 1711140
0.95443249 0.53741604 0.22912449 1710883
0.95710832 0.53955019 0.2290881 1776418
0.95937622 0.5414477 0.22878015 1776419
0.9596101 0.54450381 0.22894859 2105129
0.96182883 0.5471524 0.22812831 2236716
0.96393871 0.54926592 0.22794449 2302252
0.96575093 0.55135632 0.22789669 1973545
0.96721458 0.55400139 0.22752178 1250854
0.96924269 0.55646586 0.22745699 1185320
0.97117174 0.55868828 0.22746578 1185321
0.97365052 0.56051922 0.22723773 1185321
0.97544074 0.56228858 0.22705626 1316652
0.97778845 0.56482148 0.22681916 1316910
0.94099313 0.52603793 0.22863927 1842468
0.94310939 0.52703178 0.22724771 1842212
0.94458646 0.52885461 0.22807389 1842213
0.94720364 0.53176725 0.22814316 1973800
0.94972491 0.53366601 0.2282483 1908006
0.95058918 0.53545266 0.22760463 2302251
0.95315373 0.53867757 0.22799402 2302251
0.95497763 0.54117614 0.22729072 1776680
0.955948 0.54331577 0.22684929 1185059
0.9588697 0.54533988 0.22679147 1447972
0.95986974 0.54823911 0.22648367 1250858
0.96229613 0.55019152 0.22651753 1185064
0.96412718 0.55198723 0.22641626 1251115
0.96609318 0.55405569 0.22672537 1448499
0.96995115 0.55801392 0.22564119 1448498
0.9332844 0.51903248 0.22716358 1776421
0.93643159 0.52123362 0.22684497 1841959
0.93735433 0.52341694 0.22667965 2170921
0.93998647 0.5251956 0.22749782 2039592
0.94153404 0.52831125 0.22685802 1908265
0.94358921 0.53069425 0.22633567 1447974
0.94514537 0.53257501 0.226024 1250853
0.94709682 0.53561676 0.22555408 922145
0.9490304 0.53727531 0.22633851 987937
0.95084673 0.53953815 0.22527418 1119529
0.95223743 0.54165506 0.22593608 1185323
0.95495152 0.54459012 0.22551772 1448498
0.95719308 0.54725385 0.22616911 1448499
0.92273408 0.50950682 0.22612306 2039082
0.92418635 0.51133382 0.22653306 1973545
0.92627525 0.51319152 0.22618586 2105131
0.9289704 0.51522613 0.2263256 2039082
0.93051386 0.51746798 0.22649804 2170922
0.93225473 0.51996493 0.22589538 1908010
0.93409854 0.52263492 0.22552466 1381926
0.93631113 0.52490461 0.22513801 987681
0.93780279 0.52729201 0.2254388 1053736
0.93987787 0.5293951 0.22485059 1119530
0.94079518 0.53263718 0.22480601 1448499
0.94280553 0.53431588 0.22431207 1448499
0.94505811 0.53668416 0.22420096 1448499
0.947088 0.53800446 0.22484741 1448499
0.91326308 0.500386 0.22509301 2039337
0.91523325 0.50307167 0.22566149 2301996
0.91745794 0.50507653 0.22548369 2236460
0.91944158 0.50679517 0.22582254 2105130
0.92126369 0.50881791 0.22556531 2039339
0.92235148 0.51206028 0.22547784 1382695
0.92420149 0.51460791 0.22472438 922404
0.92646813 0.51641262 0.22442862 922149
0.92852616 0.51919073 0.22441244 1053994
0.93033481 0.52105832 0.22465286 1119532
0.93201923 0.52318573 0.22416937 1316914
0.93480575 0.52562886 0.22454694 1382450
0.93676841 0.52739418 0.22292417 1448244
0.9384917 0.52955323 0.22373566 1382965
0.90212786 0.49060154 0.22500098 2894131
0.90422487 0.4923335 0.22477019 2235950
0.90617025 0.49431452 0.22461519 2038825
0.9082036 0.4966124 0.22495976 2104874
0.91046369 0.49907804 0.22479004 1973545
0.91165686 0.50138295 0.22438666 1579303
0.91346812 0.50416005 0.22380966 922404
0.91546822 0.50649619 0.22401169 987940
0.9178288 0.50851381 0.22469875 987941
0.92016286 0.51049894 0.22355852 922659
0.92067653 0.51335114 0.22311825 1316657
0.92315507 0.5160656 0.22341621 1382708
0.92514372 0.51756531 0.22333616 1382708
0.9271605 0.51923782 0.22306937 1448243
0.88952017 0.47756207 0.22460675 8879748
0.89127243 0.47956273 0.22457105 6972021
0.89329004 0.48143685 0.22490489 3816261
0.89536184 0.48390123 0.22433904 3355976
0.89714646 0.4857505 0.22429878 3420998
0.89862776 0.48868579 0.22380838 2960447
0.90078783 0.49108458 0.22405985 2565941
0.90237164 0.49310392 0.22367349 1447981
0.90417218 0.49578416 0.22272193 856359
0.90656698 0.49773231 0.22339761 922149
0.90772635 0.50038344 0.22307163 1119533
0.90923023 0.50325531 0.22251108 1382451
0.91136533 0.50533348 0.22238606 1382452
0.91359663 0.50721812 0.22233742 1447988
0.91610885 0.50978982 0.22274208 1447988
0.91800958 0.51140153 0.22220528 1382453
0.88127971 0.47279498 0.22421682 2433327
0.88348472 0.47346526 0.22327983 1841443
0.88642669 0.47580993 0.22417545 2959144
0.8877334 0.47828448 0.22339612 8158350
0.8894667 0.48108464 0.22275004 5727118
0.89147425 0.4833087 0.22293723 1649486
0.89345419 0.48578626 0.2233755 2173500
0.89558417 0.48727196 0.22292912 2238520
0.89719832 0.48972619 0.22265598 2040633
0.89870805 0.49201253 0.22194698 1909304
0.89970702 0.49463618 0.22146457 1777720
0.90230799 0.49695072 0.22162962 1184821
0.90423894 0.49919811 0.2223815 1316662
0.90628976 0.49984923 0.22131744 1250866
0.87057304 0.46192425 0.22266647 1643297
0.87248671 0.46385866 0.22281092 2104107
0.87446463 0.46563938 0.22223386 2300969
0.87687087 0.46767896 0.22309393 1906723
0.87809956 0.46991166 0.22280464 1578533
0.88021231 0.47218162 0.22240904 1447459
0.88139486 0.47519553 0.22207734 1119527
0.88427758 0.47700962 0.22212172 3948600
0.8852883 0.47913763 0.2215125 5330015
0.88801563 0.48168951 0.22211021 8553638
0.8902241 0.48368111 0.2220009 4145783
0.89207065 0.48616382 0.22131607 1778250
0.89377046 0.48886889 0.22190359 2699084
0.89604139 0.490217 0.22062519 2172738
0.85885578 0.45085534 0.22227997 2760232
0.86096376 0.45303565 0.22236586 2365990
0.86348605 0.45550466 0.22215948 2826794
0.86577833 0.45743331 0.22211617 2695465
0.86733311 0.45973381 0.22181472 1578275
0.86949122 0.46170536 0.22193551 1709861
0.87069488 0.46503231 0.22171068 658981
0.87305176 0.46697715 0.22127974 527136
0.87445688 0.4690451 0.22113705 658468
