# .PCD v0.7 - Point Cloud Data file format
VERSION 0.7
FIELDS x y z rgba
SIZE 4 4 4 4
TYPE F F F U
COUNT 1 1 1 1
WIDTH 1172
HEIGHT 1
VIEWPOINT 0 0 0 1 0 0 0
POINTS 1172
DATA ascii
0.87429643 0.60485768 0.18268442 2105666
0.87576342 0.60728472 0.18208367 2105672
0.87784374 0.60958815 0.18184176 1974603
0.88003665 0.61171788 0.18159401 1778255
0.88175708 0.61303425 0.18093026 1516635
0.86082256 0.58985758 0.1838792 2434351
0.86190575 0.59156084 0.18321073 2565685
0.86357045 0.59353125 0.18309993 2565432
0.8657853 0.59598482 0.18271527 2434360
0.86766952 0.59828484 0.18262172 2303034
0.86851984 0.60118592 0.18185109 2106184
0.87105799 0.60303438 0.18150651 2237515
0.8730036 0.6050359 0.18143606 2303567
0.87447834 0.60665107 0.18099496 2631246
0.85488927 0.58535808 0.18259621 2565937
0.85708225 0.58718169 0.18292269 2500148
0.85899413 0.5900194 0.18277463 2434363
0.86040139 0.59231365 0.18194863 2040643
0.86213553 0.5948872 0.18147802 2106185
0.8642326 0.5972991 0.18136966 2106443
0.86579341 0.59920788 0.18086326 2303567
0.86746734 0.60068226 0.18097878 2041680
0.84813875 0.57936478 0.18290463 2106678
0.8499164 0.58131945 0.18288079 1645872
0.85166848 0.58357686 0.18240863 1777208
0.85298765 0.58575338 0.18177548 1974852
0.85485792 0.5882501 0.18141252 2106442
0.85708988 0.5904212 0.18097308 2106443
0.85877728 0.59206009 0.1803534 2107217
0.83910561 0.56940103 0.18241042 1513514
0.84050769 0.57235563 0.18287194 3356234
0.84302533 0.57450688 0.18229443 11380396
0.84467816 0.57755512 0.18225452 12959936
0.84617972 0.57944977 0.18148902 11842745
0.847785 0.58203518 0.18132725 9541280
0.84994107 0.58424526 0.18066105 1647706
0.85149443 0.58587158 0.18109319 1251916
0.83266902 0.56476712 0.18278906 8617873
0.83408523 0.56614614 0.18329298 3223616
0.83673823 0.56850946 0.18255052 2039865
0.83750284 0.57110107 0.18179312 1316935
0.8391248 0.57355058 0.1813235 1382469
0.84125829 0.57512927 0.18114877 2299703
0.84272158 0.57749033 0.18076515 9601678
0.84498245 0.57988548 0.17985913 12566463
0.84634316 0.58080709 0.17919645 12566463
0.82533658 0.55830115 0.18286997 657710
0.82656109 0.560036 0.18221378 5656939
0.82868654 0.56281924 0.18249312 12958914
0.83061385 0.5645206 0.18175197 13420999
0.83211488 0.56671792 0.18105787 12237499
0.83419269 0.56915838 0.18091717 5397627
0.83606648 0.57107925 0.18077102 461917
0.83775926 0.57235676 0.17980281 1843810
0.81822717 0.55172354 0.18311766 2368073
0.82022911 0.55308175 0.1820249 2302281
0.82224011 0.55538327 0.18259943 2368069
0.82385802 0.55802524 0.18181437 1841732
0.82522452 0.56098205 0.18085667 1380935
0.82699049 0.56270075 0.18040663 5456994
0.82909071 0.56480861 0.18028641 12236715
0.81224549 0.54719377 0.18151969 2500439
0.81409186 0.5491004 0.18086648 2369108
0.8166275 0.55158877 0.18186885 2368846
0.8172524 0.55457586 0.18043903 2501227
0.81930292 0.55654287 0.18029296 2435691
0.82158202 0.55852294 0.18022695 2435690
0.82323849 0.56049323 0.17952797 1450088
0.80371559 0.5381459 0.18264318 2434125
0.80543554 0.54054338 0.18176803 2500432
0.80758989 0.54310131 0.18145338 2698080
0.80961114 0.54544675 0.18141887 2632548
0.81049323 0.54801971 0.17994833 3094669
0.81243622 0.55040544 0.18026561 2765181
0.8146069 0.55242079 0.17937183 2502787
0.81629395 0.55414581 0.17954442 2567804
0.81832081 0.55578166 0.17887354 2239618
0.79457873 0.52758384 0.18203703 2697821
0.7950384 0.52897567 0.18265301 2566486
0.79721206 0.53076982 0.18214679 2631765
0.79936814 0.53416532 0.18195534 2565460
0.80155873 0.53649735 0.18158224 2565716
0.80218363 0.54086357 0.18129319 2697564
0.80397695 0.54196483 0.179831 2502521
0.80586898 0.54402995 0.1802536 2436987
0.80772412 0.54615432 0.17928505 2569350
0.8091417 0.54840994 0.17973796 2502782
0.81116319 0.55049235 0.17896819 2438289
0.78680032 0.52169055 0.18264747 2697046
0.78876323 0.52322072 0.18230611 2697818
0.79105973 0.52544665 0.18189424 2697562
0.79261494 0.52705932 0.1819132 2632026
0.79325056 0.53158152 0.18019181 2963348
0.79484028 0.53264523 0.18039688 2765960
0.7967515 0.53516555 0.17978787 2568838
0.79893595 0.53746706 0.18008974 2502264
0.80099386 0.53954297 0.17972282 2436985
0.80217123 0.54103678 0.17935807 2240643
0.7812016 0.51685834 0.18231308 2631769
0.7840867 0.51838809 0.18208772 2697566
0.78596401 0.5202682 0.18155533 2828898
0.78753161 0.52661949 0.17972171 2765710
0.78939176 0.5290401 0.18000183 2830979
0.79171777 0.53106451 0.17949167 2699914
0.79388416 0.5332222 0.17972288 2371462
0.7954241 0.53518891 0.17898017 2502782
0.77210319 0.50862181 0.18231148 2697825
0.77410686 0.50990707 0.1819317 2632030
0.77617276 0.51210642 0.18231979 2566491
0.77860761 0.51440662 0.18119162 2697824
0.77885377 0.51815408 0.18024871 2503568
0.78044426 0.52015841 0.17993224 2437776
0.78251827 0.5222134 0.17924377 2634376
0.78473961 0.5247252 0.17950103 2699911
0.78634119 0.52676541 0.17910257 2437778
0.78846204 0.52921259 0.17862386 2437779
0.76684242 0.50374794 0.18118313 2438552
0.76915103 0.50596523 0.18133375 2239353
0.77143079 0.50768006 0.18144175 2632040
0.77205628 0.51259458 0.17963672 2766244
0.77412564 0.5140202 0.1794728 2503836
0.77603674 0.51634759 0.17959142 2503051
0.77767074 0.51797736 0.17882559 2633861
0.77919018 0.52059567 0.17949882 2829420
0.75968182 0.49751547 0.18153527 3427007
0.76198375 0.49943414 0.18070108 3229887
0.76414084 0.50184125 0.18163061 3228851
0.76661003 0.50921959 0.18016303 3031758
0.76843917 0.51016712 0.17871156 2307248
0.77007377 0.51195753 0.17896676 2241184
0.7723546 0.51419729 0.1787684 2437001
0.77451479 0.51589561 0.17810899 2764666
0.75248384 0.49233407 0.18163645 2641362
0.75451791 0.49355018 0.18054041 3034830
0.75685608 0.49580741 0.1807771 3756751
0.75805056 0.49896431 0.17994916 4021483
0.75961113 0.50086981 0.17923984 3562468
0.76169193 0.50349379 0.17911273 3496930
0.76358855 0.50542778 0.17901301 3494623
0.76547325 0.50772661 0.17836651 2704851
0.7667805 0.51007921 0.17848712 2045108
0.74428326 0.48240775 0.18110311 7380735
0.74659854 0.48488271 0.18146214 7708159
0.74879682 0.48712286 0.18105617 6720764
0.74995613 0.48968551 0.18009666 5739001
0.75113642 0.49216413 0.17980731 3699179
0.75275576 0.49474812 0.17914128 2778094
0.75511628 0.49702919 0.17917234 3170279
0.75728273 0.4987027 0.17864272 3959262
0.73745722 0.47636163 0.1807881 8368381
0.7391476 0.47828484 0.18093899 8302335
0.74099046 0.48056901 0.18088335 9094655
0.74241018 0.48286352 0.18024293 9426175
0.74433994 0.48567128 0.17950565 9162494
0.74565494 0.48808378 0.17883188 8438767
0.74779963 0.49024391 0.17890677 7779304
0.74972749 0.49277112 0.1792292 4423386
0.73005354 0.47001356 0.18077341 10148095
0.73191065 0.47200423 0.18058613 13365759
0.73449516 0.47443664 0.18094176 10804222
0.73624861 0.47606274 0.1802614 10541566
0.73721892 0.47941011 0.17950904 9823215
0.73895687 0.4818601 0.17884231 9361645
0.74075568 0.48419634 0.17881936 8702702
0.74273896 0.48611212 0.17881137 7979495
0.72144628 0.46274132 0.18192923 9355258
0.72332752 0.4639551 0.18068913 4955635
0.72550189 0.46584439 0.18061352 4299518
0.72758508 0.46781582 0.18058008 5943295
0.7294566 0.47006178 0.18043473 9753599
0.72922683 0.4736349 0.17881575 11266032
0.73153472 0.47553962 0.17828959 13167345
0.73409331 0.47770762 0.17847455 11067631
0.73573357 0.48010704 0.17912313 9885950
0.71638691 0.45733479 0.18013048 12385023
0.7178852 0.45931208 0.18017966 11134718
0.72044319 0.46144181 0.1800634 11067646
0.72120309 0.46412623 0.17971903 11198450
0.72259033 0.46691895 0.17859587 4235998
0.72474653 0.46913391 0.1782741 5156597
0.72713351 0.47128302 0.1784822 7130095
0.7074632 0.44951415 0.18098274 11199743
0.70911139 0.45048279 0.17996708 9624063
0.71130848 0.4530586 0.1803492 8837119
0.71378052 0.45522416 0.18005466 9888767
0.71440673 0.45806727 0.17933327 10678523
0.71602225 0.46056867 0.17864472 11924728
0.71817183 0.46283394 0.17871231 12252152
0.72012019 0.46449566 0.17836544 10608874
0.68914831 0.42500073 0.18349269 2696239
0.69103301 0.42693385 0.18289593 396572
0.69264907 0.42935973 0.18321243 8166113
0.69450283 0.43157917 0.18356776 14611711
0.69888419 0.44090855 0.18111911 11199485
0.70019364 0.44165778 0.18094906 9688318
0.70189506 0.4443388 0.17999595 9820671
0.70409572 0.44653547 0.17991507 10543871
0.70595098 0.44868898 0.17955863 11004670
0.70660019 0.45171297 0.1785717 10940923
0.70862496 0.45394796 0.17849049 9826298
0.71095395 0.45589459 0.17842638 9104635
0.71243215 0.4574559 0.17857397 9629435
0.68357587 0.42094398 0.18361163 2696491
0.68628788 0.42266619 0.18338656 2762539
0.68885577 0.42388362 0.18277705 3025197
0.6883688 0.42848685 0.18177083 2960442
0.69029903 0.43059278 0.18148148 1119534
0.69220304 0.43271723 0.18108654 7372701
0.69415987 0.43557727 0.1810208 16449022
0.69585562 0.43785763 0.18028921 16449534
0.69767869 0.43979266 0.18010885 14875902
0.69892478 0.44315517 0.17934859 11793405
0.70061702 0.44531098 0.17845929 9431293
0.70264959 0.4477011 0.17883101 10679551
0.70421159 0.44940457 0.17815247 10810879
0.67904466 0.41631612 0.18363571 4343638
0.68074709 0.41893989 0.18351084 2894648
0.68217885 0.42159265 0.18189687 2697526
0.68328369 0.42436677 0.18101674 2960183
0.68551803 0.42638034 0.18101051 2960698
0.68671346 0.42916983 0.18078375 3223623
0.68896961 0.43084216 0.1800341 1711428
0.69079459 0.43344092 0.18028361 4541808
0.69253004 0.43592522 0.17977527 15462908
0.69445825 0.43842328 0.17886901 16646142
0.69636321 0.44111425 0.17858431 15400189
0.697115 0.44278133 0.1789819 13302525
0.68006122 0.42247459 0.18066406 3158857
0.68175507 0.42381477 0.18116191 2697530
0.68477321 0.4270781 0.17913115 3026247
0.67745733 0.42164457 0.17961055 4409442
0.67870992 0.42229164 0.17872897 3817298
0.89639592 0.62511659 0.18652797 2104365
0.89822608 0.62651932 0.18627873 2170413
0.90003288 0.62869227 0.18711525 2236718
0.90079427 0.63203424 0.1849162 2039083
0.90291917 0.6341337 0.18504727 2302255
0.90490532 0.63638133 0.18556559 2039590
0.88938129 0.61871266 0.18550652 1183796
0.89112997 0.62052011 0.18623623 1380906
0.89225996 0.62286907 0.18650663 1381668
0.89445841 0.62493443 0.185669 1380914
0.89534557 0.62776959 0.1848959 1118511
0.89741302 0.63025093 0.18428656 1710389
0.89918107 0.63205552 0.18436342 2105402
0.90128648 0.63426208 0.18466944 2040125
0.88187218 0.61266196 0.18682078 2104880
0.88393533 0.61367881 0.18588218 1513520
0.88603157 0.61637306 0.18602109 1448241
0.8872031 0.61872321 0.18536785 1250363
0.88874245 0.62163502 0.18471831 986942
0.8903873 0.62380755 0.18410781 1184579
0.89230716 0.62660515 0.18388924 1250111
0.89412147 0.6285013 0.18341577 1316675
0.89583319 0.63043261 0.18346268 1645896
0.8751592 0.60626107 0.18557796 2368306
0.87642741 0.60773718 0.18590418 2368049
0.87842304 0.60990274 0.18598887 2302001
0.88019526 0.6127314 0.18533218 2039350
0.88183939 0.61496103 0.18464378 1711675
0.88402247 0.61698103 0.1845426 1383747
0.88582718 0.61914074 0.18442905 1646670
0.88767564 0.62091529 0.18341523 2040923
0.86630344 0.59693742 0.18668279 2368296
0.86792922 0.59885675 0.18520921 2368561
0.86984944 0.6011529 0.18530229 2433590
0.87114799 0.60378748 0.18583208 2105393
0.87297022 0.60609001 0.1846455 2171193
0.87494051 0.60867095 0.18442491 2040125
0.87695432 0.61090636 0.18464452 1974331
0.87901187 0.61232418 0.18380925 2105665
0.85988319 0.59112424 0.18571168 2368812
0.86115432 0.5931254 0.18580058 2368556
0.86296862 0.59497607 0.18562034 2302768
0.86486781 0.59708631 0.18516463 2105650
0.86568844 0.59971404 0.18485001 2105659
0.86792779 0.60217404 0.18435001 2040121
0.86990774 0.60417545 0.18385175 1974848
0.87194097 0.60705841 0.18456823 1909571
0.85228682 0.58463973 0.18616298 2368555
0.85444164 0.58643895 0.18566126 2368558
0.85595 0.58874118 0.18535858 2171443
0.85753322 0.59115326 0.18518561 2105912
0.85917681 0.59321761 0.18440202 2040383
0.86112946 0.59567821 0.18442416 2040127
0.8633368 0.59764612 0.18380058 2171715
0.84492654 0.57915926 0.18646058 1839411
0.84697872 0.58013487 0.1855213 2170163
0.84860134 0.58249694 0.18538365 1578808
0.85057479 0.58444524 0.18491292 1580091
0.8522476 0.58705842 0.18441212 2040128
0.85445577 0.58936501 0.18396664 2040645
0.85614204 0.5915736 0.1839692 2434115
0.83810604 0.57145357 0.18466896 1250082
0.83954376 0.57367194 0.18552566 3158338
0.84157854 0.57640719 0.18487725 6443107
0.84378517 0.57808149 0.18478408 9799574
0.84548485 0.58060718 0.18426359 9209489
0.84717137 0.58260143 0.18371269 5657993
0.8490665 0.58495808 0.18351698 659015
0.83105016 0.56521642 0.18498299 10525604
0.83259273 0.56708491 0.18554938 6186615
0.83443141 0.56920129 0.18489718 2634052
0.83628672 0.57194763 0.18430969 1645888
0.83834356 0.57404906 0.18408161 1710910
0.84044433 0.57628012 0.18360284 2102847
0.84239936 0.57821196 0.18282139 10655661
0.82212448 0.55727029 0.18611342 2236719
0.82421267 0.55851972 0.18505743 658721
0.8264088 0.56041533 0.18488851 7763849
0.82809025 0.56328958 0.18526271 11377839
0.82921529 0.56580281 0.18396133 12630718
0.83119094 0.56785601 0.18382677 10328741
0.83295482 0.57026529 0.18354365 4345465
0.83446532 0.57181251 0.18300173 267580
0.81748867 0.55319703 0.18482015 2236731
0.81946659 0.55429202 0.18461728 2236987
0.82118177 0.55685419 0.18534204 2171708
0.82191944 0.55952668 0.1836009 2369105
0.82404882 0.56178433 0.18346763 1052477
0.82629526 0.5634225 0.1833052 4929374
0.82785684 0.56538391 0.18252984 11117743
0.80979151 0.5459522 0.18495768 2302533
0.81175691 0.54826629 0.1847775 2236993
0.81369126 0.55036587 0.18413603 2303049
0.81502438 0.55324787 0.18347222 2303832
0.81667733 0.55537391 0.18315452 2238302
0.81910789 0.55718291 0.18309408 2238041
0.82023382 0.55874372 0.18369189 2369370
0.79911447 0.53541923 0.18588981 2433858
0.80097103 0.53741938 0.18528563 2434116
0.80370378 0.53979981 0.18520328 2368322
0.80545509 0.54119802 0.18487662 2368325
0.80705714 0.54392147 0.18383756 2434129
0.80778307 0.54683006 0.18324539 2566750
0.81023908 0.54897159 0.18320948 2369890
0.81219834 0.55147779 0.18297881 2238562
0.81414384 0.55263513 0.18199199 2238561
0.79280198 0.52820301 0.1858142 2499911
0.79508823 0.53043783 0.18536216 2499912
0.79689354 0.53172207 0.18452758 2499914
0.79847091 0.53471142 0.18507785 2434117
0.79876089 0.53779471 0.18403104 2566233
0.80096626 0.54020464 0.18336359 2435423
0.8029052 0.54264712 0.18246564 2238822
0.80478632 0.54445553 0.18289179 2173027
0.80619955 0.54729599 0.18262511 2172769
0.80830866 0.54943746 0.1814183 1976946
0.78362405 0.52011633 0.18538994 2565706
0.78550506 0.52187413 0.18486077 2565451
0.78756624 0.52413255 0.18514472 2499913
0.7906028 0.52613509 0.18462855 2565709
0.79166788 0.53198749 0.18341732 2370669
0.79390275 0.53413665 0.182724 2435946
0.79580569 0.53634489 0.18231624 2370152
0.79826057 0.53825408 0.18254352 2370150
0.79978776 0.53925341 0.18180016 2042992
0.77843928 0.5153119 0.1846109 2631247
0.78053677 0.51730675 0.1853444 2630988
0.7830044 0.5189361 0.18470946 2565454
0.78415161 0.52271622 0.18345669 2501217
0.78467959 0.52555466 0.18321064 2239088
0.78686982 0.52780753 0.18213174 2501484
0.78850651 0.53009725 0.18268475 2369894
0.79079592 0.53236002 0.18214327 2304359
0.79252255 0.53409135 0.18167439 2042485
0.77102 0.50935704 0.18455037 2631511
0.77336752 0.51099044 0.1847232 2631505
0.77561074 0.51348716 0.18469843 2565708
0.77699101 0.51633954 0.18363744 2304099
0.7776041 0.51876444 0.18232679 2174074
0.7795012 0.52149439 0.18271068 2239343
0.78176624 0.52339613 0.18199095 2435949
0.78385496 0.52598137 0.18195468 2370411
0.78530699 0.52757263 0.18156379 2370152
0.78756517 0.53024387 0.18078196 2108539
0.763758 0.50274611 0.18474019 3225750
0.76614642 0.5048207 0.18390942 2568323
0.7682668 0.50701869 0.18438846 2369632
0.77029312 0.50860327 0.18363926 2565981
0.77055043 0.51313078 0.18254697 2371202
0.77266252 0.51518482 0.18208677 2305407
0.77497101 0.51679736 0.18176565 2370679
0.77611762 0.51907277 0.18213707 2698082
0.7789107 0.52191633 0.18147469 2763357
0.75657129 0.49756628 0.18488702 3094936
0.75872946 0.4985559 0.18396816 3227300
0.76130366 0.50036728 0.18353757 3490733
0.76309729 0.5017398 0.18399113 3555751
0.76500666 0.50865889 0.18187064 3293901
0.76714402 0.51135904 0.18167624 2436753
0.769274 0.51342016 0.18114233 2239617
0.77140152 0.51549482 0.18150708 2697826
0.77264178 0.51707828 0.18167248 2697821
0.75132978 0.49258399 0.1838851 2704828
0.75380695 0.49461389 0.18332544 3097265
0.75609976 0.49625492 0.1832017 3491249
0.75657368 0.49981815 0.18196639 3758062
0.7585718 0.50250411 0.18185392 3165141
0.76052165 0.50487328 0.1814172 3822040
0.76251471 0.50672984 0.18129179 3689682
0.76414728 0.50927174 0.18103155 3161789
0.7662214 0.51135969 0.18056691 2044328
0.74332678 0.48378468 0.18339199 7050494
0.74542564 0.48607892 0.18382937 7049210
0.74783528 0.48842758 0.18331832 6193649
0.74871171 0.49103048 0.18265906 4946413
0.75004804 0.49433219 0.18164247 3432688
0.75162214 0.49600643 0.18164736 2773991
0.75379777 0.49788344 0.18190101 2903004
0.75576156 0.4996987 0.18113774 3100113
0.75702488 0.50153142 0.18135828 3557321
0.73652256 0.4782275 0.18364444 10014207
0.73817909 0.47986656 0.18351564 9421823
0.74025631 0.48210996 0.18325439 8370943
0.74150044 0.48461002 0.18265346 9294335
0.74303001 0.48719549 0.1819562 7780588
0.74506837 0.48941711 0.18145043 8369649
0.74678463 0.49177289 0.18138537 6920166
0.74869597 0.49379849 0.18138453 3697632
0.72893417 0.47167635 0.18311155 7060223
0.73097551 0.47320688 0.18282545 9294078
0.73341548 0.47561461 0.18322393 7059454
0.73519051 0.47776031 0.18269771 9164794
0.73646665 0.4807744 0.18175417 10216940
0.73749232 0.48319241 0.18114752 9425902
0.7398839 0.48559576 0.18151075 7913449
0.74151528 0.48750192 0.18113619 7777788
0.72102809 0.46329892 0.18340033 6464511
0.72200549 0.46481368 0.18357903 5284095
0.72403049 0.46651289 0.18322736 4430079
0.72616363 0.46880674 0.18301737 3968767
0.72741783 0.47155219 0.18242985 4432885
0.72843528 0.47481054 0.18128896 8116971
0.7301085 0.47674641 0.18071964 8902380
0.7327106 0.47903579 0.18100819 7259633
0.73476267 0.48168159 0.18129343 10017535
0.71390045 0.45677555 0.18262985 10937087
0.71508986 0.45813841 0.18295351 11791615
0.71714306 0.46038553 0.18280807 11593727
0.71931708 0.46224082 0.18282169 10477823
0.72025263 0.46580634 0.1814383 7656694
0.72184169 0.46826619 0.18125182 4894962
0.72402841 0.47044453 0.18090254 3250927
0.72574216 0.47198904 0.1809935 3053046
0.72741365 0.47508562 0.18086034 6733823
0.70658648 0.45027113 0.18278041 12906751
0.70819145 0.45182025 0.18257022 12513023
0.71047807 0.45436627 0.18297222 12120319
0.71242678 0.45592225 0.18264997 10609407
0.71263146 0.45953774 0.18100956 11465208
0.7147193 0.46186191 0.18123254 12186874
0.71668887 0.46338999 0.18113875 11596023
0.71847188 0.46569589 0.18149665 9101813
0.68810964 0.42573565 0.18567187 3024944
0.68992043 0.4276666 0.18559188 593945
0.69165403 0.43019828 0.18591195 6386891
0.6934194 0.43297753 0.18590584 11126271
0.69908315 0.4432731 0.18276396 12185855
0.70098567 0.44558707 0.18245068 12118527
0.70317793 0.44771177 0.182515 11987967
0.7047345 0.44991282 0.18227059 13170942
0.70601892 0.45320529 0.1812005 13629691
0.70771635 0.45535037 0.18089932 13235963
0.71003687 0.45762497 0.18083152 11464953
0.67999339 0.41980922 0.18695113 2697271
0.68242002 0.42181575 0.18594918 2630954
0.68527812 0.42355776 0.18605158 2696746
0.68686587 0.42649662 0.18493584 2697267
0.68767446 0.42963642 0.18410277 2829115
0.68898416 0.4317126 0.18436429 1382190
0.69099033 0.43402702 0.1835784 4216973
0.69270468 0.43633765 0.18308431 13495038
0.69452429 0.4387846 0.18293607 13562111
0.69628513 0.44111717 0.18235299 12841215
0.69737113 0.44399634 0.18206924 12250367
0.69921511 0.44626158 0.18135691 12646655
0.70135355 0.44867915 0.18135187 12580606
0.703547 0.45100293 0.18037915 13106175
0.70493191 0.4530037 0.1805855 13827327
0.67664772 0.41640711 0.18564114 5133932
0.67797571 0.41750854 0.18563688 4803948
0.68046832 0.41951922 0.18549335 2631985
0.68053973 0.42333323 0.18363297 2237766
0.68247783 0.4253538 0.18371263 2500916
0.68401599 0.4275308 0.18369016 3025978
0.68528384 0.42989796 0.1828759 3026503
0.68733341 0.4321329 0.18259597 2368586
0.68957007 0.4345898 0.1828081 1844817
0.69091249 0.43666047 0.18209901 11389669
0.6928817 0.43950444 0.18186358 13695487
0.69453979 0.44179901 0.18128681 13171710
0.67666841 0.42268103 0.1826165 5199222
0.67876434 0.42356688 0.1828652 3224654
0.68078047 0.42574447 0.18390453 3091510
0.68188 0.42807996 0.18240854 3419971
0.6739313 0.42336869 0.18232888 4674161
0.90025288 0.62956631 0.189024 2302256
0.90491647 0.63707882 0.18979305 1908515
0.9058848 0.6383065 0.18878055 1908258
0.89422131 0.62594646 0.18944949 2302253
0.89641869 0.62742567 0.18885067 2367789
0.89888048 0.63019931 0.18978289 2236718
0.89936078 0.63381672 0.18775412 2368049
0.901384 0.6353423 0.18763146 2171183
0.90363777 0.63738775 0.18714133 2105649
0.88951445 0.62163687 0.18825489 2105135
0.89188665 0.6240958 0.18851519 2170925
0.89291501 0.62656349 0.18720263 1644838
0.8945421 0.62902683 0.18737665 2105132
0.89651489 0.63145453 0.18716833 2302257
0.89848942 0.63348609 0.18665206 2105654
0.89960527 0.63532907 0.18673044 2040383
0.88159394 0.61358827 0.18817157 2368048
0.8828907 0.61504471 0.18849123 2302255
0.88440782 0.61780423 0.18818048 2170924
0.88602698 0.62022483 0.18758392 1842738
0.8876074 0.62253022 0.18739882 1974067
0.88922334 0.62485254 0.18719801 2171191
0.89113057 0.62713528 0.18654031 2171194
0.89327931 0.62981546 0.18616316 2105917
0.89493704 0.63146877 0.18580267 1974591
0.87527317 0.60942996 0.18838358 2433584
0.87736678 0.61140871 0.18773311 2302255
0.87874353 0.61380464 0.18718067 2171185
0.88049674 0.61611247 0.18720812 2171445
0.8826412 0.61813784 0.18702698 2368314
0.8848778 0.62014848 0.1869109 2564665
0.86492831 0.59778589 0.18863836 2236709
0.86667138 0.60009837 0.18812484 2368045
0.86842132 0.60216904 0.1882498 2433840
0.87039065 0.60547704 0.18731633 2105391
0.87212688 0.60744381 0.18754414 2302516
0.87375218 0.60966468 0.18685716 2105909
0.87597191 0.61205149 0.18694767 2237240
0.87761354 0.61400664 0.186818 2237502
0.85660535 0.58985293 0.18843281 2368038
0.85837519 0.59170902 0.18865728 2368294
0.85987389 0.59410596 0.1880075 2236715
0.86137056 0.5963738 0.18804324 2039855
0.86334527 0.59834766 0.18755144 2105647
0.86520684 0.60096169 0.18734109 2040116
0.86695534 0.6031267 0.18713328 2105395
0.86886442 0.60526001 0.18669784 2236985
0.8702262 0.60729855 0.18630096 1974847
0.84922945 0.58266258 0.18898657 2236454
0.85108393 0.58486569 0.1891053 2236710
0.85318315 0.58770686 0.18801507 2039850
0.85473883 0.58993554 0.18762004 2105395
0.85637522 0.59226596 0.18785453 2236722
0.85787594 0.59440035 0.18700656 2040121
0.86017776 0.59658217 0.18667519 2171452
0.86155987 0.59792495 0.18684974 2433845
0.84415168 0.5798291 0.18794408 723474
0.84565687 0.58124375 0.18792477 1512480
0.84789366 0.58322418 0.18755114 1513259
0.84925759 0.58595932 0.18728071 1974070
0.85118097 0.58767545 0.18689871 2105656
0.85304654 0.59039158 0.18682408 2302779
0.85517788 0.59240997 0.18629652 2499388
0.83669555 0.57248253 0.18792522 2039334
0.83884537 0.57493806 0.18801874 1776683
0.84062314 0.57725853 0.18715087 1840681
0.84234357 0.57924724 0.18741155 1446184
0.84440541 0.58124495 0.1866765 1841458
0.84638119 0.58380324 0.18663317 920621
0.82886702 0.56440049 0.18825394 4997195
0.83002597 0.56600845 0.18827474 3222564
0.83147693 0.56837136 0.18741322 2105136
0.83364296 0.57087815 0.18721941 1184307
0.83544952 0.57316524 0.18686426 1974068
0.83699322 0.57540929 0.18658364 1974333
0.83925498 0.57708156 0.18608782 856121
0.82099783 0.55777907 0.18807909 2301993
0.82333767 0.55985177 0.18774676 1447200
0.8256042 0.56172705 0.18750015 5327688
0.82630301 0.56467384 0.18727815 3747388
0.82835126 0.56658256 0.18675208 5918807
0.82987726 0.56898046 0.18637016 4538967
0.83198655 0.57129997 0.18597162 329549
0.83391905 0.57375461 0.18598941 1449800
0.81459898 0.5514915 0.18691209 2171442
0.81606185 0.55354929 0.18777156 2236461
0.81852132 0.55558729 0.18707019 2368050
0.8190856 0.55848408 0.18649104 2368582
0.82123423 0.56040847 0.18650687 2303046
0.82313764 0.56236017 0.18631339 1381945
0.82500827 0.56504416 0.18613923 2236232
0.82731932 0.56653726 0.18464869 9670820
0.8283323 0.56899011 0.18511498 7433073
0.80685389 0.54416466 0.18708864 2236983
0.80887127 0.54656374 0.18736058 2171189
0.81093466 0.54962772 0.18696657 2171709
0.81226957 0.55170989 0.18657497 2368581
0.8138175 0.55400932 0.1860112 2172241
0.81600988 0.55611455 0.18633783 2303051
0.81764936 0.55764204 0.18586946 2172242
0.79698372 0.53402448 0.18858385 2368310
0.79857814 0.53543156 0.1885027 2302774
0.80031896 0.53799951 0.18748888 2302776
0.80226672 0.53946626 0.1870805 2302777
0.8033843 0.54257917 0.1876685 2106176
0.80501986 0.54578078 0.18658966 2303311
0.80688542 0.5477668 0.18586528 2303572
0.80909377 0.54979253 0.1855613 2238034
0.81117976 0.55224746 0.18533406 1844570
0.7899639 0.52725744 0.18774608 2499388
0.7920323 0.52921379 0.1885975 2433847
0.7939682 0.530752 0.18820786 2499384
0.79559463 0.53269595 0.18727413 2499386
0.79574823 0.53728575 0.18646693 2369624
0.79815555 0.53911203 0.18628958 2369367
0.80064887 0.54109007 0.18609273 2303831
0.80228603 0.54343987 0.18591008 2434900
0.8040598 0.5448541 0.18487066 2303833
0.78017259 0.51872218 0.18907011 2434359
0.78259015 0.52043927 0.18794638 2499645
0.78471345 0.52296698 0.18768314 2434108
0.78686506 0.52552372 0.18797091 2499642
0.78824723 0.52689564 0.18680155 2499916
0.78928614 0.53039658 0.18618065 2435680
0.79129171 0.53323638 0.18564212 2566232
0.79291576 0.53488266 0.18566948 2369627
0.79510069 0.5368669 0.18531197 2304089
0.79706907 0.5384596 0.18418318 2042469
0.77298743 0.51238 0.18903708 2631228
0.77515382 0.51418597 0.18794882 2631230
0.77753472 0.51590979 0.18725345 2565441
0.77974474 0.51766562 0.188216 2499901
0.78078747 0.52099359 0.18698025 2434384
0.78154409 0.52420098 0.18613598 2172770
0.78392601 0.52640265 0.18569353 2107491
0.7857765 0.52850693 0.18508741 2369626
0.78793865 0.53141904 0.18502429 2303833
0.79026401 0.53328657 0.18428922 2173024
0.76801914 0.50889975 0.18813497 2565703
0.77023315 0.50986135 0.18725783 2565703
0.77251178 0.51155335 0.18714198 2631237
0.7744844 0.51323521 0.18724886 2631489
0.77503175 0.5183565 0.18562642 2304616
0.77677298 0.51999271 0.18529248 2173289
0.77883017 0.5226047 0.1850864 2238816
0.78033864 0.52460021 0.18480709 2303835
0.78229856 0.52662528 0.18426132 2762577
0.76186717 0.50250226 0.18794304 2894953
0.76407814 0.50394869 0.18763357 2632036
0.76580864 0.50533646 0.18666837 2566497
0.76745999 0.50776231 0.18746224 2565710
0.76729685 0.5120911 0.18601984 2173292
0.76943588 0.51429021 0.18520716 2238822
0.77150273 0.51614082 0.18509996 2304354
0.77385241 0.51782912 0.18445849 2304357
0.775446 0.52098656 0.18419442 2763089
0.77709091 0.52241623 0.18388116 2828626
0.75605083 0.49836046 0.18692261 2961274
0.75792199 0.49968445 0.18661109 3027068
0.76061451 0.50134885 0.18628341 3158916
0.76069999 0.50544119 0.18553436 3292853
0.76282179 0.50758886 0.18485403 3161264
0.76455474 0.51031947 0.1844767 2437007
0.76647967 0.51267666 0.18435681 2304109
0.76794958 0.51429212 0.18354008 2107501
0.74950016 0.49170578 0.18646216 2966443
0.75101078 0.49331877 0.18654084 2570137
0.75316215 0.49548566 0.18611869 2897295
0.75397563 0.49865121 0.18517053 3095471
0.75543725 0.50112325 0.18439379 2768580
0.75752532 0.50372571 0.18467391 2701224
0.75941598 0.50561702 0.18383157 2964919
0.76124465 0.50798821 0.18390238 3028637
0.76335186 0.5098176 0.18325353 2699411
0.76565921 0.51260662 0.18261951 1911950
0.74058849 0.48378915 0.18624514 5604605
0.74227136 0.48510891 0.18559793 5603058
0.74353057 0.48738715 0.18639749 4285398
0.74578869 0.48967648 0.18571973 5073885
0.74717569 0.49196792 0.18517679 4613349
0.74847102 0.49487126 0.18435779 3428831
0.75058866 0.49684581 0.18442342 2703823
0.75283229 0.49875152 0.18393341 2703823
0.75508654 0.50216651 0.1843732 3027611
0.73509991 0.47909942 0.18576902 9221631
0.73660958 0.48113766 0.18583351 9225983
0.73848784 0.48307458 0.18551776 7648511
0.73993957 0.4858402 0.18495974 7845367
0.74161148 0.4880653 0.18418616 6067691
0.74346304 0.49024928 0.18414623 5275888
0.74516463 0.49278814 0.18427208 4220134
0.74721521 0.49388838 0.18348312 3758819
0.72796667 0.47270614 0.18554252 7253247
0.72996044 0.47447798 0.18538573 7450367
0.73199987 0.47660351 0.1854336 7780863
0.73394465 0.47882161 0.1855686 10148607
0.73419905 0.48208395 0.18375412 9165023
0.73634028 0.48457307 0.1838159 8046308
0.73817229 0.48626429 0.18350536 6926830
0.74032903 0.48874456 0.18388194 5474554
0.71892309 0.46343178 0.18576288 8961535
0.72068697 0.46560919 0.18600023 6333695
0.72329551 0.46789587 0.18571401 6332927
0.72547758 0.47035599 0.18571743 6923007
0.72604942 0.47307444 0.18502447 6860273
0.72733557 0.47564662 0.18388712 6534638
0.72913992 0.47781229 0.18354559 7257841
0.73152173 0.48033351 0.1834645 8309997
0.73308003 0.48214647 0.18325368 10213631
0.73459554 0.48431927 0.18364042 9949437
0.71194512 0.45731384 0.18571064 12908287
0.71394736 0.45908326 0.18525654 11462655
0.71642256 0.46148172 0.18576247 10803967
0.71855354 0.46329755 0.18508786 10742271
0.7187202 0.46751973 0.18388271 7192817
0.72045898 0.46897146 0.1837883 5155571
0.72271073 0.47162098 0.18392944 6729972
0.72499573 0.47382069 0.18285593 6267647
0.72644728 0.47572958 0.18312171 6990591
0.70534617 0.45107016 0.18503207 15204095
0.70710754 0.45299399 0.18520531 14679295
0.70925987 0.45514345 0.18547955 13563647
0.71093678 0.45745295 0.18452606 12644093
0.71145868 0.46091986 0.18371955 12121081
0.71383119 0.46302849 0.18343598 11333624
0.71636641 0.46499097 0.18351775 10939125
0.71712232 0.46625727 0.18376538 10543356
0.68532479 0.42520064 0.18864605 2696491
0.68687338 0.42664158 0.18848404 2828079
0.68883038 0.42922002 0.18839309 1119006
0.69035268 0.43167767 0.18846944 4083354
0.69245756 0.43396944 0.18857369 8496383
0.69448352 0.440534 0.18656969 10274815
0.6982162 0.44434035 0.18542132 11195391
0.69985366 0.4467898 0.18517208 11195135
0.70202589 0.44908535 0.18476164 11790079
0.70320261 0.45137334 0.18499371 14154750
0.70490104 0.45417374 0.18392631 14941180
0.70723176 0.45623583 0.18332919 14612987
0.70883036 0.45862627 0.18387008 13301498
0.6796391 0.42111266 0.18874571 2236968
0.68160677 0.42312029 0.18860942 2630446
0.68387526 0.42431754 0.18828437 2630955
0.68451929 0.42873991 0.18690449 2434615
0.68630791 0.43067151 0.18694466 3026234
0.68792236 0.43249282 0.18669873 2171443
0.68979579 0.43519542 0.18601167 2439531
0.6916182 0.43785673 0.18573174 9024504
0.69326055 0.44000638 0.18544185 10733823
0.69508433 0.44264156 0.18469727 10736383
0.69634742 0.44532025 0.18436253 11329279
0.69866192 0.44756383 0.18396559 11856383
0.70031035 0.44933388 0.18372327 11924735
0.70228183 0.45149618 0.18293908 13564415
0.67732751 0.41845307 0.18848312 5199744
0.67844194 0.42058179 0.18855229 3290191
0.6798389 0.42503855 0.18633908 2040628
0.68137419 0.42649364 0.18655759 2763062
0.68274248 0.42887485 0.18601295 3026239
0.68445843 0.43102372 0.1853185 3157572
0.68663538 0.43355286 0.18525741 2171720
0.68829811 0.43655175 0.18504053 662101
0.69045246 0.43854415 0.1841982 8436719
0.69200039 0.44111922 0.18443549 10937599
0.69317347 0.44191617 0.18313116 11334399
0.67621136 0.42359728 0.1845592 5331064
0.6774711 0.42455029 0.18537107 3027537
0.67948347 0.42784953 0.18410876 3026252
0.68127775 0.42935294 0.18487376 3354435
0.67403424 0.42487121 0.18418482 5397114
0.67635477 0.42692479 0.1835359 3290210
0.67717862 0.42775464 0.18412852 3223899
0.89927721 0.63259059 0.19324911 2236460
0.90222824 0.63730037 0.19191542 1908261
0.9040699 0.6376099 0.19074008 1908516
0.9054631 0.64052391 0.19070685 1710624
0.89581734 0.62948722 0.19139233 2236461
0.89799553 0.63108432 0.19179708 2236460
0.89865351 0.63421386 0.19043311 2039338
0.90031129 0.63648456 0.19012979 2170925
0.90172291 0.6384325 0.18985942 2236982
0.88651049 0.6219573 0.19169247 2433839
0.88816643 0.62230462 0.19061083 2433585
0.89008635 0.62539834 0.19112056 2302254
0.892313 0.62711346 0.19065234 2170923
0.89353061 0.63031328 0.18992764 2302511
0.89518023 0.63245618 0.18991375 2236721
0.89700854 0.63474548 0.18920353 2302775
0.89877576 0.63724542 0.18906051 1843516
0.8815676 0.61662799 0.19113812 2433839
0.88317859 0.61920595 0.19025975 2171444
0.88475907 0.62087417 0.19023401 2368306
0.88652134 0.62359864 0.18962893 2171700
0.88852251 0.62601054 0.18975854 2171701
0.89052987 0.62839675 0.18915832 2303035
0.89167106 0.62977374 0.18948311 2040638
0.89389217 0.63257939 0.18803146 1974847
0.87240756 0.60927153 0.19126803 2434099
0.87394035 0.61014086 0.18998072 2499634
0.87621838 0.61259264 0.19014934 2368049
0.87811929 0.61504912 0.18983582 2236978
0.87960446 0.61755395 0.18946618 2237238
0.88140762 0.61930156 0.18993309 2302773
0.88334608 0.62031883 0.18889201 2696761
0.86343098 0.59889191 0.19119906 2499368
0.86497062 0.60147756 0.19069067 2499635
0.86727661 0.60406595 0.19050857 2302510
0.86889911 0.60630912 0.18999413 2302511
0.87073165 0.60851008 0.18990916 2236976
0.8725425 0.6110779 0.18933696 2302774
0.87454295 0.61323881 0.18922427 2303033
0.87638122 0.61555421 0.18917 2500154
0.8562519 0.59279466 0.19141144 2434089
0.8585794 0.59476101 0.19054496 2302506
0.86041689 0.5972178 0.19036153 2302509
0.86229879 0.59962881 0.19032103 2236980
0.86401117 0.60202396 0.18959114 2302771
0.86613625 0.60432923 0.18951148 2302778
0.8678149 0.60628462 0.18943864 2302776
0.86922443 0.60890162 0.18934092 2106176
0.8485325 0.5838961 0.19083261 2433575
0.85000896 0.58661485 0.19141483 2499626
0.85234439 0.58871144 0.19072667 2368297
0.85331655 0.59102255 0.19027537 2302513
0.85501212 0.59306645 0.18989369 2302516
0.85716116 0.59549588 0.18995953 2302775
0.85872316 0.59805548 0.18955916 2499642
0.86127436 0.59909588 0.18819407 2564918
0.84310782 0.58020109 0.19030696 2301992
0.84462196 0.58274424 0.19045427 2236719
0.84646749 0.58441103 0.18990898 2236719
0.84806013 0.58680773 0.18970972 2236980
0.85015631 0.5891608 0.18944094 2171447
0.85190701 0.59104359 0.18927431 2434107
0.8336677 0.57175446 0.19098121 1711143
0.83550143 0.5738672 0.19041535 2039593
0.83758324 0.57604939 0.19043487 2105642
0.83960509 0.57836866 0.19005418 2171184
0.84144574 0.58059782 0.18976066 2039602
0.84344935 0.58220232 0.18912098 1645101
0.84491742 0.5850271 0.1894975 2368316
0.82726347 0.56544948 0.19109833 1381408
0.82888669 0.56688982 0.19049573 1184023
0.8306818 0.56946158 0.19002184 1644578
0.83252972 0.57176226 0.18968168 2105132
0.8340739 0.57446069 0.18919134 2302775
0.83583844 0.57657397 0.18910944 2237244
0.8374027 0.5785175 0.18916357 1909312
0.82021534 0.55913156 0.19014913 2170661
0.82164526 0.56106591 0.1903708 2170148
0.82372808 0.56297195 0.18981221 1841442
0.82503057 0.56532544 0.18948159 1775657
0.82700974 0.56795752 0.18898705 1184298
0.82933503 0.57060593 0.18917063 1644847
0.83058798 0.57249022 0.18826169 1317694
0.81296957 0.55216932 0.19011822 2039334
0.8150264 0.55458313 0.19056568 2039332
0.81670332 0.55717337 0.1896072 2236464
0.81819755 0.55936885 0.18897229 2171193
0.82027775 0.56157726 0.18914178 2105659
0.82226288 0.56383562 0.18908986 1908538
0.82423604 0.5663839 0.18848667 1251897
0.80559623 0.54571331 0.18977514 2170664
0.80801708 0.5480665 0.18991131 2039592
0.80968046 0.55066717 0.18951744 2170932
0.81123829 0.55313891 0.18885732 2040133
0.81328058 0.55509174 0.18900353 2171197
0.81498182 0.55714327 0.18880096 1777990
0.79351509 0.5325194 0.19143337 2236972
0.79602826 0.53418475 0.1905672 2368304
0.79721475 0.53668952 0.19125566 2170920
0.79916412 0.53935182 0.19025111 2170928
0.80050409 0.54193223 0.18961048 2105402
0.8022657 0.54407501 0.18931577 2236477
0.80420852 0.54645771 0.18870088 2105671
0.80620766 0.5489403 0.18913782 2040133
0.80815935 0.55043691 0.18784505 2106442
0.80963135 0.55245811 0.18808362 1778509
0.78677148 0.52706403 0.19122374 2302765
0.78900456 0.52781337 0.1904037 2368304
0.79115069 0.53003931 0.19145146 2368046
0.79310691 0.53296983 0.19012246 2368056
0.79395759 0.53596461 0.19014913 2105414
0.79544473 0.53787249 0.18883815 2303306
0.79713088 0.53997588 0.18871057 2171979
0.79933131 0.54189438 0.18871602 2171979
0.7796315 0.51963633 0.19103387 2433842
0.781528 0.52130407 0.19055852 2433842
0.78383243 0.52413756 0.19045237 2368305
0.78552878 0.5267086 0.1899856 2303037
0.787076 0.52941394 0.18897173 2369106
0.78852826 0.53213954 0.18867379 2237775
0.78980434 0.53363639 0.18857607 2303308
0.79226577 0.53586817 0.18813202 2303564
0.79406738 0.53802419 0.18808323 1910357
0.77236915 0.51335472 0.19105458 2565172
0.77458787 0.5152263 0.19074345 2499636
0.77707571 0.51661372 0.19006065 2499637
0.77838284 0.51872528 0.19119418 2433841
0.7792232 0.52385801 0.18915793 2368846
0.78138989 0.52513224 0.18869531 2041430
0.78307486 0.52748954 0.18788484 2303824
0.78518784 0.53017664 0.18797216 2303565
0.78715467 0.53190494 0.18741557 2434894
0.78974211 0.53409243 0.18637946 1910621
0.76539612 0.50691855 0.19031546 2630982
0.76777542 0.50887907 0.19072452 2499641
0.77028847 0.51079971 0.19023857 2499641
0.77153647 0.51181006 0.18996567 2565432
0.77285272 0.51738054 0.18824548 2369886
0.77401096 0.51890689 0.18807781 2107229
0.77619231 0.52138793 0.18824014 2303827
0.77803075 0.52305651 0.18784386 2303571
0.78029442 0.52590764 0.18795824 2631238
0.7580238 0.50049424 0.19047788 2762068
0.75991213 0.50240111 0.1904279 2696784
0.76239347 0.50445592 0.19016415 2630989
0.76466036 0.50622034 0.18945324 2631243
0.76499391 0.51069504 0.18834373 2238564
0.76697302 0.5132308 0.18815875 2435162
0.7687161 0.51504314 0.18760741 2238298
0.7708391 0.5170207 0.18801674 2238295
0.77284992 0.51924688 0.18697986 2762827
0.7747699 0.52120364 0.18698114 2762826
0.75150931 0.49439904 0.18975854 2829420
0.75357246 0.49673438 0.1892373 2829157
0.75556016 0.49861991 0.18981951 2697051
0.75722265 0.50175166 0.18870297 2763890
0.7585724 0.50321198 0.18808562 2699134
0.7600565 0.50593275 0.18798158 2699143
0.76140356 0.50865012 0.18781865 2369905
0.76368558 0.51089489 0.18688926 2303846
0.76570809 0.51307601 0.18745285 2238298
0.74645627 0.49081731 0.18975613 2961024
0.74882263 0.49188104 0.18931872 3159428
0.75064051 0.49819428 0.18824297 2634137
0.75297964 0.49977875 0.18791145 2568340
0.75500649 0.50196552 0.18752828 2436491
0.75708866 0.50427604 0.1869739 2436224
0.75863302 0.50642753 0.18703818 2370430
0.76068234 0.50825536 0.18588111 2764669
0.74048209 0.48633447 0.18862858 2773716
0.74274021 0.48812586 0.18869686 2243756
0.74477792 0.49071476 0.18837029 2768563
0.74561059 0.49400735 0.18753511 2571974
0.74788022 0.49567956 0.18713352 2898875
0.75046831 0.49767077 0.18684527 2766505
0.7321921 0.47891313 0.18971014 5802751
0.73362446 0.4807204 0.18846476 7973119
0.73550117 0.48199448 0.18819621 8367871
0.73753083 0.48418421 0.18838608 6657531
0.73919892 0.48682964 0.18748295 5605106
0.74081218 0.48949224 0.18690079 2709994
0.74254894 0.49149546 0.1869354 1786333
0.74446076 0.4933306 0.18659633 2637248
0.72490621 0.47170201 0.18860137 6655743
0.72665912 0.47339198 0.18822801 6064894
0.72902369 0.4757297 0.18812978 4950270
0.73082823 0.47799587 0.18822217 5874426
0.73230618 0.47998255 0.18753082 7781367
0.73311496 0.483082 0.18640977 8571370
0.73532629 0.48596692 0.18661991 7645932
0.73774576 0.48752198 0.18581539 6001393
0.71789598 0.46442243 0.18830118 6919423
0.71999252 0.4669956 0.18878445 6459391
0.72234845 0.46911174 0.18835947 6788607
0.72397792 0.47106585 0.18721405 7711993
0.72405136 0.4744879 0.18675184 6200807
0.72648752 0.47680131 0.18627185 5280238
0.72810179 0.47904903 0.18613303 4492788
0.73003 0.48109025 0.18587422 6531317
0.73218238 0.48325658 0.1855551 9224703
0.70974255 0.45678368 0.18837151 9754111
0.71111077 0.45859945 0.18829656 9686783
0.71302664 0.46058494 0.18799889 9224703
0.71518797 0.46265495 0.18818954 8368639
0.71682197 0.46514112 0.18787059 8041467
0.71732891 0.46829513 0.18644029 6990324
0.71960068 0.47069383 0.18619695 6462710
0.72171593 0.47313884 0.18663326 6658804
0.72335327 0.47512811 0.18586549 7051007
0.72561562 0.47613186 0.18459198 7184895
0.70372081 0.45243287 0.18817505 9947391
0.7058022 0.45408538 0.18807951 10605055
0.70771021 0.45624328 0.18762931 9884157
0.70900482 0.45935142 0.18702883 9227516
0.71032858 0.46170405 0.18605348 9953018
0.71257734 0.46382177 0.18598551 9426935
0.71466601 0.46607417 0.18643722 7977465
0.7168026 0.46742368 0.18497258 8437247
0.68434906 0.42622134 0.19126165 2565419
0.68588185 0.42780191 0.19098955 2828078
0.68765557 0.43029165 0.19122809 2104361
0.68922472 0.43343198 0.1911858 3555192
0.69133985 0.43546709 0.19084406 6653435
0.69450694 0.44146338 0.18769917 9483775
0.69515109 0.44305342 0.18839613 9611263
0.69712979 0.44516844 0.18828982 10663423
0.69884837 0.44753784 0.18765742 10600190
0.70081723 0.45026541 0.18748975 11197182
0.70221406 0.4528589 0.18680128 11330814
0.70424974 0.45507538 0.1865682 11856636
0.70602286 0.4573507 0.18631339 10672637
0.70784998 0.45950931 0.184632 12449279
0.67814368 0.42237478 0.19128856 2566712
0.68033499 0.42394066 0.19101045 2565165
0.6825918 0.42554843 0.19095758 2631211
0.68306804 0.42947572 0.18957564 2566200
0.68524921 0.43185359 0.18950963 2960698
0.68716663 0.43402982 0.18892682 2368826
0.68888927 0.43658125 0.188591 2307433
0.69034588 0.43924165 0.18837598 6193898
0.69218707 0.44144353 0.1877445 7839487
0.69376165 0.44398892 0.18716562 8494335
0.69537747 0.44642478 0.18687657 10204158
0.69722843 0.44848889 0.18678203 10800638
0.69950992 0.45019644 0.18595406 11662079
0.67530036 0.4174245 0.19009981 5397122
0.67562318 0.41984537 0.19089749 5265537
0.677715 0.42158908 0.19037694 3290705
0.67833048 0.42594218 0.18859947 1711666
0.68067122 0.42748857 0.18922052 2303538
0.68201292 0.43006778 0.18808526 3091518
0.68351495 0.43237478 0.18787849 3026246
0.68543029 0.43503499 0.18806866 2369357
0.68705153 0.43698132 0.1872333 594759
0.68903065 0.43967223 0.18712211 4944849
0.6906426 0.44124696 0.18615586 9817599
0.69287586 0.44421023 0.18524271 10148095
0.67554986 0.42517084 0.18919238 1053748
0.67659837 0.42521837 0.18827263 1120051
0.67808634 0.42929208 0.18717992 2829648
0.68013746 0.4314304 0.18823618 2763846
0.67196584 0.42592338 0.18612432 3554156
0.67399287 0.427219 0.18572012 3685231
0.67618883 0.42825365 0.18608472 3290209
0.90517002 0.63946635 0.19482648 2304067
0.89899755 0.63371521 0.19437477 2302252
0.90347576 0.63954878 0.19211122 2039590
0.90417242 0.64118379 0.19290289 1578776
0.90576738 0.64278936 0.1915752 1118472
0.8934629 0.62872148 0.19249851 2302252
0.89403671 0.63036191 0.19414708 2302254
0.89673907 0.63199371 0.19399434 2236459
0.89714807 0.63610399 0.19291472 2170923
0.89943635 0.63760394 0.19261286 2236461
0.90167052 0.63992012 0.19246441 2302513
0.90250748 0.64197576 0.19227102 1645876
0.88620663 0.62243593 0.19313759 2433583
0.88700968 0.62372935 0.19376841 2368045
0.88955271 0.62715423 0.19361919 2236716
0.89099085 0.6287173 0.19253263 2236460
0.89200139 0.63088912 0.19222769 2302513
0.89408797 0.63352025 0.19210732 2302256
0.89561999 0.6358878 0.19158217 2106167
0.89842844 0.63845372 0.19111177 1843516
0.89902866 0.64027882 0.19224924 1909308
0.87899327 0.61625063 0.1928876 2499377
0.88017106 0.61814928 0.19384187 2433839
0.88256639 0.61941427 0.19341969 2433838
0.88359976 0.62256396 0.19252646 2171700
0.88571626 0.62491286 0.19225276 2236978
0.88740104 0.62704545 0.19218355 2302772
0.88922024 0.62925565 0.19169271 2171963
0.89072639 0.63222581 0.19211555 1909565
0.87202227 0.61003202 0.19265115 2499634
0.87280208 0.61152709 0.19320798 2499378
0.87508464 0.61415207 0.19272628 2302510
0.87634468 0.61651349 0.19222769 2171442
0.87807661 0.61845833 0.19186193 2171701
0.88004631 0.62045872 0.19236785 2302770
0.88199127 0.621912 0.19194755 2696504
0.86459011 0.60329413 0.19286337 2499635
0.86645496 0.60561049 0.19313359 2368303
0.86778003 0.60746187 0.19256589 2171442
0.86953425 0.61027372 0.19234678 2302772
0.87156093 0.61201692 0.19194272 2105907
0.87334311 0.61440337 0.19167113 2302775
0.87485802 0.61636609 0.19183826 2303035
0.85490263 0.59223056 0.19373637 2368551
0.85544616 0.59385109 0.19415355 2368549
0.85752714 0.59657121 0.19290695 2171432
0.85926831 0.59866834 0.19281554 2237234
0.8610009 0.60102201 0.19265869 2236978
0.86299407 0.60299253 0.19232643 2236982
0.86479211 0.60549146 0.19203979 2237237
0.86632717 0.60775447 0.19220585 2630967
0.84705359 0.58546764 0.19347021 2434344
0.84919226 0.58769965 0.19411248 2368554
0.85102618 0.5900715 0.19279826 2368301
0.85232234 0.59207666 0.19279224 2236975
0.85415673 0.59456581 0.19243583 2302516
0.85596704 0.59698403 0.19221613 2434105
0.85757631 0.59870178 0.19185337 2630968
0.85930848 0.60051173 0.19140825 2630968
0.83971643 0.57916474 0.19354683 2433574
0.84211123 0.58107162 0.19280526 2499369
0.84368902 0.5837003 0.19310629 2565167
0.84503955 0.5860759 0.19226238 2236978
0.8468926 0.58837724 0.19206479 2237238
0.84909713 0.59037673 0.19239777 2302517
0.85054088 0.5922302 0.19165367 2040639
0.83400917 0.57241488 0.19240496 1908776
0.83468533 0.57508463 0.19286698 2105639
0.8363868 0.5773589 0.19284391 2302766
0.83793104 0.57960975 0.19223633 2236979
0.83995533 0.58165461 0.19205153 2236977
0.84210002 0.58407283 0.19210505 2040115
0.84373307 0.58544779 0.19154134 2303036
0.82629287 0.56631505 0.19324392 2105126
0.82789695 0.56838572 0.19314396 2105127
0.82969171 0.57085514 0.19252416 2236973
0.83138525 0.57296002 0.1921522 2368302
0.83288592 0.57586139 0.19227737 2368565
0.83484519 0.57788324 0.19121963 2237500
0.83714974 0.58003318 0.19114435 2106177
0.81907439 0.55967623 0.19245744 2236452
0.82024753 0.56219482 0.19317314 2302245
0.82227039 0.56432581 0.19217467 2433838
0.8240158 0.56691724 0.19160095 2302773
0.82596076 0.56940913 0.19184592 2434105
0.82771766 0.57122922 0.19091716 2237245
0.8301329 0.57422107 0.19088128 1975363
0.83086276 0.57580698 0.19132602 1975363
0.81014007 0.55139732 0.19298759 2170404
0.81175905 0.55312115 0.19275594 2170659
0.81376517 0.55613708 0.19280231 2301996
0.8157593 0.55826062 0.19207817 2433327
0.81740797 0.56070316 0.19163272 2433845
0.81920964 0.56297112 0.19158316 2302778
0.82128739 0.56523275 0.19152257 2237499
0.82269943 0.56598651 0.19063398 1975104
0.80180073 0.54336292 0.19282606 2433837
0.80286491 0.54489177 0.19305551 2828849
0.80468643 0.54679972 0.1924814 2499884
0.80655074 0.54975051 0.19244474 2434095
0.80814219 0.55166841 0.19163772 2236728
0.81022966 0.55425256 0.1914686 2302523
0.81214869 0.55653924 0.19127566 2237241
0.81419277 0.55881315 0.19103208 1909314
0.81501269 0.56026626 0.1915074 2040642
0.79287398 0.53328067 0.19351846 1381399
0.79468703 0.53518748 0.19291008 1512988
0.79600245 0.53810275 0.19353312 1974313
0.79820395 0.5403111 0.19268501 1908528
0.79957974 0.54304314 0.19171432 2237244
0.80110157 0.54522383 0.19182208 2566467
0.80321729 0.54756761 0.19152135 2763591
0.80519688 0.54936749 0.19143951 2697535
0.80665183 0.55135471 0.19141734 1778245
0.78614557 0.52807558 0.19309595 2170660
0.78811502 0.52927345 0.19292822 2170661
0.79014027 0.53161293 0.19353932 1644323
0.78994608 0.5339244 0.19216797 1578550
0.79223633 0.53688747 0.19195762 1118256
0.79436421 0.53895169 0.19177699 1382972
0.79635131 0.54083991 0.19131899 1581380
0.79797149 0.54319 0.19149852 1975625
0.77866173 0.52170706 0.19317493 2301991
0.78064197 0.52308607 0.19288898 2236457
0.78307819 0.52539855 0.19302282 2170921
0.78364897 0.52790737 0.19262087 2039864
0.78562754 0.53017509 0.19169596 1974596
0.7871654 0.53238189 0.19124773 2236992
0.78916419 0.53496128 0.1909245 1908541
0.79155451 0.53714478 0.19070938 1317436
0.77115119 0.51387244 0.19307309 2367789
0.77340168 0.51638198 0.19313726 2302251
0.77592158 0.51831377 0.19267958 2302251
0.77726066 0.52103364 0.19270903 2302259
0.77789509 0.52387261 0.19109833 2040392
0.77993643 0.52627015 0.19125611 2105922
0.78217983 0.52894115 0.19075489 2368572
0.78394324 0.53111827 0.19088158 2630967
0.78550494 0.53173167 0.18992388 2631227
