# .PCD v0.7 - Point Cloud Data file format
VERSION 0.7
FIELDS x y z rgba
SIZE 4 4 4 4
TYPE F F F U
COUNT 1 1 1 1
WIDTH 1162
HEIGHT 1
VIEWPOINT 0 0 0 1 0 0 0
POINTS 1162
DATA ascii
0.92719471 0.51012981 0.13344711 15987699
0.92890137 0.51212054 0.13400835 15856113
0.93026787 0.5151155 0.13337155 14474460
0.93181717 0.51729387 0.13413988 14342874
0.93429399 0.51883775 0.13374433 14408667
0.93488806 0.52152807 0.13398854 13816530
0.93674916 0.52543259 0.13368294 13684944
0.93755949 0.5266974 0.1352015 13619151
0.94042093 0.53080606 0.13490149 13553358
0.91415954 0.49436703 0.13101265 15987699
0.91508251 0.49586618 0.13145627 16250871
0.9173364 0.49842942 0.13186871 16514043
0.91903055 0.50099671 0.13157812 15921906
0.92001182 0.50415242 0.13158846 15527148
0.92194897 0.50612932 0.13181978 15000804
0.92376786 0.50845277 0.13142136 15198183
0.92581499 0.51126391 0.13223815 14606046
0.92664629 0.51374704 0.13137366 14145495
0.92860264 0.51506597 0.13220006 13948116
0.90841615 0.48980498 0.12992665 16185078
0.91059947 0.49261561 0.12908188 16250871
0.91269821 0.49407032 0.13018562 16316664
0.9124648 0.49800009 0.12940614 14737632
0.9156276 0.49978265 0.12931997 15329769
0.91709775 0.50245464 0.12995546 14474460
0.91874397 0.50411195 0.13033891 14408667
0.92023689 0.50692064 0.12952912 14277081
0.92141974 0.5110383 0.12879048 14145495
0.92386496 0.51219207 0.12965046 14079702
0.90010059 0.48154011 0.12723996 16448250
0.90346557 0.48592529 0.12692834 13423594
0.90535164 0.48821691 0.12770173 16119288
0.90776104 0.49082765 0.12723224 15856113
0.90878975 0.49306858 0.12759475 15066597
0.91122055 0.49543568 0.1277945 14671839
0.91356725 0.49790311 0.12752727 14671839
0.91347229 0.50075442 0.12735568 14408667
0.91617459 0.50181746 0.12793976 14342874
0.91892099 0.50587964 0.12757199 14277081
0.92160976 0.50997758 0.1272776 14145495
0.89491701 0.4762184 0.12501182 16580349
0.8973015 0.47930929 0.12472 13948908
0.89874035 0.4813675 0.12530102 13422826
0.90059239 0.48422369 0.12559706 13817572
0.90258926 0.48680374 0.12567456 15461355
0.90502566 0.48825127 0.12593007 13686244
0.90604001 0.49044544 0.12570234 15658734
0.90842736 0.49786499 0.12482187 14540253
0.91080248 0.49919981 0.1259471 14474460
0.88064188 0.45570701 0.12223007 15466495
0.88153398 0.45821276 0.12239007 15466495
0.88169461 0.45917395 0.12381847 15662847
0.88384873 0.46201351 0.12249169 15859711
0.8849026 0.46506697 0.12332902 15990781
0.8879748 0.468398 0.12268848 15990011
0.88895249 0.47075373 0.1234205 13423081
0.89073789 0.47247049 0.12285108 14146796
0.89234048 0.47511411 0.1235153 14409451
0.89415598 0.47725546 0.12345348 13488096
0.89602011 0.47959152 0.12405627 15790320
0.89845127 0.48259526 0.12420226 15132647
0.89973193 0.48499608 0.12335642 16448250
0.90490919 0.49576631 0.12298911 14671839
0.90731603 0.49694404 0.12389802 14671839
0.87794495 0.4567261 0.12042996 15466495
0.87985873 0.45819089 0.12244603 15531775
0.88201529 0.46102935 0.12118988 15531775
0.88209659 0.46429265 0.12218191 14015720
0.883955 0.46579656 0.12093366 13423334
0.88578445 0.46816418 0.12152712 13752551
0.88781977 0.47073853 0.12165623 13751524
0.88963622 0.473748 0.12165679 14343389
0.89168632 0.47556728 0.12231276 14409182
0.89928013 0.49074328 0.12305802 14869218
0.9010585 0.49416858 0.12196751 14803425
0.87437624 0.45575717 0.11918694 15269631
0.87602013 0.45682827 0.11971837 14413047
0.87750113 0.45987874 0.11840653 12567774
0.87938279 0.46210936 0.11932302 12764894
0.88176185 0.46403593 0.12000038 13027805
0.88367796 0.46593621 0.1193535 14211804
0.88648409 0.47348866 0.11855578 15263976
0.8863467 0.47463435 0.12006859 15263976
0.88961345 0.48225459 0.11932749 15198183
0.89177191 0.48503557 0.11980385 15132390
0.89397782 0.4871394 0.11955795 15066597
0.89660931 0.49115509 0.11912246 14935011
0.90021217 0.49539298 0.11872913 14803425
0.90285945 0.49640176 0.11929641 14737632
0.86470652 0.44274756 0.11834112 13626879
0.8651219 0.44601744 0.11775343 13824255
0.86768442 0.44854754 0.11771607 14152959
0.86948442 0.45162648 0.11662988 13559028
0.87023216 0.45314381 0.11699968 13425129
0.87256318 0.4554534 0.11731026 13226981
0.87500936 0.45780399 0.11807297 12896734
0.87633407 0.45948294 0.11795457 14014940
0.87866855 0.46750456 0.11778338 15527148
0.8804391 0.46781999 0.11765902 15527148
0.88178396 0.47122005 0.11683035 15395562
0.88408738 0.47273672 0.11817374 15395562
0.8871721 0.47717831 0.11825012 15263976
0.88791776 0.48083207 0.11787096 15263976
0.89146566 0.48498622 0.11740718 15132390
0.89489341 0.48921481 0.11694897 14935011
0.89487618 0.49028614 0.11845636 14935011
0.89751363 0.49382666 0.1173037 14869218
0.85265785 0.42932406 0.11473697 9673937
0.85468161 0.43107197 0.11569321 10201822
0.85653734 0.43278438 0.11514493 10926054
0.85815841 0.4350332 0.11409599 9477842
0.85925293 0.44029593 0.11504532 12838143
0.86276042 0.44460523 0.11505998 13295602
0.86462611 0.44704252 0.11513123 12898536
0.86602694 0.44889784 0.11546358 13358823
0.8681609 0.450984 0.11586305 13293802
0.87062663 0.45330954 0.11579841 14547711
0.87219399 0.46029574 0.11498429 15592941
0.87449151 0.46161962 0.11607652 15592941
0.87589222 0.46447438 0.11444516 15527148
0.87691516 0.4661178 0.1164003 15592941
0.87862104 0.46888128 0.11448567 15527148
0.88704246 0.48207432 0.11466936 15263976
0.88879579 0.48346102 0.11605235 15198183
0.84395695 0.4210057 0.11345381 8950991
0.84619617 0.4230293 0.11259191 9279954
0.8482672 0.42506987 0.11267955 9873630
0.85037321 0.42691427 0.1137624 9938907
0.85187155 0.42910269 0.11327311 10861547
0.85376608 0.43198699 0.11294659 11655167
0.85464168 0.43526864 0.11407737 12377087
0.8560006 0.43813044 0.11295464 12832996
0.85777676 0.44007632 0.11333352 12702702
0.85976368 0.44247353 0.11337499 12965355
0.86180484 0.44450662 0.11387318 11976159
0.8638953 0.4457112 0.11325995 13686749
0.86722106 0.45588273 0.11295535 15527918
0.8693614 0.45826259 0.11299997 15461868
0.87106025 0.45938843 0.11399066 15396332
0.83819067 0.4140254 0.11091843 8492759
0.84031081 0.41612497 0.11158343 8624856
0.84220928 0.41816974 0.11126411 9679343
0.84350294 0.42046019 0.11126484 9940193
0.84479553 0.42292884 0.11085864 10732021
0.84449488 0.42549178 0.11182407 10667263
0.84888858 0.43179315 0.11093856 12109797
0.85127467 0.43368742 0.11119687 12372708
0.8528114 0.43559363 0.11150336 12833254
0.85497785 0.4385649 0.11139358 12570604
0.85688722 0.44051912 0.11123725 14872559
0.86004615 0.44562161 0.11218476 15266801
0.86071658 0.44867396 0.11101825 15331567
0.86220628 0.45239657 0.1105093 15396846
0.86396796 0.45330662 0.11124598 15527918
0.82526869 0.39734215 0.10867227 1578002
0.82655919 0.39938635 0.10923443 987665
0.82854557 0.40177077 0.10876076 725528
0.83059293 0.40501478 0.10945509 5003130
0.83171487 0.40726581 0.10917063 4017260
0.8336364 0.40914077 0.10887125 7767983
0.835518 0.41171083 0.10999184 8688583
0.83646899 0.41412479 0.10909458 9811700
0.83822078 0.41588613 0.10944369 10668029
0.83995849 0.41830039 0.1099272 11852028
0.84155667 0.42224878 0.10891652 9874912
0.84257233 0.42441988 0.10939136 10991841
0.84493136 0.42703453 0.10958265 10992615
0.8465758 0.42915618 0.10929751 12111083
0.84822047 0.43100327 0.10961146 12506090
0.85266799 0.43759853 0.10852774 14742002
0.85253572 0.4386234 0.1099672 14742002
0.86138701 0.45172638 0.10985168 15397359
0.81990457 0.39256313 0.10637815 2035462
0.8225311 0.3952519 0.10772154 2038297
0.82447696 0.39784905 0.10693964 659988
0.82622433 0.39962921 0.10680905 790549
0.82691234 0.40241861 0.10746486 987928
0.82847035 0.40513209 0.10785168 1118747
0.83027673 0.40782264 0.10676017 1975340
0.8315872 0.4104394 0.10705467 6321300
0.83346146 0.41305533 0.10705484 9809125
0.83464307 0.41548312 0.1072211 9347033
0.8363409 0.41850591 0.10718705 9609429
0.83856857 0.42038295 0.10749707 9806805
0.84056932 0.42250451 0.10733426 10990820
0.8420226 0.42407563 0.1078464 11385315
0.84415281 0.4288722 0.10772583 13231861
0.84407312 0.4299821 0.10916524 13297911
0.81724858 0.39145127 0.10534339 9929566
0.81895292 0.39357099 0.10483164 7038294
0.82076377 0.39567575 0.1054894 6975829
0.82201582 0.39877281 0.10479002 1580321
0.82372123 0.40139598 0.1052734 1709591
0.82599145 0.40368134 0.10556836 1972763
0.82703727 0.40606257 0.10577373 2039069
0.82892144 0.40760192 0.10612932 1119255
0.8181867 0.39756352 0.10256036 8943969
0.81988889 0.39938936 0.10373896 4538168
0.82214683 0.4028919 0.10360086 2169880
0.82420194 0.40405074 0.10374284 2301470
0.81685859 0.39816451 0.10165901 10391925
0.81867093 0.40053222 0.10197403 6180664
0.8167969 0.39968821 0.099095948 10521454
0.79350573 0.44543505 0.058871865 12691841
0.79470295 0.44669345 0.058926586 12889991
0.79586625 0.45020795 0.059556905 13219211
0.79987866 0.45366383 0.059594691 13087879
0.79374832 0.44846103 0.05962975 11573870
0.79653031 0.45383394 0.059286099 13351310
0.79814309 0.45597228 0.059556145 13219720
0.79999799 0.45841038 0.058939308 13547407
1.033316 0.61114603 0.1712559 3550761
1.0284778 0.60737622 0.17014298 1124436
1.0296282 0.60860515 0.17048177 1713212
1.0312438 0.61130971 0.17043237 3354153
1.0372119 0.62164849 0.16953495 4472119
1.0248016 0.60533559 0.16800997 2566721
1.0267955 0.60747343 0.16843235 2633276
1.0296057 0.60926247 0.1683723 3025963
1.0293279 0.61554909 0.16822004 1711654
1.035239 0.62006438 0.16814372 3748140
1.0007496 0.57149237 0.16670337 9353699
1.0134672 0.59254962 0.16533755 5659773
1.0153844 0.59394944 0.16466317 7113944
1.0157635 0.59595078 0.16589205 5927079
1.0180104 0.59938252 0.16616575 4738924
1.0201279 0.6010114 0.16555989 4212579
1.0219193 0.60329127 0.16660511 3818597
1.0251517 0.6105442 0.16553953 3690375
1.0283843 0.61428714 0.16586864 1514024
1.029346 0.61631972 0.1666775 3353898
0.99988955 0.57448947 0.16374733 9353443
1.0102278 0.59016222 0.16440985 5725823
1.0120234 0.59218657 0.16415259 6385823
1.0135267 0.59444046 0.1647069 6915267
1.0153764 0.59648275 0.16478325 5265015
1.0171655 0.59937263 0.16389421 5598117
1.0176432 0.60254639 0.16415171 6585542
1.0199772 0.60421896 0.16435318 5664440
1.0224502 0.61005706 0.16369861 4542587
1.0251576 0.61253762 0.16416262 3487054
1.0256509 0.61382234 0.16576295 2763320
1.0270996 0.61880392 0.16460744 2435386
1.0289531 0.62012506 0.1636035 1909299
0.99756831 0.57357347 0.16359548 10075364
0.99826413 0.57407987 0.16103436 9419492
1.0010005 0.57815063 0.16215315 8827361
1.0012761 0.57915825 0.16364934 9614049
1.0035155 0.58382523 0.16129355 6252682
1.0047622 0.58546531 0.161814 6186630
1.0059506 0.58743513 0.16205972 5923458
1.0082381 0.59015542 0.16223572 6716335
1.010043 0.5927521 0.16186549 7706843
1.0142462 0.60100049 0.16264409 6321581
1.0149713 0.60313851 0.16230714 5857157
1.0175349 0.6061973 0.16242144 5659777
1.0193274 0.60749865 0.162174 5199225
1.0215859 0.60962993 0.16270529 4475240
1.0224469 0.61450398 0.16107209 5400746
1.0244994 0.61617732 0.1632998 2900609
1.025363 0.6194042 0.16217725 1320281
1.0266272 0.62014973 0.16153583 1976902
0.99645376 0.57437688 0.16110107 10075364
0.99874383 0.57933706 0.15952761 8822464
1.0002304 0.58151674 0.16017786 7175587
1.0011458 0.58317441 0.16104233 8294840
1.0017776 0.5863682 0.15984444 9350624
1.0050628 0.58950961 0.15975912 8561630
1.0111282 0.59970325 0.15968113 7831967
1.0127032 0.60130495 0.16026048 7372453
1.0141244 0.60439378 0.16000706 7372712
1.016059 0.6065771 0.15957716 8295355
1.01879 0.61267859 0.15993927 6123695
1.0202705 0.61432153 0.16083518 5400223
1.0224739 0.61797458 0.16019474 4873620
1.0248166 0.61868083 0.16001156 3556986
0.99136889 0.57340211 0.1577152 8358321
0.99417466 0.5754301 0.1584207 7898285
0.99560201 0.57689905 0.15838328 9742535
0.99695146 0.57908255 0.15865132 8426680
1.0014288 0.58481687 0.15773869 9549537
1.0022519 0.58818763 0.15742226 10139872
1.0024533 0.59041548 0.15776516 8096438
1.0041784 0.5931505 0.15787788 7501979
1.0061661 0.59523392 0.15859413 7832226
1.0078013 0.59765166 0.15830274 7964328
1.008931 0.60004997 0.15889502 8228528
1.011812 0.60340148 0.15819627 8425908
1.0146725 0.60760897 0.15805164 7636655
1.0159572 0.61163545 0.15805075 7438511
1.0171907 0.61269629 0.15884352 7044276
1.0210625 0.6168856 0.15861723 5597080
0.98303777 0.56420684 0.15544745 9872333
0.98463356 0.56539458 0.155169 10004430
0.98645377 0.56812131 0.15625733 9609425
0.98901933 0.57085681 0.15715544 8753341
0.99106026 0.57206213 0.15635526 8819133
0.99248886 0.57952648 0.15574373 12107453
0.99533385 0.58258611 0.15471636 12172990
0.99637884 0.58405846 0.15628417 10858169
0.99786383 0.58664292 0.1555163 9673909
0.99994898 0.58929724 0.15634187 8752810
1.000736 0.59065282 0.15642406 9674415
1.0028789 0.59501064 0.15644801 9938096
1.004223 0.5968442 0.15617859 10069427
1.0055104 0.59851718 0.15623833 9413307
0.97365081 0.55245256 0.15441588 13290186
0.97520417 0.55564535 0.1536705 13290186
0.97606802 0.55781621 0.15410796 10398156
0.9782998 0.5596391 0.15367886 11515856
0.9804588 0.56168479 0.15410565 10661322
0.98165774 0.563178 0.15466024 9740744
0.98574221 0.57440817 0.15389055 12698049
0.98658097 0.57494766 0.15401427 10923455
0.98935747 0.57787436 0.15374738 10528446
0.99096841 0.57924974 0.15413836 10528445
0.99343824 0.58199459 0.1543867 10396602
0.99530053 0.58795613 0.15411367 10661038
0.9985432 0.58926284 0.15457223 10793139
1.0008552 0.59304476 0.15395418 10661553
1.0010233 0.59511656 0.15416549 10727866
1.0025053 0.59684539 0.1540782 10530232
0.97044933 0.55058795 0.15178682 13421772
0.97212178 0.55264974 0.15166426 14211548
0.97432452 0.55497193 0.15203592 13948633
0.97595102 0.55749381 0.1522658 13488084
0.97694993 0.56108749 0.15095715 13158600
0.98290336 0.57139724 0.15074356 11450306
0.9842912 0.57312793 0.15221635 11647172
0.98777157 0.57520753 0.15196244 10924225
0.98763686 0.57740897 0.15289411 12501440
0.98764932 0.58063269 0.15139912 11908789
0.99067855 0.58487296 0.15116683 11515059
0.99318135 0.58606976 0.15209632 11317681
0.96516228 0.54750609 0.14974691 15658735
0.96701777 0.54882777 0.14982124 14474460
0.96896952 0.55096161 0.15094516 14935270
0.97517705 0.56165648 0.15180619 13224393
0.97613043 0.56506103 0.14932777 12370630
0.97816491 0.56750721 0.14980185 12501444
0.97988784 0.5688529 0.15052709 12238532
0.97983694 0.57123494 0.14956994 12961221
0.98273975 0.57499552 0.14988102 12698049
0.98426086 0.57731837 0.15035233 12434877
0.98646146 0.5796414 0.1503585 11974326
0.98883283 0.58395606 0.15050355 11646131
0.95772141 0.54152393 0.14804201 15921906
0.95989889 0.54352748 0.14761831 15856113
0.96264964 0.54547185 0.14825319 15856369
0.96376359 0.54751652 0.14813134 14211288
0.96477968 0.54903632 0.14978947 13619151
0.96822423 0.55583763 0.14672667 13553358
0.96937579 0.55800807 0.14800361 13487821
0.9714824 0.56052679 0.14815827 13159116
0.97318441 0.56250179 0.1481922 12830150
0.97427791 0.56738037 0.14748892 12434877
0.97656083 0.56714439 0.14783211 12698049
0.97730714 0.57162076 0.1472566 12303291
0.97998762 0.57284355 0.14747301 12566463
0.98110938 0.57561892 0.14779551 12434877
0.98214704 0.57732999 0.14854842 12171705
0.9833656 0.58010119 0.14679189 12105912
0.95137739 0.53450996 0.14606796 14081261
0.95362777 0.53633225 0.14635763 15265007
0.95551157 0.538302 0.1460374 14212841
0.95716929 0.5411182 0.14630724 14869733
0.95893139 0.54327977 0.1452755 14211547
0.96025574 0.54626369 0.14599618 13816530
0.96138203 0.54930937 0.14548637 13750737
0.96350229 0.55055523 0.14542139 13684944
0.96522844 0.55353606 0.14662969 13684944
0.9679777 0.55998743 0.1461429 12632256
0.96985859 0.56035203 0.14594509 12566463
0.97347254 0.56605375 0.14600438 12434877
0.97637296 0.57090414 0.14653109 12303291
0.97839302 0.57553482 0.14715417 12237498
0.9444657 0.52808183 0.14377044 16448250
0.94685388 0.52985817 0.14405462 15461614
0.94891733 0.53156042 0.14400628 14607342
0.95015067 0.53389388 0.14395083 14541289
0.95225066 0.53714156 0.14410806 14672613
0.95360845 0.53963387 0.14432272 14079702
0.95493573 0.54246503 0.14389408 13948116
0.95654881 0.54557598 0.1445981 13619151
0.95885205 0.54752088 0.14392714 13684944
0.95943338 0.54939628 0.14445682 12895428
0.96146852 0.55289823 0.14339457 12895428
0.96436632 0.55736738 0.14356028 12763842
0.93786168 0.52146369 0.14167131 16514043
0.94017565 0.52344251 0.14184384 16448250
0.94204921 0.52498811 0.14188144 16448250
0.94382787 0.52753353 0.14224225 15921906
0.94550014 0.52947754 0.14204071 15001061
0.94672751 0.53344089 0.14163952 14342874
0.94845122 0.5365482 0.14122878 14277081
0.950167 0.5385915 0.14151721 14211288
0.95163059 0.54075593 0.14199328 13816530
0.9536705 0.54225785 0.14231919 14079702
0.95398366 0.54617864 0.141606 13027014
0.95677489 0.54721612 0.14220433 13027014
0.96253926 0.55617374 0.14250177 12829635
0.9337278 0.5167855 0.13913716 16448250
0.93513268 0.51848489 0.13988927 16448250
0.93727756 0.52092171 0.14047746 16448250
0.93868572 0.52353728 0.13936602 15198183
0.93988198 0.52722579 0.13881321 14540253
0.9415924 0.52928543 0.13985696 14474460
0.94347399 0.53210068 0.14048485 14342874
0.94472998 0.53367472 0.13997772 14013909
0.94788039 0.53956419 0.13949004 13290186
0.95029044 0.54070073 0.14042152 13224393
0.95229924 0.54416001 0.1393593 13158600
0.92753142 0.51132709 0.13754193 16579836
0.9290269 0.51234186 0.1374051 16514043
0.93082929 0.51490319 0.13852604 16448250
0.93118489 0.51837611 0.13751978 14671839
0.93340963 0.52086121 0.13798819 14474460
0.93487483 0.52258062 0.13766544 14737632
0.93724525 0.52501512 0.13836393 14408667
0.93816143 0.52815163 0.13779223 13882323
0.94002026 0.53000003 0.13765915 13882323
0.94112509 0.53319722 0.1379669 13487565
0.94392258 0.53370041 0.13774091 13421772
0.94546181 0.538001 0.13807881 13355979
0.91540271 0.49795619 0.13602895 15856113
0.91801798 0.50168782 0.13544694 16119285
0.92003852 0.50402403 0.13528255 16053492
0.92181349 0.50610119 0.13552824 16250871
0.92371744 0.50898153 0.13636899 16053492
0.92515349 0.51114893 0.13548684 15395562
0.92696464 0.51343894 0.13569123 14408667
0.92856312 0.51655394 0.13577545 14540253
0.93121225 0.51801348 0.13574278 14211288
0.93234366 0.52176458 0.13593285 14474460
0.93338901 0.52410406 0.13550414 13816530
0.93507612 0.52662772 0.13582629 13684944
0.91177249 0.49572954 0.13317147 16250871
0.91360658 0.49701762 0.1334672 16316664
0.91500002 0.49914297 0.13390718 16579836
0.91742158 0.5019623 0.13402674 15724527
0.9192391 0.50529194 0.133395 15132390
0.92042232 0.506881 0.13382693 14935011
0.92227739 0.51009488 0.13354525 14803425
0.92380059 0.51227921 0.13496155 14079702
0.9007045 0.48123237 0.13188405 16514043
0.90213752 0.4845196 0.13147476 16448250
0.90722096 0.49105573 0.13114686 16382457
0.90896809 0.49317062 0.13194276 16382457
0.91086978 0.49493408 0.13207781 16053492
0.91208369 0.499033 0.131668 14671839
0.91430068 0.50035179 0.13205229 14803425
0.91621286 0.50285804 0.13199213 14869218
0.91677755 0.5052141 0.13247861 14277081
0.92040926 0.50943404 0.13204868 14145495
0.92309797 0.51353216 0.13175429 14079702
0.89697403 0.4797157 0.12996362 16579836
0.89995372 0.4813993 0.12957738 16514043
0.90090978 0.4842771 0.12974234 16382457
0.9022913 0.48660529 0.12948814 16053751
0.90409708 0.48934066 0.12951265 15790320
0.90579814 0.49145463 0.13042405 15461355
0.90738511 0.49378312 0.13034485 15263976
0.9102394 0.49596775 0.13007869 14737632
0.91063738 0.50077534 0.12831829 14474460
0.89151144 0.47568387 0.1278405 16777215
0.89395481 0.47789526 0.12738816 14606577
0.89587283 0.48098114 0.12742454 14935277
0.89750898 0.4822368 0.12743156 15264238
0.89923292 0.48472396 0.12796751 15132649
0.9005723 0.48724744 0.12857264 14737632
0.90144318 0.48970643 0.12798941 14803425
0.90530139 0.49566853 0.12804551 14671839
0.90710878 0.49907607 0.12691829 14540253
0.90820062 0.50000882 0.12786655 14540253
0.8843438 0.46639559 0.12528411 16187390
0.88600457 0.47007173 0.12520483 14936564
0.88731396 0.47136286 0.12544985 13883372
0.88921785 0.47421831 0.12541276 14804207
0.89105326 0.47579449 0.12582164 14277610
0.89275885 0.47787911 0.12631956 14606312
0.89478123 0.48041981 0.12615898 15198183
0.89651126 0.4878732 0.12500639 14935011
0.89826459 0.48925996 0.12638946 14935011
0.9009757 0.49216574 0.12451451 14869218
0.902053 0.49385414 0.12644501 14737632
0.90365964 0.4962666 0.12407876 14737632
0.90535527 0.49768919 0.12553525 14671839
0.87633044 0.45825762 0.12263689 15269375
0.87989914 0.45922637 0.12387989 15531775
0.879318 0.46307391 0.12340771 14543349
0.88088763 0.46506506 0.12342367 14673649
0.88221753 0.46706474 0.12362989 13093599
0.88475019 0.46925429 0.12375466 13883365
0.88648349 0.47206271 0.12401952 14804196
0.88832927 0.47388458 0.12444549 14540510
0.8904137 0.48211956 0.12410986 15198183
0.89207584 0.48591167 0.12370262 15132390
0.89474064 0.4875578 0.12513071 15066597
0.89738935 0.49050227 0.12318784 14935011
0.89914256 0.49188897 0.12457083 14869218
0.86479247 0.44469756 0.12113574 13758719
0.87245727 0.45706546 0.12139969 13425904
0.87411809 0.45821306 0.12113338 13489897
0.87587261 0.46083242 0.12168472 13884651
0.8779996 0.46244478 0.12176991 13422815
0.88028252 0.46416026 0.12191024 14343390
0.88359827 0.47463107 0.12097484 15395562
0.88561994 0.47591016 0.12209917 15263976
0.88702846 0.47879919 0.12047994 15263976
0.88871807 0.48069692 0.12265344 15263976
0.88959616 0.4833259 0.12083478 15198183
0.89170212 0.48602188 0.12131131 15132390
0.8938607 0.48880276 0.12178776 15066597
0.89569372 0.48907959 0.12173134 14935011
0.8542698 0.4322727 0.11919779 9740249
0.85557634 0.4340902 0.11892941 10663140
0.85817772 0.43649757 0.1183694 12509695
0.86034858 0.44026977 0.11843992 12837887
0.86133832 0.44171846 0.1204868 13495551
0.8634631 0.44372481 0.11978179 13692927
0.86516237 0.4470529 0.11918738 13824255
0.86610085 0.44951054 0.11949809 14020601
0.86773598 0.4521631 0.11905793 13556455
0.86931598 0.45414981 0.11963046 13556457
0.87142146 0.45609984 0.11986922 13294574
0.87220347 0.45927763 0.11957574 14935270
0.8743192 0.46325836 0.11834311 15592941
0.87424928 0.46424478 0.1198505 15724527
0.87670791 0.46824968 0.11942061 15592941
0.87937081 0.46924895 0.12000482 15527148
0.8810572 0.47249585 0.11886081 15527148
0.88180506 0.47379917 0.12031157 15461355
0.88784277 0.4819392 0.11945178 15263976
0.84894371 0.42827514 0.11777837 9477843
0.85134977 0.43028927 0.11675268 10136285
0.85365742 0.43229643 0.11761476 11322867
0.85558748 0.4335719 0.11769249 12377087
0.85647362 0.43649375 0.11846206 12049407
0.85856432 0.43978539 0.11781843 12640511
0.86024737 0.44276157 0.11768956 13559029
0.86093467 0.44535357 0.11705595 13028831
0.86262757 0.44744262 0.1174404 12436703
0.86492383 0.44976634 0.11819811 12370912
0.8666001 0.45251232 0.11860761 12965871
0.86803752 0.45832327 0.11690238 15725040
0.87085301 0.46152031 0.11701092 15724527
0.87259102 0.46232766 0.11771107 15724527
0.8751446 0.46580237 0.11652455 15592941
0.87589753 0.46698487 0.11790198 15592941
0.84034163 0.41677776 0.11526295 9352447
0.84111387 0.41923979 0.11521375 9878015
0.84320146 0.42171034 0.11469589 8819661
0.84484178 0.42325434 0.11557268 9280211
0.84741759 0.42518863 0.11570032 9345747
0.84871435 0.42791986 0.11556428 10533870
0.85110927 0.43163496 0.11511679 11523071
0.85120744 0.43263462 0.11647731 11851007
0.85319495 0.43710575 0.11490458 13423839
0.85439116 0.43881607 0.11519214 13557486
0.85628593 0.44067702 0.11552409 12766178
0.8579067 0.44333458 0.11568896 13029350
0.86539888 0.45677879 0.11558143 15593711
0.86719209 0.45761058 0.11624484 15593454
0.86909097 0.46066931 0.11638156 15790320
0.83043408 0.4060902 0.11418702 659230
0.83413541 0.410151 0.11470689 9678064
0.83495009 0.41223076 0.1125615 7833017
0.83693773 0.41495577 0.113016 8361689
0.83890057 0.41674563 0.11360069 9284587
0.84044993 0.41882542 0.11394021 9545438
0.842152 0.42114252 0.11337569 9282014
0.84290498 0.42388797 0.11149275 12640763
0.84445179 0.42740187 0.11311588 10664171
0.84568465 0.43001974 0.11296841 11450846
0.84785157 0.43270704 0.11333648 11911650
0.84974563 0.43465886 0.11393161 12833769
0.85173863 0.43698654 0.11409035 11911651
0.85386288 0.43910241 0.11431921 11252960
0.85807693 0.44684333 0.1144684 15266288
0.85939056 0.44967347 0.11278052 15397617
0.86286569 0.45469767 0.11351544 15528175
0.82273316 0.39650229 0.11008593 1906194
0.82316089 0.39757189 0.11103565 1840661
0.82503295 0.39990246 0.11118872 1447187
0.82718831 0.40292048 0.1115696 724757
0.82882077 0.40496784 0.11155885 2435900
0.83009291 0.4073689 0.11165993 2962761
0.83226627 0.41034037 0.11146053 7834026
0.83367103 0.41287339 0.11137859 10665461
0.83517963 0.41549757 0.1115908 10470398
0.83625817 0.41659486 0.11214177 11260413
0.83764642 0.42062643 0.11123884 9675988
0.83968437 0.42303181 0.11128592 10796013
0.84157974 0.42551994 0.11192989 10861031
0.84320301 0.42743766 0.1118344 12506095
0.84501219 0.43105042 0.11115337 12901360
0.8465268 0.43246627 0.11192581 14086646
0.85151809 0.43949047 0.11146896 14742259
0.81778103 0.39162675 0.10870776 6377006
0.81907922 0.39379406 0.10959047 2167304
0.82083368 0.39594266 0.10978527 3157287
0.82226682 0.39861208 0.1090986 529432
0.82370102 0.40126532 0.10974903 1250840
0.82486475 0.40366563 0.10916191 1381400
0.82704955 0.4059574 0.10929185 1447197
0.82809025 0.40882587 0.10888412 1777699
0.83021045 0.41132244 0.10968713 6385799
0.83176672 0.41414887 0.10961332 9280713
0.83360541 0.41615519 0.10981654 9215446
0.83520079 0.41882181 0.11019658 9741016
0.83713037 0.42087278 0.10971833 10596325
0.8147465 0.38991696 0.10824619 13810579
0.81613123 0.39205942 0.10863017 11179629
0.8172155 0.39583498 0.10702726 8815230
0.81883168 0.39714861 0.10761157 7499360
0.82028711 0.4003242 0.10738803 2431764
0.8217535 0.40192571 0.10735072 1316394
0.82297999 0.40471804 0.10730674 2038812
0.82615477 0.40702349 0.10805107 2038812
0.81697583 0.39857578 0.1053381 9141605
0.81888062 0.40113673 0.10542248 4668977
0.82008648 0.40307245 0.10584385 2235156
0.81626642 0.40014014 0.10322677 9797727
0.81598103 0.40090725 0.10480808 9600347
0.81399846 0.40036491 0.10153844 10655341
0.81092393 0.40273601 0.10048477 10326628
0.79412478 0.45187393 0.059895311 12495220
0.79581028 0.45808282 0.060052898 13284993
0.79739267 0.45941752 0.060827427 13679755
0.79871267 0.46079671 0.061328549 14335894
1.0301822 0.61244255 0.17435847 1581855
1.0319563 0.61346102 0.17389391 3485480
1.0259854 0.60770613 0.17214377 2302244
1.0279297 0.61044657 0.17211717 2237481
1.0301416 0.61211306 0.17292047 3354404
1.0308496 0.61484969 0.17275497 1580596
1.0342281 0.62181348 0.17242193 3617066
1.0359195 0.6232357 0.17196794 4209202
1.0163622 0.59805691 0.17051226 5531561
1.0231649 0.60593653 0.17043555 2632766
1.0239867 0.61027229 0.17013779 4609390
1.0259037 0.61049837 0.17078525 2634841
1.0287097 0.61370111 0.17061117 1318450
1.0295858 0.6170963 0.16930278 2565672
1.0345994 0.62134576 0.17048974 3683113
0.99912989 0.57231909 0.16741073 10468579
1.0011271 0.57302576 0.16877249 9613282
1.0126978 0.59498906 0.16767509 5397891
1.014604 0.59723997 0.16798458 5331843
1.0166706 0.59997976 0.1685223 4937602
1.0182221 0.6021474 0.16820756 3949665
1.0206783 0.60440028 0.16935737 3093837
1.0217402 0.60860062 0.16727984 4413326
1.0228323 0.60945576 0.16867483 4543871
1.025919 0.61545342 0.16820918 2959665
1.0281203 0.61676794 0.16899189 3419439
1.000833 0.57726049 0.16599818 9350113
1.0016536 0.58069164 0.16571848 8363232
1.0043365 0.58620542 0.16615927 5396855
1.0066588 0.58888435 0.16613278 5396599
1.0086143 0.59010595 0.16689256 6121615
1.0102764 0.59311521 0.16707163 5726859
1.0120295 0.59567475 0.16622476 6257856
1.0161284 0.60031116 0.16582251 6585540
1.0178945 0.60611814 0.16651216 5335199
1.0191574 0.60887414 0.16623978 4673403
1.0216198 0.61114275 0.16603561 4146531
1.0226953 0.61356521 0.1669367 4276827
1.0246069 0.61717159 0.16494288 1977441
1.0249264 0.61873919 0.16588236 2633302
1.0271778 0.62161893 0.16583861 1711661
1.0017715 0.58402717 0.1645582 7175087
1.00246 0.58634508 0.16447964 5725562
1.0054585 0.58827102 0.16364923 5659773
1.0063332 0.59245396 0.16408987 7703249
1.0088212 0.59236521 0.16449971 7181019
1.0100636 0.59488964 0.16478971 8032722
1.0118119 0.60192043 0.16368736 6186383
1.0138996 0.6044808 0.16438591 6120329
1.0160606 0.60732806 0.16432099 5726352
1.0176722 0.61009377 0.16426125 5203111
1.0196295 0.61190087 0.16417365 5005202
1.0203545 0.61492157 0.16426425 5464457
1.0221066 0.61704785 0.16434543 5069449
1.0258805 0.62085193 0.16482966 987442
0.99422181 0.57658046 0.16072345 7502239
0.99635959 0.58102161 0.16194028 6712719
0.99822015 0.58222258 0.16211312 6646670
1.0009196 0.58425695 0.16237994 7505333
1.0023493 0.58884215 0.16344653 7506910
1.002954 0.59128755 0.16177507 7573470
1.0043031 0.59178716 0.16268285 7506909
1.0054688 0.595846 0.16146006 7502751
1.0069803 0.59826267 0.16180965 6580362
1.0094047 0.60042852 0.1623714 7174045
1.0115737 0.60277086 0.16213141 7965371
1.0128919 0.60583454 0.16133244 7701941
1.0140984 0.60791206 0.16233443 7175084
1.0161034 0.61070853 0.16227373 6583469
1.0227404 0.61949748 0.16179562 5265539
0.98554063 0.56901622 0.16058652 8094384
0.98788106 0.57109481 0.15998176 7699877
0.99062002 0.5735755 0.16037974 7765407
0.99269176 0.57599813 0.16062222 7436443
0.99286574 0.57865483 0.16123372 7107475
0.99505883 0.5800612 0.16104551 6975634
0.99753428 0.58628905 0.16002113 10465466
0.99900419 0.59014225 0.16004604 8949929
1.0012866 0.59117997 0.16013077 8556983
1.0030136 0.59409457 0.16039795 7634852
1.0038028 0.59695417 0.16067666 8161451
1.0065258 0.59889495 0.16059883 8227248
1.0066841 0.6012069 0.16007207 8886204
1.0113342 0.6049158 0.1606241 8160943
0.98142403 0.56560105 0.15801723 10068686
0.98379338 0.56715423 0.15848634 10002895
0.98627508 0.56926441 0.15872669 9081793
0.98765057 0.57029456 0.15848798 8489910
0.99067497 0.58112293 0.15817085 11910331
0.99281657 0.58256018 0.15734813 10331059
0.99455637 0.58522803 0.15808412 9936559
0.99630505 0.58775336 0.15881707 8093603
0.99806666 0.5894261 0.15833013 8950956
0.99919927 0.59222376 0.15843447 10135219
1.0006624 0.59599239 0.15808657 9740989
1.0026506 0.5965274 0.15884371 8163772
1.004629 0.59959412 0.15788105 8953020
0.97214592 0.55405289 0.1562666 12435662
0.97343695 0.55634999 0.15584302 11055051
0.97492379 0.55779248 0.15625125 11515080
0.97691756 0.55970442 0.15623878 10002892
0.97894007 0.56321597 0.15659231 10003148
0.98113227 0.56397551 0.15603787 9938128
0.98592514 0.57598352 0.15599059 11449019
0.98787242 0.57890248 0.15604274 10330808
0.99038833 0.58067095 0.15680358 9870515
0.99193585 0.58304548 0.15699798 10462903
0.9935298 0.58919221 0.15629649 10660780
0.9965741 0.59017015 0.15625998 10464691
0.9662255 0.55014676 0.15365425 10596049
0.96839583 0.55202627 0.15384389 12370126
0.97071069 0.5531351 0.15452333 11778510
0.97322035 0.55616808 0.154172 9872329
0.97446012 0.55875272 0.15449865 11581386
0.97515976 0.56272775 0.1533135 13092807
0.97531533 0.56380975 0.15481524 13092807
0.97957534 0.57085437 0.1538644 11844038
0.98144919 0.57194799 0.1533507 11515589
0.98353451 0.57443136 0.15469322 11843779
0.98745298 0.58222759 0.15373635 11317937
0.98923254 0.58371592 0.15522668 10989744
0.99116296 0.58685076 0.15380694 11055537
0.96071488 0.54602867 0.15255728 11845077
0.96298677 0.54756248 0.15236887 12370900
0.96531105 0.54972309 0.15248799 12962260
0.96719754 0.55136693 0.15293747 12239055
0.97243261 0.56329519 0.15150566 11975876
0.97506249 0.56568688 0.15208842 11975621
0.97687328 0.56809431 0.15213297 11909573
0.97821522 0.56961709 0.15298994 12435397
0.97995985 0.57280868 0.15189604 12895428
0.98018974 0.57560551 0.15152952 12434877
0.98260683 0.57705259 0.15326881 12105912
0.9843989 0.58080339 0.15262054 11711668
0.95642 0.54150856 0.1498193 15921907
0.95911527 0.54360479 0.15037055 15001322
0.96105289 0.54534668 0.15097582 14540514
0.96197444 0.54827303 0.14972764 13948117
0.9630295 0.55012172 0.15142611 13619151
0.96452135 0.55419272 0.14897788 13225422
0.96610409 0.5564872 0.14951134 12830666
0.96796215 0.55876893 0.15047185 12633802
0.96985847 0.5616045 0.14974807 12567236
0.97141552 0.56339288 0.14977275 12500670
0.97416538 0.56904101 0.14986004 12369084
0.97582352 0.57101715 0.15210681 12303291
0.97778988 0.57359928 0.14984967 12237498
0.98207206 0.57843697 0.15012917 12105912
0.94768482 0.5325641 0.14806528 12371168
0.94996762 0.53495389 0.14805819 13029097
0.95153505 0.53672814 0.14801618 15264491
0.95382881 0.53967011 0.1485088 15330026
0.95532966 0.54218024 0.14781685 14869218
0.95647264 0.54400176 0.14816737 13882323
0.95795822 0.54770738 0.14779975 13750994
0.95956582 0.54978931 0.14750279 13685202
0.96200305 0.55239815 0.14821415 13290702
0.96599138 0.56045389 0.14735101 12632256
0.96777642 0.56164414 0.14844616 12566463
0.97169447 0.56764787 0.14864254 12434877
0.97528875 0.57240158 0.14896715 12303291
0.94340307 0.52858579 0.14586818 16382457
0.94573861 0.53027695 0.14615244 15264235
0.94719559 0.53262931 0.14649084 13620189
0.94858885 0.53547043 0.14579125 13948636
0.95026177 0.53990251 0.14514822 14079959
0.95156002 0.54092318 0.14607967 14079702
0.95371777 0.54352701 0.14559725 13684944
0.95506126 0.54585212 0.14624569 13619151
0.95659363 0.5494495 0.14533184 12961221
0.95923209 0.55105305 0.14675999 12895428
0.96130335 0.5544737 0.14576569 12829635
0.96320581 0.55911839 0.14635757 12763842
0.93350041 0.51781666 0.14479044 14935011
0.93713343 0.52268195 0.14384218 16448250
0.9386338 0.52363497 0.14373937 16448250
0.9403345 0.52638161 0.1441315 15724527
0.94228804 0.52977979 0.14231983 14540253
0.94359469 0.53116918 0.14421324 14474460
0.94506365 0.53456098 0.14332709 14277081
0.94680977 0.5364812 0.14461459 14277081
0.94901925 0.53894514 0.14427531 14145495
0.95007795 0.54295349 0.14351505 13224393
0.95196873 0.54319471 0.14338537 13092807
0.93036646 0.51594871 0.14155759 15592941
0.93170655 0.51765233 0.14198881 15856113
0.93377817 0.52027535 0.14233774 16119285
0.93556458 0.52241683 0.14314696 15658734
0.9368372 0.52583683 0.14162044 14606046
0.93791395 0.52817351 0.14179903 14474460
0.94041467 0.5303123 0.1426762 14474460
0.94184554 0.53232723 0.14245467 14408667
0.94362009 0.53642172 0.14162487 13355979
0.9458546 0.5407033 0.14165594 13290186
0.94826108 0.54201877 0.14281519 13224393
0.95104867 0.54682118 0.14334485 13092807
0.92537653 0.51142871 0.1395448 16514043
0.92747962 0.51326519 0.14082448 16514043
0.92868322 0.51649797 0.14007983 15527148
0.93077403 0.51788819 0.13938767 14869218
0.93215477 0.5209353 0.14003097 14606046
0.9336282 0.52425754 0.14048788 14474460
0.93589258 0.52432567 0.13995296 14606046
0.93633175 0.52981585 0.13986737 13619151
0.93846345 0.53092855 0.1407959 13553358
0.94062209 0.53460914 0.14001605 13487565
0.9418869 0.53555262 0.14095877 13421772
0.9446283 0.53973585 0.14066429 13355979
0.91133684 0.49553612 0.13810056 15987699
0.91365755 0.4989208 0.13759238 15856113
0.91552585 0.49947104 0.13824779 15856113
0.91714495 0.50248611 0.13770907 16250871
0.91901451 0.50495517 0.13759942 16053492
0.9206624 0.50764 0.13791424 16053492
0.9219653 0.50951487 0.13770142 15198183
0.92378163 0.51233464 0.13805321 14935011
0.9261955 0.51405609 0.13842982 14803425
0.9272145 0.51719838 0.13851523 14606046
0.92818785 0.51938891 0.13834785 13882323
0.93002385 0.52283746 0.13729127 13816530
0.93180585 0.52426529 0.13874491 13816530
0.93370199 0.5276767 0.13768555 13684944
0.93552387 0.52854973 0.13841943 13684944
0.90178603 0.48427388 0.13622302 16448250
0.90936553 0.49404803 0.1360506 16053492
0.91074264 0.49598852 0.13581167 16448250
0.91238981 0.49782073 0.13566786 16053492
0.91423571 0.50032502 0.13632636 16119285
0.91560578 0.50276905 0.13570234 14869218
0.9172799 0.50561428 0.13605715 14474460
0.91919607 0.50783867 0.13585164 14803425
0.92010677 0.51215541 0.13593268 14145495
0.92202419 0.51224321 0.13603488 14540253
0.92281568 0.51677114 0.13635527 14079702
0.92555547 0.51731002 0.13620266 14013909
0.92927104 0.52159584 0.13580662 13882323
0.89943123 0.48143527 0.13405383 16579836
0.90111274 0.4829236 0.1343089 16448250
0.90225822 0.48603562 0.13362296 16448250
0.90358269 0.4900372 0.13346104 16448250
0.90537947 0.49199566 0.13397266 16316664
0.90743792 0.49389371 0.13406545 16053492
0.90912992 0.49634624 0.13376763 15263976
0.91073501 0.49919441 0.13366258 14803425
0.91227108 0.50126326 0.13440558 14606046
0.91293842 0.50312608 0.13592882 14474460
0.91837364 0.51128638 0.1352666 14145495
0.89206874 0.47487488 0.13187505 16777215
0.89354825 0.47866333 0.13207537 16711422
0.89620572 0.48072246 0.13138883 16579836
0.89713573 0.48226416 0.13177645 16448250
0.89862508 0.48532134 0.13177362 16382457
0.90057594 0.48803389 0.13166593 15592941
0.90255177 0.48988512 0.13198914 15724527
0.90377611 0.49265933 0.13208397 15000804
0.9066565 0.4943074 0.13243167 14737632
0.90596557 0.49861479 0.13183051 14671839
0.9086042 0.50015908 0.13315143 14540253
0.88426495 0.46699977 0.12965043 16383997
0.88841611 0.47384021 0.1305981 16777215
0.8912555 0.47725534 0.12918866 14738162
0.89266479 0.4791283 0.12981428 15395568
0.89411569 0.48075876 0.12977336 15658737
0.89580417 0.48337978 0.13032149 15395562
0.89766663 0.48634243 0.12974982 14869218
0.89918935 0.48828277 0.13072681 14803425
0.9008019 0.49186894 0.12929112 14869218
0.90158594 0.4930914 0.13080983 14869218
0.90427852 0.49665642 0.12962043 14671839
0.90604055 0.49750751 0.13024984 14671839
0.9077602 0.50138217 0.12998372 14540253
0.88061851 0.46548992 0.1276565 16187390
0.88254046 0.46747565 0.12765373 14936820
0.88463086 0.46950477 0.12786429 14475504
0.88584453 0.47213477 0.12806886 14541040
0.8876462 0.47478253 0.12769379 14146024
0.88976431 0.47674915 0.12851639 14343398
0.89542586 0.48737615 0.12984532 15066597
0.89731556 0.48961335 0.12724201 14935011
0.87479848 0.46026814 0.12562865 15335423
0.87734461 0.46369019 0.12544982 14937848
0.87894052 0.46550596 0.125724 13883368
0.88117468 0.46788692 0.12587954 14212071
0.88284928 0.47026199 0.12642345 14343138
0.88409746 0.47374275 0.12663734 15001061
0.88574708 0.47454435 0.12638506 15000805
0.88690156 0.47847337 0.12530747 15329769
0.88851076 0.48282886 0.12567367 15263976
0.89024383 0.48369789 0.12633975 15198183
0.8924073 0.48641694 0.12685016 15132390
0.89460832 0.48858258 0.12657022 15066597
0.86023742 0.4398753 0.12317721 13560575
0.86148667 0.44122192 0.12500107 13232127
0.86234832 0.44368479 0.12325054 13297919
0.86460364 0.44667092 0.12397543 13692159
0.86540884 0.44996399 0.12341044 13889535
0.87082863 0.45711532 0.12302411 14214895
0.87259054 0.45920905 0.12370105 14017005
0.8747046 0.46167651 0.12423183 13423334
0.87661684 0.4634527 0.12411922 14410474
0.87757444 0.46754315 0.12337591 15592941
0.87926143 0.46950132 0.12558606 15527148
0.88094956 0.47168651 0.12291769 15527148
0.88339955 0.47622731 0.12324145 15395562
0.88858056 0.48184252 0.12416624 15263976
0.85303861 0.43307614 0.12083508 11256560
0.85452938 0.43502566 0.12129439 10992873
0.85639286 0.43782213 0.12147436 12377343
0.85850453 0.43988934 0.12330669 13494783
0.86049706 0.44218138 0.12130249 13692159
0.86315769 0.44571131 0.12262557 13955583
0.86430401 0.45031127 0.12123705 12832229
0.86601722 0.45272082 0.12165055 13688298
0.86797023 0.45478654 0.12235593 13096428
0.86989194 0.45674321 0.12243516 13884648
0.87214935 0.46278355 0.12190976 15724527
0.87469953 0.46581137 0.12184706 15658734
0.87581253 0.46669206 0.12274649 15592941
0.8782711 0.4706971 0.12231652 15527148
0.84663302 0.4267661 0.11860542 9674454
0.84775537 0.42818961 0.11933812 9806294
0.84958982 0.43112057 0.11979803 10004186
0.85238075 0.43214989 0.12049738 10068695
0.85693777 0.44129419 0.11961838 12968183
0.85775965 0.44453844 0.11931724 12173536
0.85928488 0.4457511 0.11964316 12436704
0.86155397 0.44844741 0.12045795 12568032
0.86373335 0.45510992 0.11903735 15659504
0.86543769 0.45593768 0.11963286 15659504
0.86698729 0.45968211 0.11922842 15921906
0.86898726 0.46099421 0.12034225 15856113
0.8724162 0.46396774 0.11990695 15724527
0.83200979 0.40717834 0.11755163 1320516
0.83241862 0.40886658 0.11820738 5795205
0.83434159 0.41202673 0.11749607 9350399
0.83855015 0.41800746 0.11768225 9217509
0.83971095 0.41896451 0.11737861 9217508
0.84175569 0.42173842 0.11727843 9347286
0.84389299 0.42387563 0.11872442 9279954
0.84535831 0.42584974 0.11859528 9543125
0.84661394 0.42962825 0.11767071 10996991
0.84850955 0.43148339 0.11764272 11588351
0.84973907 0.43436843 0.11792834 12178165
0.85115594 0.43758291 0.1171832 11910879
0.8529309 0.43965456 0.11764289 13687527
0.85516143 0.44166464 0.11819672 12766181
0.85642886 0.44381168 0.11809202 13358052
0.86190033 0.454833 0.11909378 15660017
0.86613458 0.45903262 0.11846619 15921906
0.82628107 0.40322906 0.11558775 724753
0.82873422 0.40564442 0.11535014 3884378
0.83005834 0.40793198 0.11562698 5463174
0.83188534 0.41062284 0.11522818 8360125
0.83419883 0.41283226 0.11552615 8757213
0.83528501 0.4154889 0.11571151 8954340
0.83721274 0.41713923 0.1161961 8624859
0.83911347 0.41953862 0.11656063 9218022
0.84023285 0.4224326 0.11643735 9746687
0.84135818 0.42594832 0.11531151 12114173
0.84312278 0.42831209 0.1156752 11190254
0.84450579 0.43085599 0.11568668 11582946
0.84651381 0.43336222 0.11590641 11713503
0.84809434 0.43531814 0.11621721 12570343
0.84971285 0.43779251 0.11636192 13689839
0.85160577 0.43920821 0.11630782 14742774
0.85616839 0.44785076 0.11642737 15266544
0.8576923 0.45131636 0.11559387 15332081
0.85928291 0.45409241 0.11371876 15463152
0.86091316 0.45598763 0.1158469 15528432
0.8169772 0.39172104 0.11443316 5390627
0.81869882 0.39335924 0.11353414 1903878
0.82035124 0.3964521 0.11327873 1775635
0.82190526 0.39878434 0.11388481 1185305
0.82420486 0.40041876 0.11385074 1381399
0.82577574 0.40279815 0.1137318 790039
0.82740623 0.40618435 0.11380423 1777704
0.82906228 0.40912542 0.11372565 1055258
0.83035386 0.41096061 0.1138593 4484669
0.83135813 0.41372561 0.11369494 9810649
0.83321571 0.41745996 0.11336954 10137570
0.83484912 0.41911504 0.11352178 9875680
0.83649796 0.42190242 0.11381077 10531810
0.83849901 0.42365447 0.11402842 10465500
0.83998638 0.42594773 0.1142049 10860516
0.84179318 0.42866588 0.1139755 12441585
0.844585 0.43372995 0.11424462 13758200
0.81334269 0.39032108 0.11212252 14271905
0.81514531 0.39226103 0.11073124 12495234
0.8173939 0.39482942 0.1112005 7170130
0.81896281 0.39652467 0.11165214 5855571
0.82036656 0.39905664 0.11157717 2703186
0.82176548 0.402888 0.11097781 1512993
0.82365769 0.40484676 0.11202752 1907478
0.82528353 0.40690118 0.11128603 2104604
0.82710469 0.40995729 0.11169899 1842978
0.82878888 0.41228008 0.11273444 5597564
0.83054602 0.41448402 0.11178029 8951744
0.83201665 0.41686726 0.11214828 10267616
0.8338446 0.41949901 0.11196071 10399203
0.8352353 0.42110872 0.11240499 10662116
0.81510329 0.39522797 0.1115212 8684655
0.81722081 0.39824265 0.10975318 7496263
0.81898767 0.40081853 0.10989448 2168841
0.81977499 0.40334904 0.10955121 1972505
0.82239556 0.40600058 0.10975012 2367264
0.82286263 0.40724266 0.11135059 2433056
0.8150298 0.39644402 0.10800899 8684659
0.81501567 0.40080211 0.1069614 10919040
0.81676847 0.40195301 0.10762221 7300431
0.81866252 0.40336913 0.10830349 2430993
0.81379992 0.40190214 0.10369774 10787702
0.81195474 0.40257573 0.10518812 10655867
0.81079149 0.40376082 0.10192422 10590323
0.80825502 0.40485793 0.10075709 10786436
1.0281243 0.6114856 0.17688599 3353895
1.0298735 0.61287189 0.17635857 2565922
1.0230752 0.60719758 0.17453185 2368558
1.0249631 0.60869515 0.17462689 2104870
1.0266204 0.61126763 0.17560561 2105651
1.0285461 0.61275047 0.17505641 1975071
1.0302616 0.61662781 0.17496745 1646126
1.0335416 0.62371123 0.17449857 3814449
1.0148944 0.59728271 0.17255169 5530012
1.016682 0.59962618 0.17265476 6253209
1.0176845 0.60323888 0.17238419 4608114
1.0200739 0.6048764 0.17214665 3224645
1.0214868 0.60657078 0.17283943 2960955
1.0223722 0.61051196 0.17345189 2111568
1.0249488 0.61191517 0.17259027 1319509
1.0274916 0.6172502 0.17238367 3222060
1.0311309 0.62208551 0.17380518 3945264
0.99942338 0.57384598 0.16955326 9544673
1.0003241 0.57775766 0.16998775 7309516
1.0015378 0.58029991 0.17031446 6257854
1.0033149 0.58408111 0.17075229 4089773
1.0093336 0.59358567 0.17011999 5133685
1.0112425 0.59626162 0.17019705 5199735
1.0129398 0.59786254 0.17109551 4804721
1.0147831 0.6007089 0.17015669 3948370
1.0171505 0.60297877 0.17074008 4212321
1.0191678 0.60890365 0.1706274 3754612
1.0218996 0.61050701 0.17106172 3754596
1.0223531 0.61390936 0.17012148 3486532
1.0243731 0.61567909 0.1709369 2696755
1.0262189 0.61665338 0.17082283 2959147
0.99848872 0.57759881 0.16930343 9480143
1.0021162 0.58270288 0.16864307 7308747
1.0031579 0.58717281 0.16793953 6121357
1.0050026 0.58861864 0.16809402 5330031
1.0070159 0.5916242 0.16885267 5266049
1.0093101 0.59441906 0.16742423 5401002
1.0096325 0.5959869 0.1696374 5927077
1.0126706 0.60292363 0.1676878 7700389
1.0127684 0.60404158 0.16926287 7962023
1.0157773 0.60711724 0.16826569 6515345
1.0177454 0.60942787 0.16858912 5001585
1.0196614 0.6112119 0.16883324 4935532
1.0206306 0.61458015 0.16825828 4673910
1.021757 0.61658967 0.16934419 4015204
1.0240771 0.62006795 0.16839929 2435403
1.0260234 0.62300241 0.16798002 2039330
0.99509901 0.58051533 0.16671412 6711429
0.99881709 0.58232927 0.16584562 6976674
0.99995023 0.58454019 0.16692935 5461874
1.0019389 0.58710235 0.16710648 5264494
1.0025624 0.58988822 0.16487487 8031705
1.0048616 0.59164512 0.16773272 6387894
1.0088093 0.60190034 0.1662412 6581921
1.0110906 0.60309553 0.16629358 6252172
1.0129249 0.60525852 0.16712989 6185862
1.0145484 0.60693514 0.1672067 6054278
1.0168405 0.61022115 0.16740534 6645913
1.0172997 0.61401176 0.16618934 5528451
1.0197594 0.61541194 0.16737199 5331064
1.0227365 0.61833119 0.16658513 4080249
1.0230851 0.61917371 0.16644809 4804712
0.98850477 0.5737735 0.16468292 7830423
0.99094731 0.57643557 0.16387373 7436181
0.99351269 0.57831788 0.16417754 7041425
0.99468207 0.58053482 0.16460562 6844046
0.99668688 0.58223546 0.16542017 6251399
0.99673575 0.58537817 0.16399319 11187133
1.0025065 0.59350914 0.16469903 6123708
1.0043261 0.59693283 0.16380519 7173527
1.0045398 0.5987767 0.16427238 6053239
1.0072823 0.60115165 0.16412865 6647444
1.0096242 0.60257012 0.16498831 5660293
1.0117227 0.60444623 0.16456474 7372198
1.0160717 0.61304522 0.16515057 6516116
0.98405004 0.5679394 0.16075741 8883898
0.98451042 0.56930399 0.16267885 8159391
0.98705977 0.57145995 0.16256392 7567769
0.98899418 0.57417321 0.16269277 7568279
0.99058521 0.57542264 0.16238035 7436694
0.9947685 0.58459461 0.1629651 11187131
0.99670887 0.58803749 0.16199335 9147308
0.99763334 0.59001368 0.16214186 8160163
0.99933922 0.59216547 0.16313696 7766179
1.0013365 0.59501767 0.16255258 7502752
1.0029589 0.59755832 0.1631698 7304606
1.0047715 0.59951347 0.1630051 7834040
0.97832948 0.56424624 0.16024177 9344188
0.98023927 0.56567144 0.16027579 9541313
0.98239219 0.56755531 0.16154881 9080756
0.98903632 0.58155179 0.16021566 8948393
0.9909904 0.58298868 0.16030151 10396338
0.99313861 0.58571595 0.15991037 10264752
0.99413604 0.58698332 0.16184731 8553379
0.99589819 0.59153283 0.15883298 10331566
0.99973714 0.59398144 0.16052023 8886205
1.0008606 0.59816766 0.16120012 7899066
0.96803844 0.55126613 0.15814371 13355979
0.96973097 0.55468708 0.15796407 12501198
0.97158206 0.55691302 0.15801556 9936843
0.97350204 0.55919886 0.15863669 10265283
0.97597921 0.56140631 0.15909842 9607363
0.97737515 0.56295276 0.15869208 9673155
0.98228019 0.57432139 0.15761444 10461629
0.98458427 0.57676041 0.15809953 10593976
0.98643148 0.57877249 0.15965998 10132912
0.98814493 0.58116037 0.15875207 10857654
0.99210668 0.59029126 0.15822905 10857903
0.99401265 0.59117103 0.15888952 10725804
0.96501499 0.55012423 0.15661001 11120846
0.96739626 0.55220944 0.1562022 10792404
0.96882403 0.55380607 0.15687491 12172496
0.97077727 0.55780119 0.15690403 13290186
0.97263211 0.56135702 0.15662731 13224393
0.97340959 0.56381309 0.15495022 13092807
0.9735651 0.56489509 0.15645196 13092807
0.97592539 0.56825495 0.1556872 11777475
0.97760171 0.57098079 0.15570238 11514563
