# .PCD v0.7 - Point Cloud Data file format
VERSION 0.7
FIELDS x y z rgba
SIZE 4 4 4 4
TYPE F F F U
COUNT 1 1 1 1
WIDTH 1129
HEIGHT 1
VIEWPOINT 0 0 0 1 0 0 0
POINTS 1129
DATA ascii
1.3950408 0.5046463 -0.0030519962 16641700
1.3963027 0.50649691 -0.0029467344 16772255
1.3987176 0.50855231 -0.0032274723 16707230
1.4006848 0.5105443 -0.0028231144 16707733
1.40228 0.51318932 -0.0034658909 16707206
1.4047991 0.51610935 -0.0039883852 16706169
1.4075871 0.51792502 -0.003372848 16705664
1.4088159 0.51961774 -0.0032079816 16771202
1.410151 0.52216566 -0.0037971735 16507752
1.412905 0.5247584 -0.0035930872 16507520
1.4150667 0.52732003 -0.0033746362 16704889
1.4166958 0.52944064 -0.0040861964 16441718
1.4191723 0.53109735 -0.0046842098 16770675
1.4200345 0.5336417 -0.0038813353 16572547
1.4221641 0.53598058 -0.0042439699 16308865
1.4242147 0.53847051 -0.0042487383 16045695
1.4261045 0.54034418 -0.0038847923 15256944
1.4279708 0.54269886 -0.0036000609 15979904
1.4296429 0.54487389 -0.0039089918 13940832
1.4321654 0.54773176 -0.0034737587 13809507
1.4339504 0.5494644 -0.0031301379 14137691
1.4357865 0.5520044 -0.0041322708 13019984
1.4385059 0.55484223 -0.003489852 12163908
1.4402385 0.55738133 -0.002823472 11307590
1.4433656 0.56049025 -0.0033486485 10320189
1.4454918 0.56334805 -0.0029415488 9271108
1.4472165 0.56508297 -0.0043593645 10258229
1.4496484 0.56833148 -0.0045472383 10390061
1.4515041 0.5705682 -0.003749609 7562274
1.4536605 0.57271254 -0.0039805174 8022815
1.4554002 0.57512951 -0.0039578676 7167510
1.4576412 0.57715571 -0.0042991638 8678166
1.4588542 0.57836175 -0.0035785437 8678410
1.461483 0.58202088 -0.0052257776 9271561
1.4653908 0.58341646 -0.0044064522 7167243
1.3617654 0.47020635 -0.0040585995 4926217
1.3638523 0.47311708 -0.0039393902 12362574
1.3662634 0.47416848 -0.0036011934 16246393
1.3743882 0.4840278 -0.0027679205 16776572
1.388916 0.50304765 -0.0037415028 16776086
1.3906273 0.5026353 -0.0033582449 16709027
1.3931991 0.50641406 -0.0044981241 16710810
1.3952986 0.50896084 -0.0045034885 16710546
1.3957744 0.51020741 -0.0037340522 16704664
1.3984288 0.51337034 -0.0044088364 16509566
1.4006329 0.51472437 -0.0048551559 16772444
1.4018347 0.51746607 -0.0044821501 16310111
1.4048567 0.51969528 -0.0044379234 16310106
1.4067149 0.5219183 -0.0043894649 16244057
1.4081259 0.52428269 -0.0049909353 16769888
1.4102242 0.52610266 -0.0047911406 16178029
1.4124327 0.5290637 -0.0050275326 16441203
1.4144704 0.53115296 -0.0051115155 16441204
1.4163828 0.53358495 -0.0052188635 15980660
1.4180758 0.53586078 -0.0050939322 16375163
1.4201324 0.53785157 -0.0050666332 16243576
1.4221956 0.53981769 -0.0047107935 15782769
1.4247019 0.54236519 -0.0048668385 14796123
1.4257488 0.5452497 -0.0056048036 15585374
1.4275943 0.54709232 -0.0055661201 15388513
1.4300584 0.54921848 -0.0054454207 14664793
1.4318593 0.55209881 -0.005312562 13678158
1.4344807 0.55369425 -0.0055116415 14006591
1.4361365 0.55596036 -0.0053750873 11770677
1.4379549 0.55865955 -0.005522728 13612093
1.4404223 0.56023562 -0.0050532222 12427833
1.4417466 0.56288028 -0.0059251785 12822830
1.4439383 0.56527174 -0.0058597326 11704885
1.4457093 0.56766248 -0.0057748556 11639338
1.4478178 0.56913912 -0.0053944588 10981672
1.4495022 0.57284266 -0.005687356 10587170
1.4519389 0.57444024 -0.0057018995 10323998
1.4541719 0.57630289 -0.0054982901 9994775
1.4558241 0.57851541 -0.0048128366 9797133
1.4572762 0.58221555 -0.0044733286 9140236
1.4592257 0.58198833 -0.0046932697 9206028
1.3924575 0.5106715 -0.0052412748 16772958
1.3945105 0.51417619 -0.005808115 16771678
1.3967531 0.51330566 -0.0055378675 16774246
1.3979096 0.51620209 -0.0055099726 16770623
1.4009339 0.51828814 -0.0050513744 16769870
1.4023643 0.52124405 -0.0052162409 16243286
1.4055703 0.52405727 -0.0054779053 16768595
1.4074123 0.52656358 -0.0052907467 16768873
1.4087961 0.52795041 -0.0047579408 15849353
1.4104419 0.53048521 -0.0054766536 15717236
1.4124851 0.53308195 -0.0053523183 15848820
1.4141221 0.535429 -0.0057715178 16769643
1.4164208 0.5384621 -0.0059925318 15848304
1.4184276 0.53990185 -0.0060180426 15453552
1.4196728 0.54124898 -0.0060120821 15783013
1.421695 0.54399455 -0.0059925318 15388495
1.4239911 0.54656214 -0.0057179332 15585368
1.4274628 0.55072892 -0.0060269833 14467140
1.4295762 0.55273604 -0.0060890317 13217347
1.4316247 0.5551337 -0.0055967569 13349182
1.4334202 0.55761212 -0.0056120157 14072385
1.4363846 0.56047094 -0.0055724382 13809199
1.4383523 0.5622077 -0.005613327 12230983
1.439358 0.56443858 -0.0060317516 12493867
1.4420021 0.56737137 -0.0063529015 12427818
1.444139 0.56958306 -0.005885601 11835942
1.4469497 0.57294345 -0.0062790513 11835684
1.4495935 0.57588303 -0.005928278 10521114
1.4516104 0.578435 -0.0059523582 10717972
1.4254282 0.55062473 -0.0067960024 16506437
1.6712503 0.53463721 0.11022651 11444585
1.6725867 0.53598505 0.10925055 11444328
1.6661849 0.53449249 0.10853827 13024670
1.6688781 0.53480536 0.10754842 12037255
1.6706498 0.53636396 0.10803014 11116422
1.672339 0.54020625 0.1077534 11312995
1.6745882 0.54133976 0.10786438 12627566
1.665652 0.53447002 0.10652256 13024667
1.6674702 0.53700262 0.10630095 12432789
1.6694605 0.53996533 0.1064766 12103298
1.6712742 0.53972328 0.10631871 10984814
1.6617086 0.53474241 0.10452694 13288097
1.6631451 0.53542769 0.10535204 13090457
1.6649687 0.53835094 0.10513985 12498591
1.6670104 0.54034197 0.10483116 12300932
1.6594372 0.535923 0.10299766 12960162
1.6613412 0.53873652 0.10294926 12827286
1.663152 0.5394482 0.10344559 12629907
1.6645086 0.5406394 0.10406095 12432520
1.6573744 0.53739321 0.10231543 9737862
1.6594293 0.53955656 0.10184038 11773572
1.6601853 0.54107022 0.10169458 11774327
1.6549065 0.5382207 0.10026753 2106139
1.6568363 0.54105794 0.1002447 4931367
1.6577569 0.5427143 0.10009241 7430720
1.6523795 0.54041648 0.098956168 1249545
1.6549326 0.5425086 0.099103093 1445633
1.6488762 0.54003519 0.097137213 1446665
1.6512341 0.542229 0.097244918 1709575
1.6527522 0.5440371 0.097335398 1907206
1.6448712 0.53940916 0.095661998 1315081
1.6472268 0.54148138 0.096127868 1644294
1.649369 0.54347664 0.095845759 1644294
1.6511004 0.54444623 0.096412659 2301701
1.6416923 0.53923774 0.09416014 1315080
1.6434991 0.54102796 0.094478309 1446918
1.6455117 0.54309833 0.094264627 1578756
1.6470003 0.54487383 0.094231367 2038787
1.6367724 0.53865921 0.092393577 1380106
1.6395419 0.54019934 0.092835069 1380871
1.6413144 0.54262674 0.092733085 1644292
1.6433614 0.54403776 0.093352854 1907204
1.6333073 0.5387283 0.091435969 1249291
1.6353291 0.53980553 0.091671705 1380615
1.6368978 0.54178113 0.092232585 1512452
1.6391542 0.54328656 0.091654539 1841667
1.6293947 0.53751963 0.089039385 1315078
1.6316905 0.53932422 0.089739799 1315334
1.6336286 0.54166645 0.089667499 1512964
1.6356702 0.54275596 0.090649068 1775619
1.6260264 0.53783429 0.088029742 1315078
1.6275841 0.53869909 0.08865881 1381126
1.6296754 0.54050493 0.088555217 1184004
1.6309192 0.54216141 0.088576794 1710085
1.6233313 0.53794396 0.086993515 1380871
1.6255865 0.53912842 0.08726424 855302
1.6271175 0.54229224 0.086851418 1709573
1.6196878 0.53752792 0.085312963 1380869
1.6215661 0.53947365 0.085949063 1052420
1.6236202 0.54176122 0.085763216 1644292
1.6156287 0.53700268 0.083958983 1446663
1.617785 0.53858703 0.084237814 986886
1.6194423 0.54085726 0.083307743 1709829
1.6117928 0.53643495 0.082367301 1380870
1.6140268 0.53682417 0.082612753 855299
1.6152399 0.54065913 0.082420588 1644292
1.6077704 0.53585488 0.080687642 1249542
1.6101809 0.53715646 0.081850827 1380875
1.6123058 0.5403775 0.081038713 1709572
1.6023176 0.53385413 0.077612162 2039047
1.6040664 0.5351218 0.079326212 1315333
1.6063029 0.53645444 0.080373406 1512199
1.6082456 0.5400812 0.079191267 1643781
1.6100857 0.5405184 0.08005625 1709318
1.5985453 0.53352326 0.07621181 2039045
1.6001824 0.53461045 0.078113556 1315332
1.6025507 0.53590524 0.078603089 1512197
1.6042876 0.53951025 0.078496039 1644039
1.6063449 0.53962111 0.077383816 1644039
1.5937676 0.53368294 0.077075958 789509
1.5960443 0.53381211 0.076597452 1250052
1.5981263 0.53528833 0.076901197 1380870
1.5995286 0.53927958 0.076974273 1578246
1.6020476 0.53935671 0.077078223 1578245
1.5925134 0.53328013 0.074914277 921092
1.5943248 0.53484565 0.074975967 1446662
1.5960008 0.53879887 0.074986279 1577990
1.5982261 0.53897166 0.074752092 1578245
1.5883607 0.53337151 0.073621094 986885
1.5902172 0.53385931 0.073760509 1446663
1.5924067 0.53850633 0.072897196 1577733
1.5936657 0.53888226 0.073725224 1512453
1.5842679 0.53306067 0.071987867 1249797
1.5864313 0.53338951 0.072143078 1117957
1.5879679 0.53756076 0.071384668 1512453
1.5898982 0.53818727 0.07259202 1512198
1.5803962 0.53250372 0.070230365 1184008
1.5824746 0.53320998 0.070652544 921093
1.5841501 0.53665835 0.070434332 1446914
1.5863402 0.53717595 0.070996881 1512452
1.5767626 0.53160822 0.068789124 1381127
1.5783741 0.53249943 0.069373846 1250053
1.580112 0.53524327 0.068794727 1249540
1.5817778 0.53654212 0.070293665 1446916
1.5725198 0.53082216 0.067098379 1578758
1.5745457 0.53211534 0.067793429 1118725
1.5764792 0.53533691 0.067725778 1512196
1.5666156 0.52909148 0.065509081 2104846
1.5687722 0.53048056 0.065799475 1052935
1.5708667 0.53178757 0.066462398 1053189
1.5728933 0.53523785 0.065941751 1512452
1.5746365 0.53499115 0.065870702 1512451
1.5626879 0.52797228 0.064227998 1906958
1.5647655 0.52982742 0.064374506 1578761
1.566426 0.5308072 0.064904511 987142
1.5692929 0.53139281 0.064172924 2499338
1.5703257 0.5351572 0.064536452 1577987
1.5588698 0.52655274 0.062069237 1841679
1.5607133 0.52871388 0.063063979 1118475
1.5625927 0.5304004 0.063450217 986889
1.5645096 0.53483248 0.062734842 1512450
1.5668995 0.53492498 0.063191056 1512706
1.5455835 0.51534432 0.060585022 16774867
1.545604 0.5167886 0.061773896 16775654
1.5531433 0.5246678 0.060298622 11314025
1.5550441 0.52601737 0.062053859 2235926
1.5566764 0.52876246 0.061438501 592136
1.5588324 0.52979022 0.061861396 920841
1.5608256 0.53244752 0.061313391 1841159
1.563168 0.53408813 0.061935246 1577734
1.5419431 0.51378906 0.06023246 16774610
1.5438297 0.515737 0.061231375 16775126
1.5492806 0.52362442 0.059016824 16708820
1.5507622 0.52559227 0.060120761 9537362
1.5528436 0.52793968 0.059811413 1644562
1.5547348 0.52916938 0.060454786 723460
1.5571804 0.53134686 0.059782147 1118208
1.5585376 0.53335321 0.060643792 1315587
1.5362692 0.51276982 0.057169497 16775383
1.5389109 0.51539481 0.058931231 16774873
1.5450857 0.52287304 0.05836463 16643294
1.5469894 0.52462971 0.058591008 14602679
1.5487095 0.52673829 0.05856508 9668453
1.5508093 0.52849036 0.05903697 2827550
1.5533497 0.53169048 0.059311569 789250
1.5554636 0.53202438 0.059005499 855042
1.5315197 0.51116973 0.055830717 16710357
1.5324693 0.51278752 0.057589054 16775635
1.5354414 0.51405787 0.057702184 16775125
1.5392537 0.52114493 0.056641996 16773821
1.5417333 0.52211297 0.056714356 16381152
1.5430614 0.52368098 0.057373106 16314859
1.5450381 0.52639925 0.057346761 14405285
1.5472441 0.5281536 0.057107985 11248234
1.5492551 0.52999514 0.057456255 4603419
1.5503454 0.53194016 0.058947802 788992
1.5281317 0.5106523 0.055709958 16775131
1.529618 0.51116347 0.056623638 16775382
1.5354948 0.52001226 0.055323958 16774327
1.5373447 0.52147448 0.055386662 15985892
1.5392983 0.52284914 0.056122839 15658230
1.5410112 0.52571601 0.055961072 16577243
1.5432721 0.52731538 0.056428194 15260845
1.5452137 0.53000677 0.057339191 4208656
1.5225205 0.51005471 0.054131389 16709330
1.5253452 0.51102906 0.054166615 16774870
1.5313991 0.51877481 0.054130733 16774330
1.5335755 0.52092731 0.054281235 16183779
1.5352476 0.52256036 0.054379344 16052189
1.5377395 0.52459276 0.054427624 16577477
1.5395877 0.52671349 0.055256903 16577229
1.5174997 0.50749511 0.052175462 16642751
1.5195484 0.50869441 0.05286181 16709060
1.5269272 0.51851726 0.05266726 16315089
1.5292039 0.51980519 0.052981317 16249571
1.5313187 0.52190202 0.0529688 16249042
1.5335964 0.52373755 0.053510308 16445364
1.5132632 0.50625199 0.05155915 13814172
1.5157905 0.50658554 0.051606774 14537631
1.523258 0.51748753 0.051811278 16774326
1.5253845 0.51921332 0.051101744 16315880
1.5275468 0.52119774 0.051386058 16577218
1.5291629 0.52319354 0.053137064 16510893
1.5088696 0.50276363 0.050232887 11711109
1.5103726 0.50503397 0.050401509 11578754
1.517751 0.51477325 0.049722314 16378800
1.5205268 0.51626217 0.050436795 16774073
1.5214411 0.51875991 0.05020386 16315631
1.5234641 0.52067542 0.04967165 16642742
1.5040537 0.50320441 0.049469352 12433525
1.505618 0.50317943 0.049582064 12039287
1.5134653 0.51444489 0.048367083 15260314
1.5156486 0.51638746 0.048765004 16248537
1.5178101 0.51789892 0.048348427 16183786
1.5195259 0.5200488 0.048367381 16773814
1.5026653 0.50373328 0.048892796 12693626
1.5018488 0.50613433 0.047268629 11640939
1.5095648 0.51356411 0.046852112 13352301
1.5119042 0.51564443 0.046060681 11842976
1.5136656 0.51728731 0.047093332 15262689
1.5154723 0.51960814 0.046972871 16708019
1.5003211 0.50639004 0.046967566 10257474
1.5054924 0.51254296 0.045123458 9204778
1.5074703 0.51486951 0.045612216 8750701
1.5097783 0.51647592 0.045551598 11316121
1.511672 0.51850921 0.0454669 15195045
1.5008645 0.51236254 0.044564605 1379844
1.5040905 0.51446104 0.043776631 6186312
1.5055677 0.51616734 0.043957651 6249272
1.5077199 0.51786107 0.04435277 10654812
1.499681 0.51415497 0.042840719 5790787
1.5022852 0.51615363 0.042670906 4275479
1.5040544 0.51822978 0.041562557 7493639
1.4974115 0.51386219 0.042600632 5001786
1.498842 0.51632202 0.042279363 3155713
1.4818772 0.58376426 0.0065723658 6710584
1.4841346 0.5865978 0.0070459843 5986622
1.465063 0.56914002 0.0041688681 7627568
1.4674309 0.5719083 0.0054866672 3418651
1.4698119 0.57364714 0.0060682297 1642515
1.4762471 0.58156198 0.0055822134 4408125
1.4782329 0.58299744 0.0067247152 7170119
1.4800729 0.58501017 0.0068113804 7103813
1.4818523 0.58691287 0.0072028637 5920328
1.3834789 0.47838289 0.0037055016 16772497
1.3872364 0.48188007 0.0038838387 16772241
1.3892331 0.48530674 0.0039007664 16772495
1.462491 0.5693686 0.0037125349 8153653
1.464241 0.57150012 0.0046972036 5326370
1.4719124 0.58052891 0.0042835474 1514017
1.4738362 0.5810622 0.0054948926 3422497
1.373147 0.46912381 0.0028175116 16772240
1.3741566 0.47136119 0.0034968853 16772496
1.3765972 0.47282362 0.0034589767 16772496
1.3786309 0.47477019 0.0037323236 16772497
1.3796918 0.47761422 0.0034784079 16773257
1.3818464 0.48084435 0.0040152669 16772754
1.3842173 0.4818418 0.0042795539 16772497
1.3865027 0.48436031 0.0042311549 16772496
1.3870627 0.4867318 0.0037573576 16708749
1.3901849 0.48866022 0.0034133196 16708491
1.3931361 0.48972654 0.0033259392 16772751
1.3935401 0.49333304 0.0030424595 16773014
1.3953722 0.49412885 0.002725482 16773270
1.3975742 0.49777272 0.0025171041 16773028
1.4038653 0.50607425 0.0019548535 16772507
1.4077896 0.5099538 0.001943469 16772501
1.454092 0.56430489 0.0015934706 10719558
1.4562411 0.56721085 0.0022233725 9600310
1.4586188 0.56811619 0.0026415586 9008945
1.4604964 0.57091033 0.0039671659 7102250
1.4685102 0.58064115 0.0031921864 328716
1.469909 0.58172977 0.0049156547 3160375
1.3699571 0.47028098 0.0025160313 16706702
1.3723627 0.47188082 0.0022462606 16709768
1.3738961 0.47441426 0.0028185248 16774531
1.3760548 0.47783312 0.0027642846 16708994
1.377878 0.47955367 0.001799345 16711033
1.3802183 0.4811438 0.0026996732 16644738
1.3824544 0.48369405 0.0026850104 16580481
1.3849418 0.48581836 0.0025290251 16580484
1.3853359 0.48845059 0.0029622316 16646021
1.3875736 0.4902429 0.0030945539 16710263
1.390681 0.4925808 0.0028953552 16774031
1.3905222 0.49572575 0.0026017427 16709016
1.393131 0.49736592 0.0017786026 16708249
1.3959819 0.49782056 0.0022677183 16773282
1.3981946 0.50189304 0.0018607378 16772516
1.4001421 0.50518811 0.002060771 16772246
1.4019017 0.50539064 0.0021713972 16772507
1.4053625 0.51025671 0.0015794635 16772222
1.4082946 0.51399863 0.0014201403 16771201
1.4100913 0.51429987 0.0013932586 16771458
1.4114079 0.51804554 0.001164794 16771465
1.4153178 0.52193654 0.0010851026 16771214
1.4174638 0.52556425 0.0010318756 16771224
1.4199009 0.52512306 0.00162673 16770971
1.4216202 0.52983594 0.00085550547 16771737
1.4252312 0.53463918 0.00029534101 16771474
1.4315739 0.54184961 0.00063693523 15651966
1.4344709 0.545035 0.0011962652 14468210
1.437242 0.54529262 0.001437068 14337135
1.4386425 0.54909742 0.0011646748 13678959
1.4406831 0.55215979 0.0015138388 12757858
1.4426929 0.55392838 0.0016525388 12429402
1.4447712 0.55603111 0.0015771389 12034137
1.4461162 0.55968779 0.0015107393 11508562
1.4492123 0.56051844 0.0012685061 11574099
1.4507012 0.56444728 0.0012181997 10785867
1.4522672 0.56402647 0.0014836192 10720072
1.4539669 0.56815434 0.0021425486 9206322
1.4563966 0.56985199 0.0027804375 8548148
1.4604965 0.57632828 0.00046122074 8481300
1.4615351 0.57643425 0.0015089512 7560214
1.4641757 0.58042759 0.0014151335 853768
1.4662898 0.5802834 0.0017360449 460038
1.3645687 0.46811095 0.0013779402 9597496
1.3662481 0.46974418 0.0013668537 15258742
1.3687387 0.47244126 0.0016475916 16580490
1.3698902 0.47460631 0.00056624413 16709506
1.372035 0.47645721 0.00081896782 16709249
1.3740772 0.47826546 0.0011588335 16774785
1.3756459 0.48060349 0.00052046776 16708485
1.3781369 0.48274872 0.00059890747 16708487
1.3804848 0.48514625 0.00038313866 16773000
1.3818057 0.48807001 0.00011360645 16772747
1.3839025 0.49028379 0.00021761656 16772750
1.3864174 0.49204373 4.9591064e-05 16773009
1.3875207 0.4948844 0.00098145008 16773785
1.3894999 0.49637488 -0.00081008673 16773528
1.3909638 0.49936113 0.0018032789 16710288
1.3938906 0.50089538 0.0012749434 16708761
1.3949261 0.50505233 0.0015756488 16771463
1.3977928 0.50548017 0.00063639879 16707473
1.3993008 0.50886321 0.00039923191 16772737
1.4018476 0.51025999 0.00077956915 16707192
1.4030793 0.51373076 0.00098586082 16770698
1.4059114 0.51432484 0.00052666664 16770921
1.4081914 0.51798952 0.00030565262 16770683
1.40927 0.52146196 0.00071448088 16771221
1.411545 0.52169907 0.00018817186 16770943
1.4131291 0.52526569 0.00070381165 16771474
1.4147865 0.52529359 0.00095248222 16771218
1.4175453 0.53003871 0.00044822693 16771480
1.4189272 0.53034097 -2.9563904e-05 16770179
1.4209957 0.53375101 0.00014060736 16770949
1.4234049 0.5346247 8.3625317e-05 16771471
1.4245863 0.53752208 0.000179708 16573055
1.4267037 0.53996634 0.00020217896 16243829
1.4284682 0.54236656 0.00070464611 15257206
1.4307978 0.54443419 0.0011568069 14467949
1.4322549 0.54812729 0.0011832118 13547623
1.4348862 0.54823947 0.0012454987 13481578
1.4370539 0.55195177 0.00049471855 13217619
1.4397509 0.55525827 0.00032305717 12954948
1.442458 0.55887765 0.0016160011 11640148
1.4444209 0.5596931 0.0013485551 11508565
1.4464602 0.56320131 -9.2864037e-05 11771198
1.4486071 0.56361204 0.0014362335 10720072
1.4501634 0.56715512 0.0015633106 9667640
1.4555438 0.57226253 -0.0011758804 10520341
1.4572132 0.57459354 -0.00036066771 9797660
1.4584161 0.57653582 0.00063174963 8415762
1.4598132 0.58014005 -0.00025892258 2300934
1.4618703 0.5803535 0.00012147427 1708803
1.3623407 0.46903256 -0.00054752827 10125121
1.3644217 0.47108743 -0.00058031082 14469484
1.3662145 0.47327119 -0.000649333 15851397
1.3686013 0.47549421 -0.00041687489 16773003
1.3700807 0.47806695 -0.000441432 16773002
1.3722117 0.48051262 -0.00056779385 16773003
1.3740394 0.48271704 -0.00015032291 16772489
1.3761799 0.48488328 -0.00043284893 16772749
1.3783027 0.48718372 -0.00047385693 16773006
1.3799615 0.48944002 -0.00035977364 16773011
1.3819309 0.49180561 -0.00067609549 16642199
1.3839161 0.49424556 -0.00050860643 16707218
1.3860731 0.49553719 -0.0011716485 16772248
1.3875208 0.4982895 -0.0015205145 16772258
1.3896854 0.5006901 -0.0018076897 16772513
1.3909855 0.50299823 -0.002127409 16772246
1.3945333 0.50510907 -0.0002361536 16710274
1.3958011 0.50823963 -0.00019192696 16770647
1.3972836 0.50902689 -0.00065785646 16771447
1.3990262 0.5114665 -0.00031495094 16771667
1.4013501 0.51460725 -0.00079751015 16770409
1.4037652 0.51615584 -0.00098764896 16770175
1.4055629 0.51784474 -0.00061011314 16769656
1.4078023 0.52161366 -0.00044560432 16769905
1.4096801 0.52405512 -0.0016056299 16770436
1.4115613 0.52538592 -0.00081151724 16770439
1.4127159 0.52850604 -0.0010091066 16769909
1.4151969 0.53026646 -0.00070059299 16770178
1.4171327 0.53401542 -4.3928623e-05 16770429
1.419337 0.53435636 -0.00066006184 16769645
1.4217577 0.53761983 -0.00031894445 16638573
1.4237353 0.54011846 -0.0025752187 15717013
1.4246335 0.54212451 -0.0016435385 16308831
1.4271013 0.54513735 -0.0025732517 14072176
1.4286942 0.54619282 -0.0018219948 15321952
1.430227 0.54759198 -0.0027322769 13414018
1.4325912 0.55057293 -0.002499938 15256125
1.4349966 0.55366343 -0.00090420246 13941039
1.4367201 0.55461544 -0.0015017986 12427315
1.4378067 0.55849171 -0.0018805265 11900724
1.44102 0.55922949 -0.0012845397 13019936
1.4431417 0.56304812 -0.0019227266 11638836
1.4447018 0.56581616 -0.0020359755 10323248
1.447288 0.56682515 -0.0018750429 10652199
1.4486016 0.56892288 -0.0022815466 9863461
1.450561 0.57046819 -0.0024260283 9468706
1.4527543 0.57294393 -0.0014383793 10323220
1.4531388 0.57565254 -0.00080740452 9666330
1.4561412 0.57794201 -0.0017578602 6245644
1.4581034 0.57939339 -0.0010929108 4338955
1.3578188 0.46868178 -0.0010873079 14403983
1.3600795 0.47036651 -0.00092291832 13878399
1.362674 0.47307792 -0.0012769103 15127927
1.3646967 0.47501391 -0.0017712116 16641659
1.3663554 0.47730568 -0.002240777 16773254
1.3682692 0.47958764 -0.0021791458 16774533
1.3704164 0.48151493 -0.002030015 16773515
1.3719878 0.48449036 -0.0019327402 16708490
1.3741457 0.48646942 -0.0017129779 16708237
1.3765123 0.48859146 -0.0020451546 16643981
1.3786715 0.49135366 -0.0017488003 16644241
1.3796325 0.49294415 -0.00093865395 16579224
1.382061 0.49560332 -0.0010173321 16118163
1.384881 0.49801183 -0.0012918115 16641422
1.3856456 0.50048995 -0.0017724037 16508806
1.3878262 0.50252014 -0.0024642944 16706444
1.3892112 0.50386155 -0.0024222136 16771718
1.3916439 0.50672352 -0.0029700398 16705669
1.3943632 0.50899482 -0.0022932887 16639082
1.3965161 0.51157027 -0.0013903379 16770147
1.3984613 0.51361763 -0.0031791329 16770909
1.3998792 0.51619458 -0.0015271902 16638067
1.4028448 0.51885438 -0.001545608 16769390
1.4028621 0.52206659 -0.0019617677 16770464
1.4055011 0.52214098 -0.0023903251 16769424
1.4068198 0.52481842 -0.0019496083 16769954
1.4099109 0.5276143 -0.001715064 16769672
1.411447 0.53063118 -0.0032448769 16769189
1.4141738 0.53224522 -0.0030236244 16770211
1.4158579 0.53453493 -0.0029377937 16703119
1.4180189 0.53698289 -0.00316751 16768391
1.4194584 0.53878677 -0.0023080111 16638078
1.4213955 0.54166764 -0.002656877 15849074
1.423027 0.54327142 -0.0031690001 15716483
1.4251779 0.54578435 -0.0021176338 14467156
1.4266768 0.54761755 -0.0020335913 13348212
1.4291145 0.550583 -0.0023530722 13348171
1.430886 0.55261195 -0.0023679733 12690504
1.43293 0.55407655 -0.0021651983 12823097
1.4350657 0.5566203 -0.0027029514 10847279
1.4353337 0.55863219 -0.0026646852 10387516
1.4382231 0.56220841 -0.0033186674 9598262
1.4402473 0.56393296 -0.0023050904 9666101
1.4424886 0.56639981 -0.0020676851 8745515
1.4442492 0.56844318 -0.0024900436 7759147
1.446596 0.57074034 -0.0022224188 8548124
1.4486492 0.57387418 -0.0020223856 8811029
1.4506119 0.57481623 -0.0028781891 6311705
1.4526647 0.57775396 -0.0029913187 6639633
1.4546797 0.57952881 -0.0016821027 3944715
1.3567208 0.46952525 -0.0047801733 2300416
1.3586142 0.4719637 -0.003590703 4073993
1.3602979 0.47437239 -0.0037531257 11113541
1.3621292 0.47713837 -0.0032367706 16182404
1.3649819 0.47978806 -0.0023465157 16774276
1.3666993 0.48128068 -0.0021330118 16773765
1.3684676 0.48325613 -0.0020439625 16709257
1.3702146 0.48610538 -0.0021455288 16643725
1.3737514 0.48972264 -0.0023406148 16514957
1.386198 0.50526476 -0.0024810433 15915378
1.38818 0.50700271 -0.0034025908 16574307
1.3897815 0.50867975 -0.0035609007 16706149
1.3921366 0.51099658 -0.0035111904 16178023
1.3938756 0.51355708 -0.0034766197 16769635
1.3952534 0.51530212 -0.0039799213 16045931
1.3975691 0.51822233 -0.0041501522 16046181
1.3995154 0.51961005 -0.0047023296 16177507
1.4016318 0.52253795 -0.0047021508 16045936
1.4037296 0.52456927 -0.0043253899 15716991
1.405551 0.52694994 -0.0046598911 16309377
1.406968 0.52889007 -0.0041996241 16375439
1.4092643 0.53130943 -0.004455924 16309383
1.4116268 0.53381616 -0.0043429136 16440719
1.4131448 0.53601563 -0.0047111511 16440452
1.4152853 0.53776443 -0.0040222406 16374657
1.4176595 0.54049909 -0.004303813 16177275
1.4191334 0.54284835 -0.0040087104 14205033
1.4214065 0.54531634 -0.0040045977 14467433
1.4229243 0.54716539 -0.0040436983 15585127
1.4250307 0.54929698 -0.0043395758 13546587
1.4273599 0.55183864 -0.0049174428 13481049
1.4288117 0.55437845 -0.0041809082 13546329
1.4306979 0.55649185 -0.0043247938 11178559
1.4319489 0.55769527 -0.0050512552 13546832
1.4344015 0.56065309 -0.00484097 12296509
1.436528 0.56359017 -0.0043658018 10717492
1.4382694 0.56583399 -0.0062320828 11836215
1.4418006 0.56953043 -0.0055348277 10653477
1.4444097 0.57124913 -0.0049426556 10258724
1.4465008 0.57453477 -0.0043102503 8547611
1.4483125 0.57700467 -0.0037754774 7822872
1.4505858 0.57900393 -0.0040730238 8547080
1.4528644 0.58046454 -0.0050289631 9666061
1.454242 0.58317488 -0.0046021938 8811022
1.3534029 0.47000507 -0.0046750307 2366721
1.3545122 0.47168905 -0.004645586 2823169
1.3565581 0.47500986 -0.0044125915 12228170
1.3584592 0.47687662 -0.0037229657 16643750
1.3878834 0.5106144 -0.0040896535 15717196
1.3899486 0.51160717 -0.0042264462 15980638
1.391832 0.51522076 -0.0049936771 15716954
1.3935153 0.51714933 -0.0050317049 16768868
1.3954637 0.51956201 -0.0051015615 15584866
1.3977108 0.5219568 -0.0049726963 15585133
1.3993258 0.52437752 -0.0047359467 15453816
1.4015999 0.52613252 -0.0047661066 15914621
1.403039 0.52834809 -0.005012989 16440703
1.4052958 0.53070605 -0.0050971508 16112258
1.4072603 0.53370804 -0.0050739646 16243583
1.409622 0.53499877 -0.0048683882 16178052
1.4111364 0.5375188 -0.0050990582 16111742
1.4132566 0.54000199 -0.00530231 16769904
1.41501 0.54229224 -0.0053598881 14795629
1.4166846 0.54430902 -0.0052313209 14730079
1.4190102 0.5467698 -0.0054135323 14204240
1.4209461 0.54879779 -0.0049942136 12889161
1.4224885 0.55121994 -0.0054141879 14270536
1.4249594 0.5534575 -0.0055052638 13414987
1.4265563 0.55597681 -0.0053142309 12625727
1.4286546 0.55867851 -0.0053604841 13743936
1.4312938 0.56096089 -0.0051737428 13151541
1.4327228 0.56322736 -0.0051611662 12296769
1.4339956 0.56539357 -0.0055540204 12230699
1.4365439 0.56764948 -0.0059748888 11967787
1.4389776 0.56898439 -0.0061790943 11376170
1.4406452 0.57141972 -0.0056533217 10849822
1.4427446 0.57425809 -0.0055220127 10389017
1.4448004 0.57664585 -0.0053987503 9665815
1.4465163 0.57826316 -0.0061393976 10192656
1.4487813 0.58040971 -0.0055143237 9731854
1.4512372 0.58371538 -0.0044416785 8481809
1.3504944 0.47105116 -0.0050714016 2762240
1.3891098 0.51539135 -0.0057361126 16769109
1.3919771 0.51892954 -0.005440712 15190371
1.3926021 0.52141964 -0.0060665607 16768621
1.3955798 0.52341324 -0.0056505203 16768871
1.3976483 0.52559626 -0.005125165 16768877
1.3996673 0.52834272 -0.005300045 16768885
1.4021242 0.53163242 -0.0058397055 16769395
1.4031218 0.53249335 -0.0053887367 15191184
1.4043694 0.53405571 -0.0056763291 16769907
1.4080051 0.53761113 -0.0058045387 16177272
1.4086909 0.5410164 -0.0063505173 16769381
1.411103 0.54189169 -0.0059443712 15716715
1.4135364 0.54324597 -0.0064257383 16769632
1.4148211 0.54577136 -0.0060839653 16769361
1.4171393 0.54865587 -0.0062972307 16506182
1.4192429 0.55133373 -0.0060620308 15980099
1.4214882 0.55375683 -0.0058987141 15256651
1.4240043 0.55634111 -0.0059103966 14598195
1.4263046 0.55898237 -0.0055755377 14072116
1.4286766 0.56234878 -0.0057190657 13217574
1.4351087 0.56855905 -0.0054171681 11112761
1.437207 0.57143188 -0.0059529543 11047454
1.4399884 0.57438016 -0.0061045885 11243796
1.4422958 0.57753909 -0.0061964989 10389267
1.4447668 0.57977092 -0.0057458878 9798158
1.673079 0.53573668 0.11383861 12168823
1.6734743 0.53724474 0.11401004 11180667
1.6699632 0.53465915 0.11173886 11642232
1.6719141 0.53714639 0.11166272 10720887
1.6730729 0.53770685 0.112463 12035934
1.6663032 0.53506631 0.11021966 12959135
1.6677459 0.53482521 0.11134532 12498068
1.6694849 0.5377785 0.11053121 11840658
1.6717921 0.54156393 0.11098337 10918769
1.6736569 0.54140931 0.1107564 11640924
1.6637845 0.5354085 0.10922259 13156258
1.6659191 0.53808576 0.1087198 12695442
1.6675241 0.53991139 0.10877585 12301203
1.6699553 0.54095531 0.10972321 12037762
1.6598339 0.53664798 0.10771984 13420202
1.6614394 0.53579813 0.10805154 13419684
1.6637998 0.53932756 0.10730851 12695708
1.6654892 0.54084378 0.10791713 12366735
1.6588664 0.53676391 0.1063289 12631201
1.6595007 0.53994507 0.10526836 11972488
1.6615658 0.5406009 0.10613281 12827029
1.6639683 0.54172015 0.10647506 12498053
1.656162 0.53836554 0.10422778 5527883
1.6584778 0.54094726 0.10429353 9471081
1.6603094 0.54258174 0.10430008 11774326
1.6543019 0.53931999 0.10341734 855817
1.6564498 0.54215497 0.10343808 3549721
1.6578423 0.54412043 0.10314548 6970425
1.6522937 0.54131323 0.10137266 1446920
1.6539636 0.54353011 0.1018272 1314820
1.6558108 0.54499912 0.10201013 2168580
1.6489456 0.5413543 0.10001433 1577992
1.649832 0.54328638 0.10019839 1578247
1.6523602 0.54500455 0.1003316 2038535
1.6443172 0.5409295 0.097988009 1643785
1.6460099 0.54222083 0.098672867 1381126
1.6480353 0.54472786 0.098554134 1775624
1.6499398 0.54599291 0.098666728 2235911
1.6408772 0.54027486 0.0971843 1315079
1.6417966 0.5417046 0.097228587 1446663
1.6442871 0.54535568 0.096102357 1842182
1.6466081 0.54563385 0.097122073 1973254
1.6366193 0.54006815 0.094965816 1577735
1.6384177 0.54113626 0.095649183 1249542
1.640004 0.54454738 0.095385551 1776133
1.6426058 0.54535341 0.096411586 1841925
1.6331429 0.53948879 0.094194412 1314569
1.6344571 0.54060858 0.094221234 1315078
1.6361661 0.54376739 0.093984365 1775620
1.6376154 0.54415786 0.095043898 1776132
1.6294954 0.53871047 0.091632545 1315080
1.6302493 0.54003382 0.092695951 1315333
1.6320345 0.54226935 0.092181802 1381123
1.6337504 0.54376626 0.092701316 1775618
1.6245716 0.53823125 0.090712667 1314823
1.6265397 0.53958398 0.091354132 1380869
1.6285684 0.54125965 0.090982556 1184005
1.6307287 0.54318601 0.091299653 1709828
1.6206017 0.53815687 0.08912766 1380362
1.6227024 0.5390231 0.089710116 1381125
1.624681 0.54085326 0.089715183 1118212
1.6267114 0.54316527 0.089952946 1709828
1.6167386 0.53724527 0.08779496 1446156
1.6185937 0.53853697 0.087976992 1315334
1.6206331 0.5393188 0.089389086 789764
1.6223178 0.54251188 0.088608086 1709829
1.6127424 0.53683394 0.085402906 2038535
1.6148255 0.53785396 0.086689472 1380871
1.6168721 0.53870595 0.087061167 855301
1.6186463 0.54179221 0.086591363 1709574
1.608928 0.53641754 0.085057676 2038792
1.6108586 0.5373494 0.085410774 1249286
1.6127174 0.53857112 0.085534632 1249286
1.6149635 0.54132146 0.085514903 1709830
1.6049092 0.53589201 0.082468331 2235656
1.6065997 0.53670251 0.083448529 1315335
1.6085442 0.5374012 0.08443588 1052422
1.6103966 0.54077584 0.083272755 1775365
1.6010535 0.53537005 0.08116281 1578250
1.6026853 0.53615302 0.082208991 1381127
1.6044197 0.53701597 0.082440376 1315336
1.6069546 0.54042792 0.082167327 1775365
1.5968236 0.53477645 0.080068588 1249796
1.5989659 0.53566533 0.080621898 1381126
1.6008292 0.53714621 0.081250548 1709064
1.6027515 0.54010415 0.080692172 1644036
1.6052433 0.54047018 0.080972075 1775367
1.5927809 0.53415257 0.078894258 1447172
1.594961 0.53480232 0.079102993 1315333
1.5970697 0.53614545 0.079881608 1643781
1.5992886 0.53959632 0.079369128 1643782
1.5911731 0.53425735 0.077633381 1315590
1.5930539 0.53588659 0.077884972 1643530
1.5956304 0.53960216 0.077465177 1577991
1.5972699 0.53945291 0.07823658 1578247
1.5849657 0.53333002 0.076268554 2235910
1.5873075 0.53395021 0.075817108 1118470
1.5891089 0.53482354 0.076324224 1184006
1.5906491 0.53947401 0.075884342 1577989
1.5935328 0.5396387 0.07653749 1512711
1.5830891 0.53339827 0.074422777 1052676
1.5851848 0.53428316 0.075453043 855557
1.5874978 0.53864628 0.073711872 1512456
1.5887299 0.53937942 0.075007737 1446665
1.5795996 0.53328085 0.073039651 986885
1.5811633 0.5335626 0.073578715 1577991
1.5830703 0.53822488 0.072870195 1512197
1.5853134 0.53845745 0.073642254 1446405
1.575254 0.53268021 0.071501613 1052680
1.5776451 0.53317583 0.072167873 1184004
1.5795276 0.53690517 0.071457982 1381125
1.5813589 0.53771472 0.072551787 1446661
1.5715132 0.53213668 0.069777012 1446919
1.5734849 0.53269696 0.070316136 1118469
1.5757658 0.53634751 0.07025516 1381123
1.5769999 0.53670156 0.071157813 1315587
1.5648552 0.53050953 0.069401443 2169872
1.5676929 0.53136915 0.068362594 1184264
1.5696328 0.5322789 0.069454074 1118726
1.5713102 0.53596562 0.068730891 1381123
1.5734547 0.53597391 0.069314957 1381124
1.5610042 0.52906007 0.068049252 2301200
1.5635208 0.5304485 0.067123652 1447178
1.5655093 0.53175074 0.067660391 1184264
1.5677164 0.53558922 0.067078769 1446658
1.5698423 0.53556597 0.067319989 1512451
1.5573156 0.5289166 0.066150904 2367505
1.5597311 0.53007001 0.066066325 1249802
1.5618796 0.53111655 0.066035151 1315590
1.5630505 0.53506261 0.066000283 1446660
1.5653634 0.53553271 0.065651655 1446658
1.5453665 0.51820034 0.063961625 12566433
1.5535378 0.52792048 0.063615859 1446921
1.5559329 0.52938461 0.064270437 1118474
1.55759 0.53046286 0.064404845 1249802
1.5594335 0.53472197 0.063688397 1446660
1.5607679 0.53494614 0.064646125 1446661
1.5424206 0.51641643 0.063074231 16775909
1.5435815 0.51829129 0.064710259 10000784
1.5497065 0.52724493 0.062206447 1709835
1.5517895 0.52895516 0.062881112 986889
1.5536866 0.52994859 0.062878966 1250055
1.5553641 0.53385448 0.062210441 1512197
1.5577258 0.53440475 0.063181996 1446660
1.5380117 0.51682836 0.061851382 16710892
1.54563 0.52592468 0.06099546 6576952
1.5480325 0.52819133 0.061242461 723462
1.5499737 0.52980787 0.061544597 986884
1.5514176 0.53275335 0.06110692 1184002
1.5533576 0.53339791 0.061608136 1577990
1.5316637 0.51393825 0.059533 16710615
1.534614 0.51573944 0.060367525 16710629
1.5395091 0.52331811 0.058636308 16708817
1.5418627 0.52520102 0.058950186 13746838
1.5438702 0.52713323 0.059854388 4603951
1.5454167 0.52899247 0.060179234 986376
1.5476511 0.53160328 0.059580266 920577
1.5268486 0.511774 0.057649732 16775900
1.5286827 0.51254362 0.059425235 16775637
1.5362777 0.52186805 0.05776614 16774089
1.5381193 0.52452737 0.058153152 15590362
1.5403163 0.52671736 0.05918628 8550232
1.541847 0.52890921 0.058202028 5787697
1.5437776 0.53102136 0.058463395 1182980
1.5243793 0.51174057 0.057396591 16775899
1.5297325 0.52036178 0.056495786 16773813
1.5322344 0.52166462 0.056345344 16248785
1.5338056 0.52383 0.05697006 16051700
1.5362096 0.52523136 0.05701077 16445662
1.5381142 0.52812207 0.057283163 12431985
1.540345 0.52970958 0.057413995 7432000
1.5204134 0.51121992 0.055506766 16709585
1.5258037 0.51950657 0.055112898 16774589
1.5277745 0.52086592 0.055300772 15592173
1.5303218 0.52295113 0.055385828 15855338
1.5319494 0.52541679 0.055454791 16643285
1.5342019 0.52723098 0.056123495 16182205
1.5364932 0.5283922 0.056010842 15260843
1.5146689 0.50910765 0.053638339 16774593
1.5169301 0.51073611 0.054884553 16709582
1.5221882 0.51917303 0.053752899 16249567
1.5244509 0.52024978 0.05385989 16250095
1.5261273 0.52268225 0.053770423 16708802
1.52852 0.52442211 0.054894686 16643280
1.5080884 0.50599825 0.051618814 13025932
1.5107622 0.50762504 0.053035855 16314054
1.5126245 0.51025403 0.054080725 16774360
1.5162561 0.51673758 0.051786065 16773814
1.5185456 0.5176782 0.052624524 16511690
1.5201797 0.51950347 0.052502573 16249839
1.5218923 0.52224827 0.05218327 16774067
1.5242591 0.52285922 0.053066492 16708274
1.5048627 0.50519866 0.051484406 12237191
1.5122614 0.5159384 0.050352931 16773565
1.5141907 0.5173189 0.051010132 16182998
1.5165985 0.51893133 0.051083386 16249577
1.5186222 0.52168423 0.050859869 16773548
1.5200018 0.52261758 0.051854134 16774065
1.5019175 0.50524455 0.050068319 11775620
1.5026686 0.50665498 0.051357269 12500617
1.5083337 0.5148192 0.049071908 16378791
1.5104451 0.51636887 0.049280941 16051154
1.5123439 0.51847059 0.049509346 16381161
1.5141761 0.52045053 0.04959929 16773814
1.5163845 0.52129245 0.050035655 16773553
1.4990363 0.50662559 0.048051953 9338450
1.5049746 0.51426619 0.047797859 12761483
1.5070601 0.51555037 0.047773898 15394254
1.5084406 0.51755434 0.048184097 16052719
1.5106651 0.51975185 0.048142374 16774073
1.4968404 0.50828224 0.046806514 5524534
1.5009949 0.51308495 0.046356201 7165734
1.5024478 0.51460397 0.046687186 9342581
1.5048337 0.5174219 0.046823919 15065038
1.5071206 0.5192486 0.046881676 16642492
1.4929585 0.50874251 0.044707775 987654
1.4954863 0.50894409 0.044806361 1249794
1.4972234 0.51279587 0.045240641 1247489
1.4985979 0.51466745 0.045043766 5264696
1.5004699 0.51679438 0.045055449 9671282
1.502763 0.51831007 0.045222878 13088905
1.4935262 0.51246464 0.043641806 3879683
1.4951138 0.5139522 0.044039786 4342822
1.4968159 0.51632935 0.043648839 4538388
1.4983838 0.51791769 0.043866634 8812353
1.4897326 0.51163173 0.043002963 8746005
1.4916036 0.51213068 0.042701364 7825938
1.4931929 0.51554847 0.043093383 6248210
1.4953296 0.51754546 0.042939425 7166484
1.4894927 0.5168342 0.041363895 7361792
1.4751121 0.58241963 0.007032752 7301717
1.4762461 0.58408946 0.0078107119 6512964
1.4641749 0.5724287 0.0062199235 1907472
1.4725201 0.58385515 0.0068559647 6118956
1.4739921 0.58536589 0.0076109171 5592635
1.4580898 0.57197529 0.0047265291 5852446
1.4608616 0.57302737 0.0053563118 3616268
1.466861 0.58184886 0.0053924918 3421490
1.4691638 0.58273 0.005748868 5330483
1.4706366 0.58402622 0.0071261525 6644279
1.3708385 0.47381774 0.0034213066 16772495
1.374429 0.47693262 0.0037894249 16772496
1.3774892 0.48030367 0.0039438605 16772492
1.3791451 0.48251414 0.0047416687 16772748
1.3811266 0.48430553 0.004743576 16772493
1.3829548 0.48715135 0.0046979189 16772749
1.3851566 0.48954451 0.0047188997 16772751
1.3871411 0.49172661 0.0044565201 16772495
1.3882797 0.49456567 0.0037469864 16772508
1.4527743 0.56940436 0.0026464462 8614183
1.4555681 0.57162893 0.0037610531 7561509
1.4567424 0.57366002 0.0045913458 5325861
1.4630293 0.58103245 0.0029962063 656648
1.4646022 0.58228683 0.0043946505 1578789
1.3663151 0.47091013 0.0029141307 16706432
1.3673458 0.47365367 0.0032349825 16772237
1.3692265 0.47500637 0.0034769177 16772236
1.3719702 0.47699979 0.0035021305 16772747
1.3732023 0.47976574 0.0035840273 16707975
1.3739476 0.48242763 0.0041877031 16772493
1.3765596 0.48419994 0.003690958 16643721
1.3788917 0.48611766 0.003623724 16579210
1.3810911 0.4887796 0.0039645433 16579215
1.3835385 0.49112228 0.0035241246 16579714
1.3840477 0.49293533 0.0044182539 16643719
1.3866706 0.49509454 0.0040572286 16772736
1.3882767 0.49777293 0.0032853484 16772463
1.3898642 0.49999234 0.0034524202 16771206
1.4303302 0.54714668 0.0014151335 13876322
1.4341809 0.55069673 0.0017294884 12494428
1.4374163 0.55464172 0.0017977953 12100191
1.4406247 0.55834574 0.0018311739 11640401
1.445013 0.5631417 0.0014388561 10785093
1.447001 0.56644654 0.001729846 9733176
1.4491136 0.56912184 0.0025480986 8746792
1.4512725 0.57102525 0.0026421547 8219946
1.4530237 0.57196641 0.0033904314 7693348
1.4549139 0.57417327 0.004175961 5917986
1.4562917 0.57798004 0.00204283 7693583
1.4586246 0.58152759 0.0035471916 394248
1.4608718 0.58169734 0.0027033091 460041
1.3612163 0.47073939 0.002435565 15981450
1.3633146 0.47254375 0.002830267 16640666
1.3654613 0.47415692 0.0022441149 16709252
1.3673348 0.47664616 0.0025439262 16644482
1.3690944 0.47913411 0.002586484 16579202
1.3713751 0.48105958 0.0021469593 16580480
1.3725178 0.48357594 0.0025652647 16514957
1.3743175 0.4855817 0.0017504692 16643979
1.3766215 0.48782149 0.0017977357 16642957
1.3787909 0.49072903 0.00094234943 16772751
1.3811879 0.49324974 0.00081640482 16773273
1.3824275 0.49498877 0.0010355711 16707462
1.3843248 0.49727488 0.00040626526 16640618
1.3872969 0.50015783 0.0037161708 16639842
1.3893865 0.5020408 0.002284646 16771434
1.3908961 0.50429869 0.0017669797 16705890
1.392525 0.50573611 0.0020017624 16771208
1.394614 0.50861514 0.0012860894 16770958
1.3986754 0.51316381 0.00084644556 16770963
1.4017875 0.51747441 0.00048935413 16770969
1.4038502 0.520845 0.00055640936 16770964
1.4057124 0.52122223 0.00052887201 16770965
1.4083043 0.52558476 0.0002143383 16770960
1.412293 0.52967209 0.0001513958 16771217
1.4141794 0.53267068 0.000631392 16771216
1.4159366 0.53432709 0.0008764267 16705419
1.4176958 0.53558803 0.0012743473 16573833
1.4199449 0.53826594 0.00082117319 16113026
1.4226018 0.53980947 0.0011546612 15454844
1.4239141 0.54342818 0.0010887384 14533997
1.4259887 0.54533827 0.0012011528 14138471
1.4283359 0.54701364 0.0012913942 13876066
1.4295928 0.55041832 0.0014569163 12692057
1.4318697 0.55215514 0.0016084909 12297052
1.4337246 0.55399138 0.0018270016 11968097
1.4354088 0.55820978 0.0013459921 11376982
1.4379091 0.55824029 0.0017873645 11640148
1.4384224 0.5614922 0.0018610358 10654017
1.4421825 0.56254315 0.0015921593 10719552
1.4424428 0.56581545 0.0017212629 9930556
1.4453835 0.56777227 0.0018461943 9272630
1.4472222 0.56903148 0.0023370981 8746540
1.4494734 0.57211202 0.002828896 7891743
1.4533217 0.57741833 0.00032883883 8481293
1.4537072 0.57887864 0.0015550852 7889685
1.4568949 0.58119607 0.00086283684 1379846
1.3573281 0.46894702 0.00047022104 3284743
1.3595049 0.47170869 0.00045073032 14928765
1.3612902 0.47347692 0.0001796484 15721600
1.3632264 0.47627473 0.00068891048 16643468
1.3651903 0.47807452 0.00044488907 16707979
1.3672199 0.48061499 -9.3519688e-05 16772741
1.3694007 0.48280403 0.00013166666 16772745
1.3708466 0.48492527 0.00028824806 16772740
1.3727689 0.48771858 0.00045216084 16772741
1.3751606 0.48995036 0.00044876337 16772752
1.3765833 0.49225381 0.00084495544 16772757
1.3790808 0.49420169 0.00055938959 16707997
1.3809023 0.49665833 0.00056868792 16314279
1.3827685 0.49891785 9.9897385e-05 15655550
1.391917 0.50762868 0.00043225288 16770114
1.3931223 0.51101601 0.0010445118 16770426
1.395117 0.51212943 0.00027179718 16770169
1.396471 0.51584184 -4.3153763e-05 16769914
1.3991914 0.51687253 0.00063037872 16770709
1.4000182 0.51929504 -0.00040197372 16769914
1.4022644 0.52153957 -0.00043952465 16769913
1.4037608 0.52481031 0.00032502413 16770705
1.4060153 0.52543652 -0.00043654442 16770176
1.4077953 0.52883255 -0.00013625622 16770444
1.4100137 0.53130215 0.00018060207 16770698
1.4123603 0.53313231 0.00027853251 16704899
1.4137222 0.53494877 5.877018e-05 16704630
1.4165256 0.53843129 0.00030910969 16178280
1.4181279 0.53917146 0.0011276007 15652479
1.4197569 0.54231143 0.00011134148 15585889
1.4221172 0.54312682 0.0011155605 14533996
1.4239674 0.54607683 9.5069408e-05 14598993
1.4264345 0.55008471 -0.00025320053 13612868
1.4284518 0.55230057 -0.00091898441 14006826
1.4308813 0.55535734 -0.00068736076 13414962
1.4336607 0.55858147 0.00026845932 11771192
1.4356205 0.55919242 -0.0010203123 12625442
1.4371121 0.56252754 -0.00084155798 12296489
1.4409149 0.56637704 -0.0011255741 11703830
1.4433219 0.57023811 -0.0015592575 11112734
1.4458153 0.57363462 -0.0014302731 9732368
1.4488376 0.57671607 -0.00048732758 9138963
1.4503642 0.57791531 0.00017976761 8480779
1.4528377 0.58126891 -0.00046980381 2695687
1.4547377 0.58180821 0.0005902648 1576966
1.3533173 0.46943584 -9.9897385e-05 6904124
1.3552924 0.4710961 -0.0010524988 10521694
1.3571905 0.47347581 -0.00052535534 14402929
1.359256 0.47544888 -0.00031286478 16312966
1.3610618 0.47773239 -0.00014275312 16772992
1.363307 0.47992498 -0.00066184998 16773254
1.3651967 0.48227927 -0.00060760975 16773255
1.3670696 0.48483419 -0.00061368942 16707723
1.3691365 0.48748279 -0.0009855032 16707726
1.3711355 0.48923585 -0.0011154413 16707729
1.3729892 0.49127004 -0.00097322464 16643222
1.374756 0.49370119 -0.00072461367 16644253
1.3765638 0.49616098 -0.00017607212 16645030
1.3790331 0.4973374 4.3153763e-05 16580528
1.3813142 0.50006115 0.00039583445 15328680
1.3833601 0.50245154 -0.00011253357 15325549
1.3845482 0.50501025 -0.0015987158 14995047
1.3851658 0.50747883 -0.0016412735 16442204
1.3926873 0.5148747 -4.8041344e-05 16769374
1.3948016 0.51542556 -0.00061053038 16769378
1.3961232 0.51909995 -0.0009251833 16769643
1.3990998 0.52129549 -0.00018239021 16769922
1.4011176 0.52424771 0.00037252903 16770196
1.4027646 0.52565438 -0.0010110736 16769645
1.4044554 0.52836329 -0.00010037422 16770181
1.4061419 0.53020513 -0.00065100193 16769652
1.4081726 0.53149503 -0.00037735701 16769648
1.4096057 0.53533781 -0.00065016747 16769381
1.4137235 0.53871298 -0.0015784502 16637293
1.415998 0.54166889 -0.0016549826 15585636
1.418092 0.54497111 -0.0025019646 13810548
1.4204935 0.54644299 -0.0022522807 14270044
1.4223249 0.54951346 -0.001978159 13414736
1.4240823 0.55086142 -0.0018457174 12690239
1.4260031 0.55275053 -0.0016379356 12756287
1.4279053 0.5549227 -0.0011229515 12691002
1.4291184 0.55790728 -0.0028965473 10255684
1.4315259 0.55962634 -0.0020067692 10782509
1.4340628 0.56276578 -0.0018564463 10520356
1.4357693 0.56537771 -0.0028674603 8285500
1.4379818 0.56671655 -0.001781702 9469211
1.4392933 0.5690527 -0.0015870333 8219672
1.4416902 0.5716083 -0.0015240908 8021521
1.4431844 0.57351923 -0.0018149614 6377491
1.4453001 0.57561529 -0.0015285611 6705943
1.4468541 0.57814175 -0.0021761656 5455117
1.4495304 0.57975787 -0.001680851 4273939
1.3499686 0.46841761 -0.0012831688 3219210
1.3514619 0.47078353 -0.0011941195 6114863
1.3533866 0.47347847 -0.001419127 15785874
1.3553516 0.47435933 -0.0015662909 14733438
1.3574442 0.47697192 -0.0022358894 14733684
1.3593144 0.47969115 -0.0025615692 16642446
1.3612247 0.48199591 -0.002373457 16708232
1.363156 0.48406315 -0.0021464825 16708234
1.3652368 0.48653066 -0.0018174648 16643727
1.3669853 0.48851252 -0.0016624331 16708756
1.3688192 0.4908376 -0.0016502738 16643735
1.3704112 0.49279743 -0.0017958879 16580501
1.3831286 0.50646585 -0.0010989904 16506981
1.3848367 0.50880778 -0.0026128292 15849060
1.3863095 0.51125598 -0.0031019449 16045932
1.3885033 0.51276875 -0.0034902692 16769648
1.3898685 0.51515263 -0.0038107634 16769394
1.391197 0.51743793 -0.0039938092 16769392
1.3961829 0.52054131 -0.0034759641 16769665
1.3974577 0.52314699 -0.0025334358 16769657
1.3992057 0.52573228 -0.002533257 16769659
1.4018502 0.53003848 -0.0040751696 16770695
1.4054934 0.53192234 -0.0035584569 16770197
1.4063189 0.53424454 -0.0037049055 16769673
1.4078294 0.53690302 -0.0036435127 16506240
1.4101112 0.53869498 -0.0027594566 16374384
1.4117103 0.54130822 -0.0031431913 15454832
1.4138737 0.54292101 -0.0031476021 15126361
1.4161265 0.54603982 -0.0031131506 15059547
1.4180791 0.548145 -0.0027720928 13941331
1.419675 0.54999006 -0.0018891096 12757325
1.4219508 0.5521701 -0.0026019216 13348675
1.4241593 0.55492473 -0.0021193027 10913602
1.4257369 0.55791926 -0.0022348166 9795374
1.4276731 0.5584898 -0.0029402971 9927225
1.428628 0.56118107 -0.0034418106 10652222
1.4311899 0.56377929 -0.0024850368 8350501
1.4335852 0.56574047 -0.0026861429 8154159
1.4353447 0.5678575 -0.0023277998 7036697
1.4364691 0.56966573 -0.0017805099 6576390
1.4396604 0.5720641 -0.001889348 5982214
1.4419906 0.57650352 -0.0039661527 8547088
1.4436717 0.57741356 -0.0031208396 7297039
1.4461701 0.57965696 -0.0017374754 3944979
1.4470593 0.58202672 -0.0050350428 8942860
1.4493544 0.58375466 -0.0041205883 8349969
1.3462917 0.46836162 -0.0021693707 3025412
1.3480569 0.46946937 -0.003444612 3025155
1.3498914 0.47368285 -0.0047255158 1837824
1.3520747 0.4742583 -0.003359437 6507812
1.3532388 0.47674325 -0.004365325 12163653
1.3556974 0.47885966 -0.0032974482 16577167
