# .PCD v0.7 - Point Cloud Data file format
VERSION 0.7
FIELDS x y z rgba
SIZE 4 4 4 4
TYPE F F F U
COUNT 1 1 1 1
WIDTH 1201
HEIGHT 1
VIEWPOINT 0 0 0 1 0 0 0
POINTS 1201
DATA ascii
1.6261916 0.62110329 0.35475117 11972742
1.616799 0.61322916 0.35483736 14803171
1.6183919 0.61542147 0.35455719 12763828
1.6207036 0.6177448 0.3542662 12632239
1.6227615 0.61960477 0.35378069 12631976
1.6249608 0.62022948 0.35369667 12762787
1.6102326 0.61194736 0.35417318 14539995
1.6131444 0.61234862 0.35371399 14671837
1.6153023 0.6149525 0.35307544 12895425
1.617126 0.61739665 0.35264885 12830134
1.6189238 0.61891687 0.35265812 12961203
1.6209196 0.62023246 0.35292003 13092530
1.6066151 0.61085749 0.35256523 15000553
1.6093087 0.61100495 0.35207227 14737633
1.6113033 0.61358297 0.35143337 13027266
1.6133007 0.61575341 0.35174671 12895932
1.6151443 0.61796796 0.35112697 12961460
1.6171889 0.61949211 0.35139459 13158579
1.6050653 0.61042714 0.35067677 15066855
1.6073376 0.61230278 0.349785 13553612
1.609293 0.61475253 0.34992528 13224641
1.6110772 0.61682862 0.34955102 13290428
1.6133878 0.61823052 0.34944183 13224372
1.6019328 0.60992324 0.34873065 15395305
1.6032906 0.61136824 0.34862518 14277079
1.6049647 0.61386192 0.34814733 13422277
1.6074331 0.61598772 0.34787133 13488062
1.6091173 0.6171388 0.34869832 13487805
1.5979807 0.60916352 0.34753275 15724271
1.5996804 0.6094833 0.3477385 15658477
1.6013224 0.61266339 0.34647727 13619400
1.6032623 0.6149472 0.3465606 13685442
1.6054122 0.61612803 0.34566694 13619389
1.59395 0.60861009 0.34578091 15856111
1.5960858 0.6086179 0.34608537 15724526
1.5975142 0.61204898 0.34571266 13750985
1.5994384 0.61387932 0.34482557 13948099
1.6012433 0.61566061 0.34497046 13816768
1.590066 0.60767251 0.34524456 15198699
1.5923735 0.60824847 0.34439436 12568274
1.5941504 0.6111598 0.34373543 12895428
1.5960832 0.61247653 0.34356636 13422271
1.5975419 0.6148054 0.34318399 13816509
1.5880549 0.60771769 0.34335887 7702436
1.5901785 0.60914087 0.34249943 7307142
1.5920424 0.61167109 0.3417457 9015174
1.5936103 0.61433983 0.34177044 11843234
1.5963817 0.61429697 0.34120396 11119003
1.5861125 0.60910636 0.34050357 990490
1.5885024 0.61092657 0.34035599 3423796
1.59003 0.6134488 0.33997914 5857105
1.5915173 0.61446321 0.33972126 5659722
1.582433 0.60941505 0.33937594 1120023
1.5841882 0.60981351 0.33912128 1251601
1.5861502 0.61232495 0.3387953 2172440
1.5877308 0.61403358 0.33796123 2632982
1.5900609 0.6149168 0.33734205 2172163
1.5802723 0.61001819 0.33749098 2105885
1.5821341 0.61062932 0.33672166 2105882
1.584749 0.61324441 0.33670545 2500370
1.5863962 0.61540169 0.33565843 2697488
1.5784242 0.61019331 0.33540154 2171676
1.5807459 0.61233413 0.33486068 2697493
1.5825514 0.61470056 0.33459705 2829078
1.5844119 0.6168924 0.33390263 3354645
1.5748358 0.60994065 0.33376646 2171418
1.5767562 0.61095721 0.33364737 2434329
1.5785626 0.6137687 0.33311456 2894613
1.5806991 0.61631292 0.33260649 2894617
1.5822537 0.61722124 0.33233023 3354899
1.5704005 0.60930187 0.33241791 2171677
1.5726879 0.6094017 0.33210927 2106139
1.5742359 0.61262381 0.33175448 2894613
1.5767529 0.61483061 0.33072174 2631447
1.5786084 0.61696291 0.33095738 3157785
1.5687137 0.60893095 0.33033246 2105882
1.5705296 0.6121012 0.33033442 2828819
1.5722489 0.61360681 0.32986584 2763032
1.5743237 0.61589432 0.32939106 2894612
1.5767107 0.61670947 0.32905331 3289105
1.5652146 0.60869753 0.3292343 2105880
1.5667751 0.61147946 0.32887211 2763023
1.5687885 0.61157614 0.32849818 2894608
1.5708613 0.61513549 0.32794085 2828565
1.5726708 0.61653507 0.32839322 3289359
1.5587497 0.60723072 0.32801169 2105879
1.5615809 0.6077081 0.32769513 2105624
1.5634468 0.6095283 0.32709792 2434579
1.565228 0.61127162 0.32641032 2763030
1.5671647 0.61409366 0.32599229 2697239
1.5688865 0.61557561 0.32637417 3289361
1.5575271 0.60670006 0.32554814 2040342
1.5599849 0.60708243 0.32596731 2040342
1.5610831 0.61033976 0.32514009 2763283
1.5630641 0.6135959 0.32459044 2762774
1.5646191 0.61507505 0.32467383 3289366
1.5536581 0.60550332 0.32426378 2040088
1.5554916 0.60614723 0.32409167 2040346
1.5576348 0.60991663 0.32364294 2828562
1.559327 0.61283207 0.32332993 2631192
1.5611706 0.61397892 0.32292512 3091987
1.5499488 0.60488093 0.32303932 1974552
1.5518751 0.60497141 0.32273883 2040090
1.553414 0.60957384 0.32186621 2828565
1.5558488 0.6109708 0.3215442 2696985
1.5574141 0.61282939 0.32150155 2960151
1.5592809 0.61433882 0.32182497 3354900
1.5460839 0.60371679 0.32099566 2039831
1.5478511 0.60413033 0.32172936 1974294
1.5497723 0.60877192 0.31992444 2894098
1.5514979 0.60991049 0.32060242 2828566
1.5534747 0.6120137 0.31994152 2960153
1.5421402 0.60276109 0.31947845 1975061
1.5442542 0.6031481 0.32032749 1974806
1.5450689 0.6076479 0.31930882 2894352
1.5474849 0.60810149 0.31912893 2894350
1.5494752 0.61163002 0.31838685 2960405
1.5517774 0.6122914 0.31810603 3420689
1.5386167 0.60252845 0.31759605 2172183
1.5400928 0.60246974 0.3184948 2237466
1.5420241 0.60682023 0.31706184 3026195
1.5437745 0.60730189 0.31760949 2894865
1.5457108 0.61056018 0.31666607 2960412
1.5484931 0.61144882 0.31612942 3223318
1.5362384 0.60207027 0.3165884 2040341
1.5399837 0.60640371 0.31612188 3026197
1.5417953 0.60971922 0.31497431 2960412
1.5435256 0.61062932 0.31511205 3289366
1.5327919 0.60188693 0.31514287 1842964
1.5365729 0.60597932 0.314206 2960401
1.5383334 0.60919172 0.31368297 3025948
1.5400469 0.6102798 0.31344378 3354902
1.5285763 0.60129523 0.31373414 1777166
1.5307484 0.60154134 0.31322062 1711889
1.5325485 0.60527146 0.31229413 2960144
1.5342878 0.60706031 0.31257764 3025942
1.5364566 0.60925126 0.31186426 3289112
1.5387732 0.60983783 0.31152788 3486739
1.5247035 0.60053378 0.3119213 1777425
1.5269232 0.60090965 0.31204426 1842960
1.5285687 0.60426021 0.31145403 2960398
1.5311819 0.6046707 0.31085214 2960653
1.5325303 0.60888058 0.31065628 3157782
1.5338352 0.60989708 0.3102054 3552530
1.5205357 0.60025638 0.31046247 1580813
1.5230517 0.60023695 0.31044972 1711631
1.5249741 0.60357457 0.30946308 2960400
1.5285475 0.60783321 0.30876186 3354904
1.5308608 0.60849202 0.30926749 3355409
1.5185981 0.59970295 0.3087976 1580306
1.5207072 0.60159034 0.30845562 2565905
1.5225053 0.60333657 0.30846971 2960403
1.5246421 0.60731411 0.30713221 3420951
1.52702 0.60721672 0.30705881 3420696
1.5150424 0.5988695 0.30729556 1580815
1.5174048 0.60057962 0.30655631 2302997
1.5191267 0.60252422 0.30652988 3025684
1.5208617 0.60656899 0.30547142 3486497
1.5225501 0.60688668 0.3058641 3486490
1.5115824 0.59847867 0.30543563 1777677
1.5134369 0.59934092 0.30517712 2106637
1.5154802 0.60183281 0.3049233 3091729
1.5190643 0.6061765 0.30387729 3618074
1.506844 0.5971781 0.30416605 1711369
1.5093104 0.59801519 0.30416122 1646091
1.5118124 0.60087657 0.30335176 3026191
1.5126175 0.60536748 0.30302757 3815442
1.5155616 0.6055665 0.30241469 3749657
1.5038412 0.59645957 0.30213612 1711114
1.5063574 0.59692889 0.30206898 1776651
1.5076282 0.60087633 0.30171379 3025937
1.5097136 0.60047001 0.30179703 3025937
1.5114181 0.60505563 0.30086413 3815192
1.5131793 0.60546076 0.301038 3683875
1.4998589 0.59575373 0.30119437 1711369
1.5016418 0.59591705 0.30146128 1645839
1.5037011 0.60019821 0.29974961 2960401
1.5057104 0.60057843 0.30068672 3025937
1.5077937 0.60416538 0.29923779 3880983
1.5097902 0.60465968 0.29941559 3880988
1.4964201 0.59447801 0.29925829 1776902
1.4983149 0.59502155 0.29940686 1776648
1.4996352 0.59914631 0.29786223 3026449
1.501503 0.59964746 0.29869533 3026193
1.5031915 0.60302252 0.29774973 3420950
1.5058196 0.60417378 0.29783008 3881503
1.4918344 0.59350687 0.29724354 1908230
1.4940882 0.59400856 0.29776657 1842952
1.4953997 0.59814417 0.2971684 2960912
1.497762 0.59864348 0.29699436 3026446
1.4997573 0.60221338 0.29626119 3026454
1.5017927 0.60297966 0.29594022 3552796
1.4905057 0.59308612 0.29627234 1777167
1.4912477 0.59721065 0.29541937 2960658
1.4942455 0.59767354 0.29520693 3026191
1.4958 0.60133976 0.29440746 3354909
1.4978914 0.60224146 0.29473144 3486749
1.4994674 0.6036073 0.29525328 3946794
1.4870789 0.5932532 0.29473472 1907983
1.4884411 0.59366953 0.29560685 1776913
1.4903672 0.59664482 0.29346389 3026193
1.4921396 0.60053492 0.29302993 3420696
1.4939976 0.60137075 0.29338118 3486493
1.4961891 0.6026594 0.29308429 4012832
1.4851758 0.59367442 0.29295591 1908239
1.4868641 0.59615946 0.29194978 2960656
1.4885771 0.59973234 0.29053873 4143641
1.4902101 0.60052824 0.29124901 3486494
1.492254 0.60198212 0.29175413 3947297
1.4827144 0.59527993 0.29092619 2500110
1.4843841 0.59758669 0.2906149 3552016
1.4863534 0.60002023 0.28968298 3552027
1.4881566 0.60089827 0.28996882 3749666
1.4788685 0.59525192 0.28900576 3091981
1.4803972 0.59530681 0.28992629 3026444
1.4825224 0.59910572 0.28820598 3355163
1.4844666 0.59988689 0.28802404 3618082
1.4750473 0.59425724 0.28735235 3025939
1.4769144 0.59484696 0.28812712 3091727
1.4786383 0.59797311 0.2870515 3486489
1.4808483 0.59899437 0.28680077 4012835
1.4713306 0.59352601 0.28545421 2960658
1.4732535 0.59383368 0.28637853 2960403
1.4753517 0.59716511 0.2853258 3487002
1.4767579 0.59878033 0.28537282 3947042
1.4789802 0.5992319 0.28501809 4209957
1.4671133 0.59288549 0.28466687 2895121
1.4691334 0.59296948 0.28425205 2895125
1.4711583 0.59658468 0.28349289 3487770
1.4730276 0.59739017 0.28363237 3815965
1.4750502 0.59860218 0.28379208 4144168
1.4652796 0.59210622 0.28281167 2960909
1.4675527 0.59613395 0.28213599 4210198
1.4689665 0.59679031 0.28209931 3553312
1.4711096 0.59780836 0.28160924 4276006
1.4620023 0.59158474 0.28082782 2961164
1.464325 0.59174681 0.28078508 3026956
1.465152 0.59599245 0.28039473 3881498
1.4669724 0.59710133 0.28036535 3815717
1.4578395 0.59067976 0.27918637 2895375
1.4595516 0.5913195 0.28007188 2961164
1.4615579 0.59500521 0.27891994 4144401
1.4632022 0.59649706 0.27885133 3881762
1.4536085 0.59045583 0.27858216 3026448
1.4556782 0.59022057 0.27832457 3026446
1.45803 0.59450853 0.27739149 4013077
1.4598416 0.5958631 0.27723908 3881506
1.4514481 0.58995736 0.27643761 2829836
1.4539325 0.59368265 0.2757884 4144402
1.4559047 0.59474385 0.27576646 3881503
1.457226 0.59615219 0.27612698 4407588
1.4463707 0.58844191 0.27433118 2828812
1.4482281 0.58930898 0.27503195 2698252
1.4503632 0.59285402 0.27352172 4013070
1.4518108 0.59415448 0.27397022 3881757
1.4544146 0.59550869 0.27415684 4407332
1.4445149 0.58838153 0.27315792 2829065
1.4480741 0.59324545 0.27253923 3815958
1.449839 0.59464145 0.27227834 4079136
1.4409163 0.58760244 0.27164888 2763784
1.4422548 0.58944452 0.27147177 3486986
1.4441977 0.59235555 0.27127096 3947535
1.4461479 0.5940336 0.27098262 4144165
1.4366084 0.58690381 0.27048451 2631945
1.4385291 0.58744812 0.27125341 2697992
1.440201 0.5913251 0.26973951 3947281
1.4427426 0.59329855 0.26910213 4144160
1.4327075 0.58625066 0.26835376 2631691
1.4345115 0.58655846 0.2693978 2631693
1.4369587 0.59036285 0.26755628 3881229
1.4388677 0.59218335 0.26756895 3882014
1.4403321 0.59331489 0.268053 4341789
1.4286859 0.5860399 0.26757348 2631948
1.4305904 0.5857566 0.26695576 2631687
1.4327161 0.58974415 0.26665226 3815952
1.4346998 0.59124398 0.26612031 3881502
1.4362612 0.59247446 0.26646563 4013342
1.4250672 0.58506823 0.26588783 2697222
1.4270787 0.58514917 0.26541719 2566153
1.4288726 0.58882844 0.26460412 3881229
1.4306731 0.59027195 0.26461884 3815705
1.4329314 0.59176642 0.26448002 4078622
1.4232954 0.58451772 0.26383919 2369545
1.4256144 0.58803326 0.26228082 3880971
1.4273214 0.58945507 0.26305932 3880987
1.4289873 0.59082019 0.26270866 4078115
1.4191122 0.58379465 0.26238471 2434057
1.4222155 0.58385336 0.26201981 2500616
1.4230641 0.58849132 0.26180285 3815187
1.425139 0.59010136 0.26143083 3881503
1.4154805 0.58342934 0.26101655 2368519
1.4171845 0.58352512 0.26030222 2565644
1.4197488 0.58748031 0.26013008 3683852
1.4214145 0.5894298 0.25976452 3815455
1.4237061 0.59021223 0.25937867 4144414
1.4113848 0.58250195 0.25895411 2237444
1.4133658 0.58283311 0.25973094 2171912
1.4146576 0.58719629 0.25845525 3617802
1.4174628 0.588283 0.25828171 3618583
1.4191883 0.58972526 0.25805625 4078626
1.4078548 0.58113772 0.25744268 2237194
1.4096699 0.58178353 0.25822842 2236935
1.4118379 0.58631772 0.25696433 3552780
1.4136355 0.5873419 0.256531 3618326
1.4156404 0.58924371 0.25635543 4012576
1.4042077 0.58015633 0.25557086 2237194
1.4060155 0.5808211 0.25642839 2236937
1.4069281 0.58561128 0.25589281 3487240
1.4098068 0.58631253 0.25517511 3552528
1.4118345 0.58877409 0.25484404 4012570
1.4138047 0.58918959 0.25429049 4209695
1.4002917 0.57954943 0.2542938 2105604
1.4022913 0.57970107 0.25464737 2171399
1.406113 0.58542955 0.25367546 3618061
1.4078516 0.58752966 0.25331467 3749915
1.4097476 0.58886313 0.25294858 4144410
1.3983281 0.57916456 0.25281262 2105349
1.4020832 0.58475792 0.25200126 3420177
1.4042051 0.58652735 0.2515744 3683610
1.4064775 0.58794898 0.25173172 4078363
1.3944783 0.57871675 0.25175574 1907720
1.3982862 0.58391148 0.25055131 3354635
1.4001312 0.58549535 0.25012499 3485983
1.4018233 0.58687145 0.24997663 3684118
1.3907027 0.57778162 0.24991313 1841926
1.3944681 0.58294201 0.24844253 3223051
1.3964069 0.58448237 0.24893531 3420181
1.3981937 0.58597374 0.24869791 3749148
1.3866837 0.57733196 0.24824357 1710602
1.3885019 0.57733929 0.24884161 1710601
1.390377 0.58247042 0.2473523 3091723
1.3926535 0.58298814 0.24688596 3354640
1.3940761 0.58530766 0.24708629 3551769
1.3829409 0.57650256 0.24622926 1973000
1.3845961 0.5768677 0.24660063 1841926
1.3867145 0.58160222 0.24530974 2894603
1.3884238 0.58192647 0.24606898 3091209
1.3907883 0.58451974 0.24545544 3486491
1.3791496 0.57578254 0.24441364 1776899
1.3809803 0.5762499 0.24525413 1841925
1.3848097 0.58127904 0.2442008 2960142
1.3868577 0.58388144 0.24361321 3486234
1.3885036 0.58433306 0.24467635 3749654
1.3756404 0.57448328 0.2428717 1645316
1.3774607 0.57516253 0.24367392 1842180
1.3810943 0.58051395 0.24212277 3025681
1.3826821 0.58255458 0.24241149 3420183
1.3851631 0.58312678 0.24224401 3485976
1.3712485 0.57446373 0.24290222 1710597
1.3735515 0.57428205 0.24202812 1644810
1.3769376 0.57985914 0.24129102 2959887
1.3792698 0.5817188 0.2409395 3354394
1.3812898 0.58193177 0.23996451 3486235
1.369417 0.57393515 0.24099052 1579013
1.3732312 0.57913721 0.23912817 2828041
1.3750578 0.58076298 0.23926353 3222807
1.3773484 0.58146548 0.23935246 3420697
1.3654468 0.57309031 0.23867881 1513227
1.3677649 0.5736233 0.2392906 1447942
1.3688002 0.57847422 0.23783749 2762244
1.3713923 0.57955807 0.23767698 3024916
1.3732879 0.58110052 0.2377803 3485978
1.3618314 0.57215905 0.23730576 1512967
1.3635823 0.57256544 0.23780355 1512967
1.3675683 0.57890844 0.23596209 3157779
1.3697965 0.58022106 0.23600763 3288601
1.3577671 0.57160974 0.23578566 1446921
1.3602479 0.57150126 0.23545828 1447431
1.3637469 0.57766974 0.23462355 2499081
1.3655574 0.57962775 0.23437873 3420951
1.3539946 0.57119393 0.23404664 1447175
1.3562553 0.57111168 0.23406208 1315592
1.3596598 0.57704079 0.23325104 2433291
1.3618548 0.57908499 0.23278254 3552289
1.3639061 0.58001149 0.23277697 3289112
1.3520657 0.57085401 0.23224738 1447174
1.3559372 0.5763905 0.23159429 2236168
1.3580564 0.57776535 0.23111412 3157783
1.3597376 0.57926476 0.23119977 3552541
1.3485487 0.57054639 0.23101258 1381385
1.3507969 0.57067406 0.23098308 1381639
1.3539789 0.57698429 0.22949961 2959891
1.3560615 0.57849979 0.22968459 3552792
1.3445961 0.56995535 0.22898805 1315587
1.3463855 0.57029772 0.22991312 1315845
1.3481693 0.57478499 0.2281971 2169862
1.3506348 0.57593626 0.22821337 2433037
1.3519969 0.57792366 0.2279925 3289621
1.3404258 0.56870604 0.22783148 1250307
1.3426447 0.56919396 0.22778159 1250308
1.3440274 0.57404244 0.22718865 2104323
1.3462756 0.57468784 0.22677881 2236170
1.3484607 0.57723695 0.226109 3157785
1.349965 0.57788384 0.22660014 3223833
1.3385472 0.56809413 0.22590759 1250308
1.3425637 0.57384604 0.22503105 2170376
1.34444 0.57632953 0.22475725 2959895
1.3464384 0.57757175 0.2248008 3487259
1.3326483 0.56780541 0.22532409 1316103
1.3354564 0.56797576 0.22479802 1250307
1.3386297 0.5729413 0.2238631 1907204
1.3406665 0.57512558 0.22325093 2762519
1.3423856 0.57658148 0.22277799 3355417
1.3444619 0.57756132 0.22249523 3684903
1.330806 0.5669719 0.22312918 1250053
1.333311 0.56729913 0.22338644 1315843
1.3354917 0.57226241 0.22237837 1972740
1.3371575 0.57423031 0.22179812 2631444
1.3386289 0.57583451 0.22177669 3158043
1.3270921 0.56624198 0.22176069 1118727
1.3288536 0.56743991 0.22327533 1184259
1.331517 0.57152343 0.22009638 1775619
1.3334267 0.5726015 0.22065383 2301709
1.3349662 0.57522058 0.21988559 3223577
1.3363588 0.57602751 0.21995163 3684383
1.3234971 0.56548977 0.21994522 1118981
1.3260266 0.56587785 0.21977997 1250054
1.3274977 0.57097286 0.21914256 1644039
1.3291457 0.57194149 0.2190057 2038535
1.3312812 0.57435143 0.21850148 3091480
1.3336813 0.57470906 0.21849793 3288600
1.3199476 0.56501186 0.217774 1184263
1.3216914 0.56519711 0.21822485 1118725
1.3253064 0.57059562 0.21750498 1709829
1.3273785 0.57382476 0.21693328 2828311
1.3290446 0.5743835 0.21667191 3223838
1.3174825 0.56471598 0.21661112 1184006
1.321876 0.56962055 0.21572137 1709317
1.3232293 0.57307184 0.21474445 2762518
1.3254539 0.57348084 0.21545044 2960152
1.3142562 0.56401986 0.2150346 1118723
1.3176064 0.56879544 0.21461505 1709315
1.3197287 0.57169378 0.21367815 2631189
1.3215172 0.57290673 0.21381116 2959897
1.3082662 0.56252086 0.21466017 1184518
1.3103213 0.56313169 0.21393037 1118724
1.312201 0.56360739 0.21407047 1053185
1.3141022 0.56816161 0.21270782 1643781
1.3160713 0.57037365 0.21192011 2170382
1.3178132 0.57208657 0.21212241 2763031
1.3202925 0.57233036 0.21165258 2565388
1.3061179 0.56259596 0.21230683 1118725
1.3086252 0.56258619 0.21230924 1249796
1.3102775 0.56756866 0.21079031 1577986
1.3121953 0.56897986 0.21052903 1907467
1.3138003 0.57137263 0.21067947 2762771
1.3160312 0.57179356 0.21050832 2894613
1.3022649 0.56181669 0.21038914 1184774
1.3046417 0.56193799 0.21073422 1184774
1.3060379 0.56700718 0.2096082 1512454
1.3080237 0.56732213 0.20977029 1577733
1.310212 0.57051724 0.20881835 2696981
1.3123047 0.57097232 0.20879546 2829077
1.2933211 0.55657023 0.21031922 12306596
1.2960057 0.55923015 0.20905063 397332
1.2983272 0.56121135 0.20890027 1119500
1.3004782 0.56143194 0.20839134 1184771
1.3025289 0.56564385 0.20771146 1446916
1.3044055 0.56624091 0.20766053 1512198
1.3064077 0.56991649 0.20720619 2697234
1.3083162 0.5704338 0.20751631 2763028
1.2883524 0.55387348 0.20886004 16382405
1.2906539 0.55452549 0.20881617 16448202
1.2930658 0.55617833 0.20818216 11517337
1.2949108 0.55818939 0.20769754 1911593
1.2971183 0.56017429 0.20703918 791309
1.2983868 0.5648694 0.20652556 1250056
1.3001397 0.56615102 0.20637316 1840647
1.3024933 0.56862408 0.20565441 2762774
1.3046062 0.56950569 0.20630565 2960154
1.2850771 0.55269909 0.20763379 16513990
1.2873477 0.55339515 0.20696205 16316610
1.2890677 0.55712348 0.20542708 16775358
1.2906885 0.55822587 0.20605147 16447173
1.2929531 0.56085086 0.20542228 12697763
1.2949016 0.56274819 0.20512351 8486504
1.2966998 0.56474882 0.20487466 6841932
1.2987814 0.56651688 0.20465001 3419671
1.3002379 0.56856906 0.20487651 2696722
1.2840555 0.55206847 0.20488679 16448189
1.2854953 0.55324936 0.20460358 16513984
1.2870238 0.55665851 0.20449021 16774846
1.2909987 0.56196177 0.20402819 16644819
1.2930586 0.56262618 0.20352173 15658183
1.2849932 0.55703664 0.20290521 16774594
1.2874976 0.56096047 0.2024287 16709841
1.2889668 0.56224829 0.20196953 16645326
1.2866755 0.56081998 0.20033446 16644041
1.2874339 0.56326163 0.2006267 16776926
1.6203101 0.62068826 0.35445815 12499605
1.6102612 0.61253709 0.35539135 15066084
1.6120449 0.61384887 0.35647404 15130842
1.6139914 0.61602896 0.35525808 13157819
1.6156768 0.61888826 0.35442248 12632496
1.6175785 0.62099779 0.35450301 12565656
1.605902 0.61224049 0.3540346 15001061
1.6077988 0.61292535 0.35463858 14935012
1.6097413 0.61512071 0.35378063 13027010
1.6117715 0.61741465 0.35324308 12895930
1.6132958 0.61941296 0.3530519 12961458
1.6150627 0.62082839 0.35336992 13158319
1.6022886 0.61061388 0.3523826 15329773
1.6041759 0.61147827 0.35320789 15263979
1.6060002 0.61385673 0.35228679 13158854
1.6079152 0.61724406 0.35138461 13224891
1.6096277 0.6182183 0.35194194 13158840
1.6115658 0.6199702 0.35184467 13224114
1.6002988 0.61083132 0.35140157 15395563
1.6027286 0.61326104 0.35070714 13290440
1.6039479 0.61589301 0.34974855 13619395
1.6057491 0.61729515 0.35023692 13422013
1.6075292 0.61871827 0.35086474 13487547
1.5960481 0.60998106 0.34980655 15658735
1.5985081 0.6116274 0.34930995 14474460
1.6002454 0.61415434 0.34896901 13619398
1.6020586 0.61645937 0.34879097 13619649
1.6038061 0.6174466 0.34885278 13553854
1.592943 0.60932577 0.34831196 15856368
1.5944462 0.61207664 0.34763545 13750734
1.596453 0.61338007 0.34764373 13816776
1.5983477 0.61525869 0.34704798 13817027
1.6002836 0.61684471 0.34687024 13750978
1.5886384 0.60780829 0.34698957 16119285
1.5906723 0.60934114 0.34661573 15461353
1.5927113 0.61206257 0.34611163 13948110
1.5942888 0.61410409 0.34595892 14079944
1.5961113 0.6160391 0.34543398 13882819
1.585343 0.60739553 0.34596035 15658995
1.5868653 0.60924673 0.34504414 14080220
1.5889125 0.61106187 0.3445268 13619399
1.5906453 0.6131888 0.34453082 14079945
1.5924791 0.61532253 0.34389818 14080200
1.5830752 0.60786998 0.34354433 8294825
1.5852163 0.61012155 0.34316662 10856612
1.5868813 0.61304361 0.34275237 12369840
1.5891087 0.61374921 0.34234938 12304045
1.5791222 0.60804951 0.34274995 3428970
1.581349 0.60879761 0.3414374 2043702
1.582792 0.61109197 0.34086582 4542019
1.5849217 0.61327374 0.34085023 7370090
1.5775266 0.60905802 0.34074491 924961
1.5792763 0.61002105 0.33958986 1449236
1.580662 0.61213315 0.33900324 2764577
1.5833192 0.61454147 0.33825359 2435862
1.5754784 0.60965753 0.3377803 2105884
1.5772722 0.61157095 0.337834 2237459
1.5792005 0.61414999 0.33713949 2369043
1.581064 0.61565065 0.33682212 2302988
1.57296 0.61065215 0.33653855 2434582
1.5754344 0.61270332 0.33517319 2894616
1.5774362 0.61499381 0.33544371 2763286
1.5783519 0.61674303 0.33474535 3288854
1.5696445 0.60983181 0.33485577 2106399
1.5713036 0.6117909 0.33444056 2763282
1.5733533 0.61428279 0.33373201 2763287
1.5752807 0.61624908 0.3334997 3026456
1.5773928 0.61726213 0.33271617 3420697
1.5657716 0.60967696 0.33318043 2237471
1.5673366 0.6105305 0.33275196 2368795
1.5687377 0.61252135 0.33241415 2894611
1.5712464 0.61532766 0.33223939 2697243
1.573596 0.61727369 0.33129266 3355156
1.5620155 0.60861331 0.33180726 2106139
1.5637856 0.60921067 0.33162948 2171675
1.5654743 0.61246592 0.33089435 2828562
1.5674689 0.61545807 0.33010817 2631705
1.5697756 0.61652124 0.33051676 3091992
1.5574167 0.60759234 0.33005986 2040596
1.5599109 0.60806036 0.33020145 2171671
1.5619115 0.6118142 0.32893255 2828816
1.5637343 0.61310434 0.32896084 2762773
1.5657418 0.61561584 0.32853317 2960407
1.567698 0.61683923 0.32911676 3355155
1.5537876 0.60662192 0.3286981 2040343
1.5560184 0.60707164 0.32812893 2040343
1.557682 0.61124223 0.3274987 2894610
1.5599358 0.61201501 0.32761347 2763029
1.5617008 0.61464953 0.32694107 2960151
1.5640488 0.61607283 0.32697132 3355154
1.5496302 0.60637534 0.32709277 2171925
1.5522206 0.60613859 0.32669735 2040344
1.5544343 0.61048269 0.32542259 2828820
1.5563464 0.61073864 0.326011 2828818
1.5577075 0.61389023 0.32543314 2763033
1.5596423 0.61498559 0.32544252 3223316
1.5459912 0.60534227 0.32570004 2171416
1.5484128 0.60548592 0.32528487 2105882
1.5526352 0.61025918 0.32433516 2828821
1.5545149 0.61300522 0.32355809 2762779
1.5562431 0.61435634 0.3240813 3354901
1.5446575 0.60454249 0.323762 2105629
1.5483363 0.60944337 0.32267052 2828822
1.5502083 0.61121523 0.32237935 2828568
1.5521671 0.61320025 0.322395 3091737
1.5408752 0.60392845 0.32214916 2040343
1.5430319 0.60434687 0.32255337 2105883
1.5444024 0.60863185 0.3213293 2828817
1.5466245 0.60964262 0.32043344 2894355
1.548048 0.61234361 0.32086068 3091734
1.5506346 0.61295021 0.32086146 3485718
1.5368664 0.60302693 0.32061183 2040088
1.5391901 0.60322171 0.32044441 2106133
1.5404848 0.60774851 0.31984609 2960145
1.5429099 0.60839891 0.31970817 3025680
1.5447183 0.6117081 0.31929606 3091737
1.5469487 0.61231107 0.31852394 3355163
1.5331829 0.60263497 0.31905502 1909011
1.5350057 0.60240531 0.3191956 1974554
1.5366392 0.60708493 0.31773132 2960402
1.5383184 0.60741735 0.31857833 2894611
1.5410229 0.61113495 0.31768876 3091994
1.5431356 0.61167967 0.31710094 3420946
1.5299556 0.60154498 0.31589714 1843216
1.5308537 0.60234916 0.31757948 1909008
1.5330517 0.6061784 0.31582257 2894610
1.5347975 0.60664976 0.3168371 2894866
1.5369776 0.61031663 0.31599459 3091996
1.53862 0.61100018 0.31610352 3289367
1.5274719 0.60178417 0.31627607 1842960
1.5309274 0.60574323 0.31490007 2960397
1.533452 0.60964215 0.31416029 3157531
1.5351492 0.6102376 0.31465644 3289369
1.5239905 0.60124695 0.31426406 1711629
1.5263939 0.60142261 0.31408638 1777169
1.5271854 0.60514355 0.31332481 2960657
1.5287721 0.60892695 0.31278887 3355162
1.5308769 0.60931605 0.31282133 3289368
1.5342491 0.61044914 0.31226188 3421203
1.5193278 0.6009475 0.3123666 1711884
1.5215499 0.60105759 0.31266436 1777420
1.5236312 0.60439539 0.3122527 2960652
1.5255122 0.60449672 0.31105119 3091731
1.5270694 0.60875261 0.31113127 3289624
1.5152068 0.60017532 0.31092671 1580555
1.5176685 0.60055876 0.3108581 1580303
1.5196757 0.60376412 0.31066051 2894865
1.5220628 0.6038841 0.31068173 3026449
1.52373 0.60808539 0.30963141 3420953
1.5256282 0.60826522 0.30918729 3420705
1.5116279 0.59957278 0.30928716 1777158
1.5140746 0.59920347 0.30948976 1580300
1.5158985 0.60261548 0.30890113 2829330
1.5178552 0.60333371 0.30970901 2894612
1.5194349 0.60728401 0.30779392 3486748
1.5216384 0.60789829 0.30878043 3355421
1.5104204 0.59925711 0.30779374 1646600
1.512138 0.60115182 0.3070482 2500621
1.5136992 0.60240471 0.30760223 2894608
1.5159819 0.60679811 0.30620852 3618074
1.5176425 0.60670054 0.30646613 3552283
1.5063124 0.59839034 0.30632579 1580299
1.5085356 0.60021234 0.30600309 2237453
1.5101837 0.60162836 0.30583671 3025936
1.511739 0.60614282 0.3047334 3684124
1.5139245 0.60628986 0.30478412 3683612
1.5023333 0.59714329 0.30450937 1579790
1.5046558 0.59762764 0.30494392 1645831
1.5058575 0.6011582 0.30421537 2894607
1.5077381 0.60504645 0.303507 3749645
1.5099995 0.60568309 0.30355608 3684123
1.4985931 0.5961104 0.3030414 1645580
1.5006636 0.59680343 0.30380934 1711374
1.5025629 0.60064781 0.30301446 3025939
1.5040417 0.60453677 0.30220297 3815703
1.5062997 0.60468334 0.30168739 3749655
1.5086308 0.60507381 0.30121946 3749666
1.4954283 0.5953055 0.30165455 1645835
1.4978232 0.59955823 0.30089465 3026447
1.5001925 0.60179514 0.30068177 3223058
1.5027767 0.60398972 0.30013362 3289109
1.5040698 0.60450304 0.29886934 3881243
1.4910671 0.59515476 0.29956695 1580563
1.4927781 0.59524006 0.30028474 1580557
1.4948689 0.59904498 0.2992321 2895119
1.4963112 0.59919369 0.29991025 2895375
1.498592 0.60314476 0.29853329 3289626
1.5003831 0.60431218 0.29901558 3815456
1.4864736 0.5936439 0.2991339 1711118
1.4890482 0.59493887 0.29845551 1646100
1.4903769 0.59778601 0.29768971 2895122
1.492882 0.59853262 0.29839402 2960401
1.4947991 0.60239446 0.29725167 3223323
1.4965711 0.60347378 0.29693472 3552032
1.4855714 0.59409368 0.29674146 1842195
1.487265 0.59674656 0.29584029 2894609
1.4889967 0.59749293 0.29607239 3026198
1.4910076 0.60127389 0.2955144 3223577
1.4927266 0.60300541 0.29520237 3947292
1.4949062 0.6033569 0.29467729 4012833
1.4835672 0.59582984 0.29385346 2565902
1.4852185 0.59653276 0.29468521 2829075
1.4872499 0.60082781 0.29340699 3486489
1.4889405 0.60158032 0.29388785 3420959
1.4903657 0.60326874 0.2947343 3947300
1.4792286 0.5961107 0.29288101 2763534
1.4814527 0.59620166 0.29320335 2828817
1.483253 0.59992266 0.29234901 3420440
1.4853158 0.60113627 0.29255453 3420958
1.4870794 0.60202181 0.29268974 3947297
1.4773972 0.59570116 0.29192293 2894864
1.4793682 0.59965032 0.2913121 4012815
1.4812965 0.60001194 0.29072702 3420701
1.4835315 0.60147387 0.29076797 4078623
1.473737 0.59508562 0.28998137 3025936
1.4756155 0.59691882 0.29016951 3486484
1.4778051 0.5993619 0.28913161 3683614
1.4796124 0.60024971 0.28920859 3946785
1.4696145 0.59445024 0.2888568 3025938
1.4715397 0.59448338 0.28845206 2960405
1.4737632 0.59816784 0.28770772 3486491
1.4751682 0.60007262 0.28724965 4143911
1.4655877 0.59334612 0.28673935 2960909
1.4679453 0.5938189 0.2869435 3026702
1.4698412 0.5974853 0.28607434 3618585
1.4716301 0.59870666 0.28607863 3749666
1.4623077 0.59231007 0.28553042 2829326
1.4647211 0.59261954 0.28502426 2960652
1.4657741 0.59673083 0.28452668 4341016
1.4677365 0.59782058 0.28427547 3749923
1.4697489 0.59919673 0.28521937 4079140
1.4586596 0.59136152 0.28310788 2895115
1.4605429 0.59186059 0.2834551 2960654
1.462218 0.59595686 0.28301206 4144403
1.4643681 0.59721231 0.28289875 3684124
1.4564378 0.59128881 0.28180519 2960652
1.4577925 0.59547198 0.28152019 4209682
1.4603124 0.59645855 0.28119481 3815706
1.4623985 0.59735411 0.28151986 3947297
1.4501984 0.59066433 0.28100505 2828813
1.4525411 0.59096539 0.28091606 2829070
1.4541943 0.59456193 0.27954161 4143895
1.4567089 0.59572518 0.27974793 3947034
1.458352 0.59664536 0.27953863 3881764
1.4487917 0.590298 0.27885839 2763276
1.4510942 0.59033704 0.2789506 2960649
1.4522896 0.59485376 0.27809939 3947031
1.4545037 0.59614778 0.27811402 3881505
1.457055 0.59642363 0.27757171 4341793
1.4454212 0.5894022 0.27722019 2697994
1.4469697 0.59001541 0.27780983 2763535
1.4491204 0.59406626 0.27645445 3881745
1.4506772 0.59520674 0.27649835 3947039
1.4525592 0.59601307 0.27713731 4341282
1.4413085 0.58840579 0.27518192 2829067
1.443262 0.58885622 0.27612981 2697737
1.4449553 0.59341711 0.27464473 3947529
1.4470401 0.5945828 0.27496421 3881500
1.4492414 0.59466398 0.27474484 3947553
1.4372287 0.58788931 0.27425945 2762766
1.4394541 0.58818948 0.27417064 2829067
1.4410923 0.59241766 0.27349946 4013574
1.4432232 0.59383386 0.27333951 3947037
1.4452192 0.59482801 0.27331203 4144417
1.4353449 0.58807135 0.27299166 2697482
1.4373213 0.59175885 0.27139094 3881487
1.4391991 0.59256077 0.27219862 3947033
1.4413394 0.59430873 0.2714994 4144420
1.4316168 0.58745098 0.2711468 2565642
1.4336758 0.58903217 0.27076891 3157774
1.4354812 0.59152102 0.27032483 3815701
1.4374799 0.59360731 0.26963055 4013089
1.4387002 0.595227 0.27149802 4144926
1.4275863 0.58652151 0.26954362 2631432
1.4295231 0.58694041 0.26951081 2566152
1.4314449 0.59042323 0.26892492 3684622
1.433403 0.59302485 0.26819277 3947553
1.4352987 0.59361219 0.2687026 4144416
1.4235706 0.58586216 0.2677592 2369033
1.4254377 0.58616805 0.26811314 2434568
1.4278953 0.58989096 0.2675207 3749648
1.4301929 0.59149194 0.26704073 3750427
1.4312873 0.59299284 0.26643187 4144416
1.419395 0.58525383 0.26624748 2368775
1.4219347 0.58543015 0.26612046 2303240
1.4242597 0.58898687 0.26520848 3880717
1.4256212 0.59062254 0.2653363 3815453
1.4278499 0.59213781 0.26550025 3881507
1.4183869 0.58441639 0.26460165 2237701
1.4198668 0.58855009 0.26449704 3748877
1.4220724 0.58947194 0.26400241 3683609
1.4238383 0.59162343 0.2636897 3881499
1.4140067 0.58411741 0.26349899 2302982
1.4161501 0.58775449 0.26224411 3617807
1.4182115 0.58795607 0.26249012 3617806
1.4197276 0.59063077 0.26212302 3815199
1.4223932 0.59076327 0.26184359 4012827
1.4102956 0.58350158 0.26190543 2171398
1.412922 0.58355975 0.26195768 2368260
1.414261 0.58716619 0.26082796 3486736
1.4163274 0.5899502 0.26061481 3683868
1.4062747 0.58215827 0.25994298 2039815
1.4086947 0.58272862 0.26042968 2171397
1.410593 0.58706748 0.25956953 3421194
1.4125636 0.58880061 0.25888026 3552794
1.4146426 0.58987731 0.25832826 4012573
1.4027343 0.58101612 0.25825432 2170636
1.4044257 0.58182871 0.25905505 2170891
1.4069085 0.58654541 0.2578285 3420937
1.4087267 0.58778751 0.25740439 3552539
1.4103177 0.58977282 0.25728443 3946783
1.3990085 0.58039099 0.25668505 2039562
1.4008284 0.58080018 0.2571542 2039815
1.4024875 0.58642411 0.25667498 3485707
1.4047217 0.58683491 0.2558248 3486235
1.4059799 0.58933336 0.25517374 3947034
1.4087927 0.58949405 0.25507969 4012827
1.3954062 0.58000624 0.25505552 2105094
1.397614 0.57990158 0.25518772 2039559
1.3988711 0.58515209 0.25478989 3353876
1.400872 0.58583093 0.25449178 3420182
1.4026549 0.5877074 0.25388342 3618330
1.4046831 0.58866656 0.25374842 4012823
1.390514 0.57978487 0.25420645 1777160
1.3928218 0.57980973 0.25424486 1973765
1.3949962 0.58416635 0.25257128 3223306
1.3969516 0.58496809 0.2529273 3354385
1.3987987 0.58686352 0.25229678 3617818
1.4008697 0.58816308 0.25303507 3946775
1.3889885 0.57898867 0.25240517 1842182
1.3914536 0.57929015 0.25215408 1907975
1.3929889 0.58385229 0.25147754 3157005
1.3950472 0.58629477 0.25119266 3485979
1.3967603 0.58717549 0.2508167 3749403
1.3859243 0.57825983 0.25092006 1776389
1.3895113 0.58314109 0.24999297 3090962
1.390994 0.58507311 0.2492218 3420183
1.393276 0.58622646 0.24951345 3683096
1.3819348 0.57746994 0.24928418 1644804
1.3838739 0.57749522 0.24875587 1710854
1.3852741 0.58261186 0.24815211 2894091
1.3877409 0.58423185 0.24787915 3157268
1.3893784 0.58543539 0.24764621 3617816
1.3780639 0.57662046 0.24715087 1645059
1.37988 0.57694447 0.24803698 1645058
1.3832915 0.58319771 0.24638569 2959636
1.3853402 0.5846405 0.24611688 3420440
1.3738697 0.57567972 0.24571311 1776390
1.3759446 0.57601738 0.24623048 1710853
1.3798897 0.58212531 0.24495989 2894097
1.3817825 0.58375138 0.24444145 3289109
1.3698666 0.57507288 0.24427623 1644804
1.371969 0.57528818 0.24478987 1645060
1.3759196 0.58109617 0.24355513 2893837
1.3781207 0.58302355 0.24305841 3288855
1.365576 0.57464921 0.24326187 1447687
1.3677557 0.57469893 0.24321118 1513220
1.3722291 0.58055788 0.24175736 2828301
1.3743401 0.58211261 0.24175024 3222809
1.3629206 0.57295382 0.23981881 1447944
1.3646541 0.57396722 0.24149081 1513222
1.3683267 0.57930934 0.23980042 2565382
1.3701823 0.58100915 0.24006474 3025687
1.3723336 0.58205307 0.23975706 3486487
1.3607302 0.57334846 0.24006268 1447686
1.3637559 0.57886398 0.23894954 2564618
1.3663185 0.57983875 0.23853087 2959892
1.3681729 0.58159804 0.23825285 3420438
1.3568506 0.57251287 0.23778313 1447173
1.3586246 0.57279754 0.23880315 1513222
1.3608506 0.57792377 0.23672292 2236430
1.3626831 0.57914352 0.2372818 2631185
1.3641639 0.58076835 0.23653725 3815713
1.35309 0.57177973 0.23627985 1315588
1.3550575 0.57201654 0.2369563 1446915
1.3588979 0.57854891 0.23565936 2696721
1.3608401 0.57991827 0.23509464 3487007
1.3485662 0.57163131 0.23510769 1381380
1.3508053 0.57157815 0.23512489 1381380
1.3546667 0.57701516 0.23429951 2235911
1.3568351 0.57933766 0.23361149 3289622
1.3584559 0.58006597 0.23392126 3355668
1.346981 0.57099187 0.23350066 1381383
1.3510377 0.57641739 0.23263517 2301194
1.3527718 0.57857859 0.23201159 2828565
1.3546033 0.57952905 0.2319293 3421469
1.3435318 0.57059705 0.23188758 1315845
1.347091 0.57548213 0.23146001 2038279
1.3490024 0.57730055 0.23047981 2630674
1.3509734 0.57876146 0.23029131 3355926
1.3395958 0.569929 0.2301057 1250055
1.3415897 0.57008964 0.22970521 1185025
1.3434751 0.57495719 0.22923106 2038533
1.3453846 0.57624918 0.22908476 2433294
1.3471389 0.57835573 0.22884271 3289367
1.3489454 0.57918525 0.22960138 3487258
1.336026 0.56888795 0.2282109 1184773
1.3375652 0.5693506 0.22889349 1184773
1.3394604 0.57470286 0.22799832 1973001
1.3412492 0.57491839 0.22768366 2104329
1.3432729 0.57764292 0.22714046 3157785
1.3456709 0.57808924 0.22662771 3552796
1.3313564 0.56788588 0.22709414 1250055
1.3339351 0.56845027 0.22718787 1250052
1.3377829 0.57401943 0.22605914 2038793
1.3395261 0.57671368 0.22554696 3091481
1.3413579 0.57747877 0.22578418 3487008
1.327534 0.56754172 0.22576493 1250052
1.3294305 0.56772518 0.22606108 1250051
1.3335793 0.57335049 0.22427511 2104584
1.3353951 0.57587498 0.22408739 2894358
1.337708 0.57680207 0.22415707 3355168
1.3234215 0.56697726 0.22406197 1184264
1.3260305 0.56706583 0.22405797 1184263
1.3298088 0.57249492 0.22313115 1710085
1.331611 0.57429755 0.22259837 2631186
1.3337235 0.5760504 0.2222892 3223322
1.3223593 0.56624597 0.22224343 1118726
1.3261226 0.57175499 0.22150931 1644038
1.3278918 0.57365495 0.22105414 2499348
1.3299402 0.57499754 0.2209053 3157531
1.3187633 0.565835 0.22100478 1184258
1.3205075 0.56556803 0.22028542 1118982
1.3223698 0.57119262 0.22038385 1578754
1.3235999 0.57225794 0.21921957 1973001
1.3259449 0.57435334 0.2191368 2960155
1.3146136 0.56516171 0.21852532 1249798
1.3163917 0.56555045 0.21941382 1184260
1.3181851 0.57030737 0.21838659 1447170
1.3203148 0.57061386 0.21843749 1578244
1.3224027 0.57406259 0.21759149 2828310
1.3241363 0.57447815 0.21798754 3091995
1.310817 0.56457281 0.21777812 1118725
1.3128726 0.56478345 0.21768424 1184259
1.3144269 0.56951213 0.21703544 1511944
1.3169988 0.56974924 0.21655649 1512452
1.3185089 0.57343018 0.21620247 2762774
1.3202686 0.57359409 0.21600425 2894358
1.3065755 0.56346285 0.21572977 1118979
1.3087418 0.564147 0.21616107 1184263
1.3122575 0.56880409 0.21504894 1577990
1.3143702 0.57251453 0.21400866 2762771
1.3166711 0.57310379 0.21466857 2828566
1.3033307 0.56254089 0.21495122 1185027
1.3051939 0.56285465 0.21520975 1119234
1.30899 0.56818867 0.21346253 1446915
1.3106575 0.57169735 0.21264929 2763027
1.3126955 0.57234156 0.21324089 2828564
1.2988636 0.56229866 0.21303499 1316359
1.3016224 0.56231946 0.21305448 1250564
1.3046412 0.56741327 0.21226549 1512709
1.3067017 0.56994826 0.21126172 2433809
1.308881 0.57164752 0.21126747 2763030
1.3112093 0.57232666 0.21125633 2499347
1.2909079 0.55568719 0.212742 16514250
1.2931569 0.55713618 0.21226308 11845789
1.2952005 0.55896801 0.21140876 1253155
1.2973683 0.56132025 0.21105242 922127
1.2995884 0.56198651 0.21100593 1250821
1.3013144 0.56658185 0.21040946 1512710
1.3025732 0.5688498 0.21016249 2433812
1.3050673 0.57064784 0.20962369 2763031
1.3073804 0.57093692 0.20919517 2499596
1.2882921 0.55459929 0.21090853 16513733
1.2899655 0.55510092 0.21109086 16645322
1.2907406 0.55936301 0.21099812 16644040
1.2930825 0.56131387 0.20955682 10856589
1.2947845 0.56386721 0.2092984 8553072
1.2970583 0.56542897 0.20890975 6775367
1.29984 0.56716204 0.20899153 2498571
1.3015597 0.56966877 0.20833284 2696981
1.2839656 0.55332494 0.20943704 16579525
1.286288 0.5541755 0.20957297 16382402
1.2874703 0.55823207 0.20833609 16774849
1.2901297 0.55885148 0.20916677 16644039
1.2917535 0.56245244 0.20755979 16184265
1.2937639 0.56359786 0.20770448 14144689
1.2958345 0.56556952 0.20756108 7697241
1.2977872 0.56789225 0.20705545 2236947
1.2825837 0.55271244 0.20858902 16776130
1.2842678 0.55760491 0.20635355 16774334
1.2855649 0.55813307 0.20701009 16774844
1.2881026 0.5617677 0.20561725 16775379
1.2893875 0.56265843 0.20610738 16710608
1.2864529 0.56214756 0.20460877 16710095
1.2881844 0.56319869 0.20373839 16711383
1.611029 0.616606 0.35674265 13946806
1.6061518 0.61412013 0.35590309 15526629
1.6079775 0.61582178 0.35623521 13683900
1.6107991 0.61840612 0.35510719 12500133
1.6131105 0.62237155 0.35389882 13092002
1.6025887 0.61300534 0.35513577 15526893
1.6048174 0.61539572 0.3549867 13487301
1.6064821 0.61808693 0.35345852 13158841
1.6085092 0.61987299 0.3534115 13289650
1.6109343 0.62251282 0.35362849 12960419
1.5970795 0.61165023 0.35377246 15395817
1.5988798 0.61180401 0.3537029 15263978
1.6011446 0.61453742 0.35313967 13224648
1.6027219 0.61678082 0.35266 13224891
1.6044238 0.61943477 0.3528977 13421498
1.6063485 0.62001622 0.35298347 13487548
1.5920376 0.61019701 0.35304707 15922161
1.5948634 0.61090368 0.3522076 15658733
1.5973058 0.61400533 0.35113034 13487563
1.5990438 0.61580497 0.35144076 13487810
1.6008544 0.61837238 0.35079023 13553597
1.6031935 0.6197353 0.351441 13422010
1.5912611 0.60962528 0.35066524 15921903
1.5934184 0.61292243 0.34977239 13684942
1.595006 0.6148802 0.35003808 13816777
1.5971507 0.61637974 0.34945792 13816773
1.5988473 0.61819017 0.34940779 13685186
1.5855701 0.60778409 0.34843615 16185079
1.5876408 0.60887355 0.34909961 16119284
1.589502 0.61201924 0.34909594 13882321
1.5914642 0.61386681 0.34818521 14145740
1.5933073 0.61585945 0.34825581 14014152
1.5952141 0.61725628 0.34786561 13816772
1.5815306 0.60757792 0.34759861 16250873
1.5835382 0.60804689 0.34768361 16316663
1.5854598 0.6113053 0.34706777 14079955
1.5876536 0.61292881 0.34652728 14277071
1.5893006 0.61457568 0.34687299 14211531
1.5914688 0.61617494 0.34644398 13948616
1.579622 0.6074239 0.34624493 15790578
1.5815125 0.61011285 0.34537259 13684944
1.5834671 0.61033046 0.3455804 14211283
1.5849988 0.61398011 0.34505355 14408908
1.5876831 0.61482459 0.34504271 14145738
1.5761572 0.60723788 0.34496713 12700138
1.5779694 0.60843772 0.34416521 10792892
1.5796769 0.60942811 0.34348762 10133656
1.5818633 0.61320382 0.34347251 13422272
1.5834668 0.61391336 0.34324265 13619394
1.5741366 0.60766947 0.34314132 5007488
1.5759981 0.60930723 0.34187388 4411467
1.5775871 0.61239004 0.34136012 7239533
1.5798831 0.61358762 0.3417505 9935758
1.5720081 0.60873049 0.34139448 2175027
1.5739969 0.61014867 0.34001839 1383184
1.5756661 0.61313117 0.34022933 4672829
1.5777799 0.61398661 0.33963466 3554854
1.5680037 0.60891426 0.3399699 1252121
1.570459 0.60964668 0.33896935 1646100
1.5715801 0.61198759 0.33870021 2369559
1.5741684 0.61410725 0.33803365 2566677
1.5754718 0.615556 0.33696929 2632460
1.5664147 0.60943818 0.33787957 2106403
1.5683303 0.61117744 0.33740076 2369045
1.5698184 0.61328763 0.3364284 2763544
1.5718095 0.61534721 0.33610979 2763792
1.5739675 0.61675078 0.33520317 3224082
1.5621102 0.60934108 0.33555114 2368543
1.5648065 0.6096651 0.33536369 2303263
1.56563 0.61235529 0.33555049 2894612
1.5683589 0.614721 0.33463803 2828828
1.5702891 0.61702096 0.33381939 3486742
1.572448 0.61722928 0.3337636 3618322
1.5606198 0.60944825 0.33364314 2171673
1.5626161 0.61112577 0.33394676 2500375
1.5639988 0.61269444 0.33324596 2960146
1.5661478 0.61580217 0.33291477 2960411
1.5679893 0.61735672 0.33260271 3486487
1.5563484 0.60826147 0.33285102 2237468
1.5585778 0.60897559 0.33276972 2171930
1.5604073 0.61267304 0.33219859 2828817
1.5630757 0.61578089 0.33130291 2763294
1.5644693 0.6170184 0.33106986 3354901
1.5530484 0.60715455 0.33101141 2171929
1.5556159 0.60757554 0.33076698 2171673
1.5567319 0.61178637 0.33014107 2894609
1.5587773 0.61449224 0.32953057 2828824
1.560854 0.61597598 0.32909858 3091992
1.5624018 0.6171068 0.32972473 3420693
1.549278 0.60679114 0.3295964 2236952
1.5510499 0.60687286 0.32911709 2106134
1.5529482 0.61140829 0.32807344 2763282
1.5545504 0.61237097 0.3284215 2828821
1.5564619 0.61511821 0.32771474 2960408
1.5587629 0.61594552 0.32762238 3420692
1.5454099 0.60622257 0.32717565 2105878
1.5471694 0.60654002 0.32802066 2171668
1.5490746 0.61030924 0.32632619 2829077
1.55098 0.61079115 0.3272261 2828817
1.5527885 0.61421967 0.32610887 3025945
1.5551186 0.61556739 0.32619599 3354901
1.5405569 0.60511601 0.32633132 2368030
1.5433474 0.60585922 0.32632941 2171419
1.5451249 0.6093986 0.32454488 2894612
1.5471538 0.60977882 0.32544911 2894612
1.5492527 0.6137411 0.32488242 3157530
1.5508862 0.61401373 0.32427704 3223318
1.5371261 0.60467321 0.32480392 2171926
1.5395898 0.60475796 0.32469344 2171417
1.5432923 0.60912842 0.32351521 2894613
1.5452015 0.61280048 0.32283169 3091484
1.5472875 0.61330843 0.32343388 3091738
1.5356174 0.60422653 0.32313678 2040341
1.5396669 0.60869884 0.32254392 2894610
1.541437 0.61226666 0.32102004 3157532
1.5432792 0.61273015 0.32176945 3223320
1.5316902 0.60353923 0.32155758 1974543
1.5341454 0.60367042 0.32151762 2105619
1.5354962 0.60780793 0.32084158 2894861
1.5393145 0.6121546 0.31988329 3223578
1.5418985 0.61213326 0.31973839 3420952
1.5282645 0.60296005 0.31983119 1909013
1.5300226 0.60310727 0.32013857 1909008
1.5316961 0.60715342 0.31920293 2829325
1.5354509 0.61132789 0.31830901 3223579
1.5371859 0.61214173 0.31917202 3421208
1.524714 0.6020872 0.3178553 1843467
1.5264809 0.60279918 0.31896731 1974799
1.5279301 0.60608304 0.31716305 2960403
1.5300558 0.6064871 0.3175557 2894608
1.5317706 0.61026776 0.31649637 3289116
1.5332896 0.6110844 0.31645897 3421204
1.5221968 0.60218632 0.31675771 1843216
1.5244119 0.60539454 0.31532767 3026192
1.525997 0.60591978 0.31608349 3025938
1.5280275 0.60980564 0.31520098 3354907
1.5298924 0.61010349 0.31574273 3485983
1.5184276 0.60194868 0.31510264 1711375
1.5200827 0.60348731 0.31464213 2303246
1.522279 0.60503232 0.31396928 2960399
1.5237563 0.60906839 0.31374845 3355167
1.5257484 0.60953116 0.31385058 3420697
1.5146554 0.60070515 0.31336173 1645835
1.5166287 0.60140079 0.31384358 1580303
1.517796 0.60450876 0.31282258 2894862
1.5193435 0.60808069 0.31195274 3618322
1.5222085 0.60895467 0.31209731 3486744
1.5107789 0.60014439 0.31200209 1514763
1.5128016 0.60046458 0.31181794 1580297
1.5144966 0.60368568 0.31153855 2829074
1.5182838 0.60837668 0.31052983 3552538
1.5069778 0.60010564 0.31119072 1580300
1.5088534 0.59961259 0.31030792 1645834
1.510923 0.60285664 0.30980748 2894607
1.5145867 0.60764104 0.30891663 3552281
1.5166104 0.6081655 0.30928752 3486752
1.5052443 0.59957618 0.30881631 1449231
1.5069853 0.60199428 0.30804566 2894355
1.5086837 0.60231465 0.3087351 2828562
1.5110509 0.60679376 0.30683613 3618328
1.5127456 0.60733837 0.30763209 3618077
1.4983592 0.5976215 0.30791676 1645582
1.5013473 0.59845895 0.30731544 1645330
1.5032234 0.60060066 0.30706084 2368790
1.5056684 0.60176128 0.30632588 2960145
1.5067694 0.60586315 0.30566329 3684119
1.5085757 0.60670471 0.30637145 3749659
1.495175 0.59687418 0.30547205 1710870
1.4973828 0.596802 0.3058379 1645579
1.4993701 0.59964675 0.30536255 2500110
1.5010927 0.60111827 0.30568925 2960146
1.5029445 0.60499448 0.30409443 3486997
1.5046929 0.60559934 0.30430359 3486748
1.491346 0.59517634 0.3042509 1580043
1.4935839 0.59614116 0.30414313 1580047
1.4971541 0.60042644 0.3034983 3025935
1.4991761 0.60451913 0.30278969 3552279
1.5012608 0.60484451 0.30249429 3223319
1.4875897 0.59461284 0.3031022 1711112
1.4897101 0.59510285 0.30248821 1645832
1.4933274 0.5997985 0.30200794 2960399
1.4954953 0.60335553 0.30139235 3815187
1.497378 0.60431707 0.30120617 3223323
1.4994004 0.60485607 0.30114362 3881505
1.4869332 0.59371555 0.30080265 1645832
1.4880277 0.5979104 0.29974514 2763792
1.4897776 0.59886849 0.3004576 2829073
1.4912969 0.60210019 0.2987361 3881485
1.4933702 0.60369039 0.29959005 3354651
1.4955345 0.60455471 0.2993651 3815714
1.4859412 0.59793437 0.29870316 2829075
1.4895887 0.60250312 0.29800999 3223321
1.4913787 0.60426807 0.29730201 3815971
1.4822141 0.59728897 0.29698113 2828819
1.4838451 0.59928739 0.29719859 3420699
1.486046 0.60175097 0.29661641 3223577
1.4878665 0.60330784 0.29616997 3749667
1.4782214 0.59713328 0.2956084 2829331
1.4804838 0.5967654 0.29501784 2763536
1.4821019 0.60091972 0.29486585 3355162
1.4839704 0.60203648 0.2947678 3552799
1.4860387 0.60311627 0.29469022 3947296
1.4735978 0.59662116 0.29450661 2894351
1.475789 0.59661889 0.29411298 2829327
1.4778409 0.60028636 0.29313684 3552275
1.4800051 0.60136855 0.29321921 3618336
1.4826112 0.60219085 0.29268628 4012835
1.4700232 0.59548199 0.29282299 2829069
1.472231 0.59595633 0.2927098 2763535
1.4741961 0.59950972 0.29168373 3618328
1.4761186 0.60031879 0.29132211 3486748
1.4779787 0.60143709 0.29153877 4012834
1.4661877 0.59492934 0.29100534 2631951
1.4685756 0.59491503 0.29101554 2763535
1.4704915 0.5977664 0.29017723 3618325
1.4724382 0.59954381 0.28995794 3552031
1.4743965 0.6012212 0.28984356 4144167
1.4648931 0.59392637 0.28930479 2829325
1.4671497 0.59432364 0.28917021 3026188
1.4683971 0.59883869 0.28851953 3486746
1.4704225 0.60013413 0.28879163 3815458
1.4613359 0.59330547 0.28788134 2763280
1.4633604 0.59336722 0.28750998 2894860
1.4648366 0.59785777 0.2866967 3815193
1.4665434 0.59919226 0.28700113 3749921
1.4572315 0.59236145 0.2857101 2894607
