# .PCD v0.7 - Point Cloud Data file format
VERSION 0.7
FIELDS x y z rgba
SIZE 4 4 4 4
TYPE F F F U
COUNT 1 1 1 1
WIDTH 1155
HEIGHT 1
VIEWPOINT 0 0 0 1 0 0 0
POINTS 1155
DATA ascii
1.6599618 0.50525653 0.022184312 9673894
1.6619434 0.50913721 0.021791875 9805736
1.6414744 0.48241085 0.025132954 8882565
1.6434177 0.48431128 0.024042845 8750979
1.6447545 0.4868007 0.023909688 8750981
1.646029 0.48927721 0.024088979 8948360
1.647275 0.49128351 0.02428782 9014671
1.6494411 0.49427062 0.02358371 9014928
1.63924 0.48300385 0.024146914 8619138
1.6407806 0.48519644 0.02405864 8750723
1.6427773 0.48828265 0.023593545 9013636
1.6360248 0.48191354 0.02379185 8619135
1.7119344 0.5506621 0.027537882 10856105
1.707301 0.54695463 0.027083099 11053226
1.7087919 0.54896456 0.027218819 10987180
1.7094713 0.55127573 0.027157426 10921642
1.7119585 0.55415028 0.027243555 10790312
1.7137102 0.55576688 0.027048707 10724520
1.6966174 0.5357402 0.028815746 11185070
1.6984122 0.53642255 0.029132843 11119278
1.7003349 0.53929114 0.028310418 11052972
1.7016866 0.54262298 0.027121365 11052970
1.7034994 0.54519963 0.026749253 10987434
1.705116 0.54759836 0.026593983 11184812
1.7057021 0.54977763 0.026716352 11052970
1.707141 0.55184114 0.026918828 10921386
1.7100434 0.55505502 0.022900105 11446942
1.7109075 0.55682069 0.023021638 11118495
1.7125734 0.55953038 0.022303104 11512221
1.6898208 0.52888906 0.029243886 11382448
1.6913313 0.53197956 0.02902329 11316656
1.6932327 0.53358209 0.029130697 11316656
1.6949319 0.53594881 0.028840303 11250605
1.6979035 0.53970993 0.028186917 11316144
1.6988989 0.54247212 0.027631104 11184812
1.7003801 0.54605842 0.026337087 11053227
1.7026079 0.54778254 0.024323165 11447461
1.7046329 0.55062765 0.022926986 11512994
1.7063307 0.55295193 0.022747219 11184547
1.7076044 0.55548233 0.022238135 11446945
1.7096803 0.55796492 0.021301925 10724259
1.7110664 0.56058472 0.021174848 10461603
1.7132623 0.56243569 0.020918667 10395551
1.6849734 0.52507007 0.028763115 11316399
1.6859993 0.52627599 0.029036701 11382449
1.6874673 0.52969515 0.02856797 11382192
1.6897881 0.53224802 0.025056422 11185836
1.6903338 0.53387153 0.025521159 10922667
1.6927505 0.53675282 0.024170935 11710373
1.6943955 0.53944606 0.02352488 11053481
1.6961114 0.54153925 0.023255229 11250342
1.6981159 0.54379433 0.023170531 11381926
1.6993819 0.5466451 0.022941947 11250341
1.7012621 0.54958904 0.022325993 11381670
1.7026354 0.55166847 0.021825731 10921895
1.704204 0.55377942 0.021272898 10658726
1.7063451 0.55666417 0.020945013 10330534
1.7077368 0.55940878 0.020823777 10264741
1.7095833 0.56143582 0.017318368 9147546
1.7101179 0.56339556 0.017202675 8950426
1.7121155 0.56636828 0.017135262 8949911
1.7138573 0.56948829 0.016765058 8949909
1.6676537 0.50304538 0.031591117 10855332
1.6710109 0.50782406 0.030641019 11052715
1.6728052 0.51038986 0.030188441 11184557
1.6744815 0.51303357 0.029731572 11119023
1.6760497 0.5156312 0.029077888 11053228
1.677817 0.51815677 0.028636813 11184556
1.6795814 0.52110022 0.027705908 11250349
1.6809024 0.52285087 0.028194427 11316141
1.6826874 0.52524841 0.026882172 11776170
1.6841761 0.52797598 0.024948359 11907496
1.6857576 0.53001547 0.024680257 11841960
1.6876074 0.53263557 0.024462163 11645097
1.6887947 0.53524268 0.023970425 11644840
1.690635 0.53746974 0.02362895 11447464
1.6926066 0.54022259 0.023030639 11184809
1.6941812 0.5427236 0.022658885 11118760
1.6956099 0.54489148 0.022460699 11512996
1.6975707 0.54738486 0.021374404 10724776
1.6982797 0.54965138 0.019930542 10264484
1.7005696 0.55213636 0.018951893 9607584
1.7020301 0.55441171 0.018324614 9344928
1.7031357 0.55657703 0.017885983 9344671
1.7049074 0.55957174 0.017294705 9147292
1.7071952 0.56144214 0.017260969 8950681
1.7086995 0.56419528 0.017107725 8884632
1.6603744 0.49679127 0.032038629 10197401
1.6627665 0.49909824 0.031433105 10394781
1.6641681 0.50187308 0.031583011 10723488
1.6656816 0.50314206 0.031633794 10855077
1.6675066 0.50639349 0.031127036 10855336
1.6696295 0.50920242 0.030708373 11118509
1.670948 0.51320833 0.029850066 11316145
1.6728295 0.51334584 0.029548407 11185069
1.6741161 0.51665974 0.027497351 11775651
1.6759374 0.51891983 0.026580691 11447462
1.677267 0.52178419 0.025672853 11710116
1.6790655 0.52334821 0.025244653 11775911
1.6805354 0.52615285 0.024969816 11579563
1.6819559 0.52858263 0.024422467 11447980
1.6838295 0.53114766 0.023852527 11316910
1.6852851 0.53339076 0.023448229 11316653
1.687606 0.53620046 0.022374749 11053485
1.6881754 0.53872007 0.022134602 10987691
1.6903179 0.54079735 0.020720184 10199205
1.6924205 0.5434469 0.019913852 10001826
1.6942233 0.5458172 0.019950986 10198690
1.6950519 0.54752171 0.018768311 9410464
1.6964654 0.55086392 0.018406749 9410720
1.6986936 0.55383325 0.018002987 9476512
1.7004914 0.55515468 0.01818198 9278879
1.653125 0.4884946 0.031905413 9671310
1.6544483 0.49038154 0.032085419 9868433
1.6559473 0.49245113 0.032304466 9934227
1.6572231 0.49545094 0.032225311 10131865
1.6592966 0.49789548 0.031211674 10263965
1.661494 0.50020093 0.031657338 10526366
1.6625569 0.50451404 0.028250992 10791337
1.6659657 0.50846124 0.027111173 10660007
1.6676196 0.51016712 0.026568055 10660007
1.6687458 0.51281965 0.026022136 11184804
1.6709965 0.51429331 0.026224077 11447457
1.6724944 0.51709253 0.02543056 11512995
1.6738291 0.51975739 0.024939835 11053737
1.6758174 0.52232885 0.024146438 11316138
1.6773233 0.52490705 0.024073839 11250861
1.6791083 0.52738899 0.023139358 11053484
1.6800725 0.5294795 0.022901416 11381417
1.6817168 0.53195351 0.021993637 10791084
1.6832922 0.53392798 0.020909965 10527657
1.685169 0.53651845 0.019800901 9936551
1.6866831 0.53947681 0.019414485 9542566
1.6882486 0.54154682 0.019359708 9476772
1.6904086 0.54404718 0.019318819 9410977
1.6922841 0.54634535 0.01876986 9410720
1.6473429 0.48498183 0.031603038 9605258
1.6491201 0.48593724 0.031535923 9671053
1.6507193 0.48888645 0.031748593 9802640
1.6515272 0.49099815 0.031146884 9803153
1.6539284 0.49406311 0.030437469 9935255
1.6551522 0.49648783 0.029130399 10002331
1.6572062 0.49827105 0.029015362 10527643
1.6593457 0.50109583 0.028892159 10528677
1.6605407 0.50324577 0.026883662 11053216
1.6620569 0.50530165 0.026376605 10921635
1.6634138 0.50802481 0.025898218 11052967
1.6654336 0.51047945 0.025532365 11446947
1.6666867 0.51316941 0.025126874 10922155
1.6687453 0.51573741 0.024672866 11512742
1.6700695 0.51829422 0.024313152 10856877
1.6721729 0.52036893 0.023070812 10790571
1.6735884 0.52299738 0.021822989 10593449
1.6751189 0.52559036 0.020956159 10133671
1.6769068 0.52737314 0.020454943 9805480
1.6782986 0.53020912 0.020435154 9805481
1.679334 0.53237844 0.020063698 9871275
1.6815602 0.53468901 0.019802153 9739945
1.6442708 0.48233822 0.031601787 9539723
1.6453866 0.4844524 0.031512439 9605514
1.64693 0.48715529 0.030189037 9474697
1.6491287 0.4892765 0.030124009 9474956
1.6506232 0.49235141 0.028502464 10196868
1.6517892 0.49470198 0.028110921 10525838
1.6536051 0.4966571 0.026966989 10788495
1.6550225 0.49931473 0.026679933 10920344
1.6568813 0.50164759 0.026263475 10789791
1.6583109 0.50419021 0.026098132 11380638
1.6600276 0.50651419 0.02555269 11052965
1.6614953 0.50900078 0.025232255 11119274
1.663413 0.51141411 0.024248004 10922407
1.6649721 0.51420283 0.022657096 10199466
1.6670823 0.51607561 0.021532714 9739691
1.6674548 0.51829749 0.021304846 9805482
1.6695606 0.52105153 0.02094233 9673895
1.6715336 0.52373803 0.020681083 9673895
1.6726344 0.52602291 0.020217121 9805225
1.6421239 0.48319715 0.028823018 9735545
1.6436815 0.48546267 0.028748095 9408386
1.6451072 0.4879238 0.027860165 9998975
1.6465865 0.4902308 0.027380407 10065290
1.6483305 0.49249974 0.02704078 10262414
1.6499016 0.49523064 0.026714444 10263447
1.6517903 0.49751186 0.026654959 10591643
1.6525586 0.49972695 0.026379466 10396326
1.6545607 0.50231552 0.024118185 9805737
1.6566749 0.50498784 0.022626936 9673895
1.6586212 0.50727886 0.022326589 9608358
1.6592296 0.50996381 0.022070885 9937324
1.6610768 0.51225519 0.021793067 9739945
1.6630008 0.5143283 0.021651149 9739946
1.6649597 0.51715541 0.021415651 9739692
1.6381454 0.48111343 0.028260708 9604736
1.6398367 0.48381332 0.027769864 9736323
1.6417149 0.48645324 0.02719146 9802634
1.643072 0.48881012 0.026399076 9802380
1.6446139 0.49111664 0.025684536 9343894
1.6467441 0.49349907 0.024084389 9080466
1.647644 0.49650568 0.02343756 9212824
1.6493232 0.49838293 0.022975981 9147546
1.6515023 0.50043929 0.022897959 9344415
1.6525409 0.50373143 0.022608697 9542053
1.6546514 0.50582701 0.022405803 9673896
1.6364022 0.48220828 0.02621913 9211016
1.637736 0.48451912 0.024793983 9013637
1.6395248 0.4871822 0.02402097 8882823
1.6408226 0.48941588 0.023992598 9013897
1.642913 0.49181244 0.023981452 9079951
1.6446307 0.49446669 0.024245083 9212055
1.6343942 0.48344257 0.024125755 8750465
1.6359551 0.48548457 0.024244606 8750724
1.6376265 0.48832682 0.023863137 8948104
1.6392002 0.4898085 0.023788989 9079944
1.6310575 0.48107171 0.023918033 8618881
1.709305 0.55360186 0.027327955 10921899
1.7101096 0.5557344 0.027582705 10921897
1.7118655 0.55831623 0.027312517 10789799
1.7135038 0.56060743 0.027335584 10592932
1.7056192 0.55197054 0.026834011 10921640
1.7070384 0.55400854 0.027116716 10921641
1.7078111 0.55622047 0.027357757 10856104
1.7090925 0.55831063 0.027716637 10855846
1.6913035 0.53526223 0.028754592 11382449
1.6928498 0.53742009 0.028888941 11316397
1.6954175 0.53993213 0.02832967 11250606
1.6964018 0.54286659 0.027701557 11316142
1.698311 0.54565704 0.027006507 11184813
1.6992643 0.54823369 0.026567936 11119022
1.7017674 0.54947186 0.026811361 10987693
1.7036642 0.55223137 0.027057648 11053484
1.7044523 0.55477196 0.023517251 10725030
1.7057489 0.55608624 0.023363054 11250337
1.707744 0.55942672 0.022586346 11052961
1.709511 0.5619868 0.022572577 11643550
1.7111793 0.56469691 0.022118449 10986654
1.7130677 0.56705147 0.021364987 10658206
1.6858406 0.53122956 0.028894246 11447985
1.6880914 0.53400058 0.028930724 11316401
1.6896243 0.53541851 0.028826177 11382193
1.6905922 0.53802478 0.028525114 11250607
1.6922882 0.54069412 0.027987838 11316144
1.6940384 0.54344398 0.027427495 11316141
1.6959538 0.54629785 0.026536286 11250605
1.6977844 0.54871941 0.02480197 10922411
1.6993626 0.54968071 0.022924423 11316390
1.7012603 0.55332047 0.023186743 11250598
1.7023344 0.55550754 0.022330582 11119015
1.7042328 0.55775458 0.02214092 11446947
1.7056576 0.56017768 0.02164185 10855845
1.7076207 0.56208479 0.020713508 10264484
1.7090466 0.56489742 0.020306349 10133411
1.7110237 0.56705332 0.020208478 10067102
1.7129163 0.57029337 0.019963682 10263448
1.7138647 0.57210284 0.018563926 9279130
1.6798792 0.5254817 0.027929366 11579312
1.6814605 0.5272575 0.028324187 11447985
1.6830792 0.52954561 0.028434932 11382193
1.6836282 0.53171724 0.02865988 11447474
1.6858592 0.53368509 0.028653562 11316400
1.6892126 0.53893721 0.02416569 11710373
1.6906652 0.54211563 0.023829222 11381925
1.6925551 0.54380506 0.023492455 11578531
1.6940736 0.54628789 0.023122251 11644326
1.6958419 0.5483318 0.022706032 11119528
1.6972619 0.55140018 0.02233547 11578534
1.698959 0.55363637 0.021820784 11250088
1.7009119 0.55635196 0.02135545 10790312
1.7019076 0.558801 0.020542264 10592934
1.702898 0.56058913 0.020318329 10789282
1.7054911 0.56295836 0.019968927 10657953
1.7073002 0.56611973 0.017095506 9082011
1.7092913 0.56765258 0.016953945 8950167
1.7106954 0.57048708 0.016957462 8884371
1.7112741 0.57265145 0.017011106 8884373
1.7133763 0.575149 0.016176999 9015956
1.6646354 0.50565892 0.03149271 10921384
1.6655889 0.50823569 0.031054139 11052971
1.668303 0.51089293 0.030266166 11184302
1.6696824 0.51371223 0.029511929 11184300
1.6719829 0.51602185 0.029133618 11184815
1.6729661 0.51888901 0.028483808 11316145
1.6745203 0.52129304 0.028200626 11447473
1.6768098 0.52268094 0.028107166 11381681
1.6772832 0.52512074 0.02750659 11316655
1.6792588 0.5281325 0.026659846 12236203
1.6812398 0.53045762 0.02486968 11973546
1.6824355 0.53276432 0.02451694 11907757
1.6839271 0.53511465 0.024288356 11908010
1.685655 0.53738272 0.023979723 11513773
1.6870768 0.54018211 0.023623407 11579562
1.6888781 0.54234856 0.022894442 11119276
1.6902741 0.54495203 0.022537768 11250342
1.6924986 0.546987 0.021796465 10593962
1.6936034 0.5496552 0.020988822 10921641
1.6947873 0.55175483 0.020901382 11315370
1.6967348 0.55427456 0.019278944 10330274
1.6983168 0.55646813 0.018686652 9935777
1.700062 0.55913556 0.017538548 9344671
1.702226 0.56141686 0.017102122 9213598
1.7043687 0.56436074 0.0168401 9082012
1.7052275 0.5668878 0.016943455 9082011
1.7078891 0.56999546 0.016451776 9213337
1.6554121 0.49699622 0.032374799 10263451
1.6578307 0.49922806 0.03200084 10460829
1.6592377 0.5020898 0.032034457 10789539
1.6609501 0.50425059 0.031920314 10855589
1.6623878 0.50586009 0.031687498 10921384
1.6631706 0.50861657 0.031046391 11118508
1.6656163 0.5108887 0.030660808 11249838
1.6665639 0.51363349 0.029932082 11184300
1.6695062 0.51655746 0.028880596 11119019
1.6710491 0.51897001 0.02673018 11512998
1.6722497 0.52168256 0.026623964 11710374
1.6742955 0.5235436 0.025884628 11776167
1.67515 0.52638537 0.025205433 11579561
1.6774184 0.52845412 0.024846196 11842219
1.678854 0.53092265 0.024093688 11645359
1.6802052 0.5336113 0.02352345 11382961
1.6819959 0.53614122 0.023297071 11382703
1.683224 0.5386253 0.022170603 11185327
1.6850928 0.54040557 0.021921992 11119021
1.6868368 0.54329228 0.020708561 10527399
1.6881816 0.54528284 0.019070089 9410722
1.6898557 0.54770672 0.019351721 9804707
1.6922548 0.55016857 0.018439353 9344929
1.6945107 0.55315423 0.01815629 9279392
1.6949358 0.55527383 0.018126845 9476259
1.6961282 0.557392 0.017943561 9542050
1.6979291 0.55907947 0.017679751 9476256
1.651283 0.49340254 0.031769276 10065811
1.6527014 0.49548894 0.031787217 10197657
1.6536573 0.49808857 0.032082736 10460831
1.6555482 0.49961513 0.03031683 10593699
1.657001 0.50223875 0.030203104 10659237
1.6588956 0.50422829 0.028191447 10660264
1.6596615 0.50654119 0.028120637 10857388
1.6622175 0.50927347 0.027224123 10922924
1.6641556 0.51212341 0.02680409 10857643
1.6652174 0.51488471 0.026270509 11513508
1.6672554 0.51722628 0.025411367 11316133
1.668702 0.51973128 0.025379658 11710115
1.6704218 0.52184761 0.0248155 11250859
1.6716703 0.524409 0.024224162 11447723
1.6735921 0.52674246 0.023832977 11447726
1.6750925 0.52921093 0.023455858 11579055
1.6766086 0.5313288 0.021972716 11053485
1.6772375 0.53287852 0.020359755 9937067
1.6799473 0.53604436 0.019607961 9871273
1.682005 0.53833085 0.019660413 9674407
1.6835667 0.54102933 0.019385695 9674151
1.6846759 0.54428327 0.019257247 9608358
1.6859492 0.54601824 0.019220829 9476516
1.6878189 0.54781598 0.019071281 9410723
1.6450675 0.48901868 0.03108263 9868435
1.6473974 0.49116579 0.031608939 9934227
1.6489795 0.49354693 0.030915618 10066327
1.6502361 0.49605653 0.030053377 10198941
1.6523144 0.49840873 0.028980374 10265506
1.6533673 0.5009492 0.028648198 10856352
1.6551758 0.50357884 0.027329445 10922148
1.6569179 0.5055688 0.026875675 11185060
1.6585519 0.50803584 0.026315868 11841441
1.6602505 0.51063234 0.02573806 11316393
1.6620585 0.51293367 0.025287926 11447722
1.6635725 0.51562864 0.024861455 11382187
1.6646993 0.51821065 0.024415433 11053484
1.6668661 0.52027833 0.024103582 11053484
1.6682127 0.52274215 0.024011254 10988206
1.6693826 0.52471024 0.020553887 9673896
1.6719841 0.52752799 0.020349264 9739688
1.6735379 0.52959341 0.020539105 9739687
1.6747065 0.53307194 0.020440757 9871273
1.6769128 0.53594834 0.019732118 9937320
1.6787481 0.5376907 0.019525409 9937322
1.6798824 0.53941059 0.019543409 9805994
1.6387874 0.48208317 0.031704545 9736332
1.640415 0.48465908 0.031199634 9671052
1.6421398 0.48714203 0.030684948 9671566
1.6435646 0.48922649 0.029948652 9606286
1.645367 0.49186063 0.028961658 9935245
1.6468281 0.49443042 0.028032064 10525834
1.6484993 0.49695739 0.027540207 10723477
1.6501579 0.49937555 0.02705133 10920860
1.6518059 0.50132579 0.0268507 11249053
1.6530162 0.50401413 0.026216149 10987429
1.654999 0.5064705 0.025984585 11381414
1.6569363 0.50889528 0.025356293 11316138
1.6578056 0.51126856 0.025091708 11251118
1.6601571 0.51402283 0.023218274 10790828
1.661527 0.51634234 0.02336067 10987435
1.6627865 0.5179674 0.02132529 10002861
1.6652988 0.52068573 0.021141887 9739690
1.6668755 0.52367294 0.020570576 9542310
1.6676126 0.5264287 0.0203951 9739689
1.670031 0.52799404 0.020358741 9739688
1.6368245 0.4830341 0.030001462 9342078
1.6385571 0.48540351 0.028675973 9736318
1.6397769 0.48784539 0.028506517 9933959
1.6419251 0.49022031 0.027883947 10065544
1.6436111 0.49317122 0.027414262 10394513
1.6446325 0.49533558 0.026848316 10526361
1.6463168 0.49750957 0.026618123 10330016
1.6477879 0.50010616 0.026548624 10658467
1.6499021 0.50204623 0.025560737 10395813
1.6514136 0.50468129 0.023068845 9608104
1.6532198 0.50819939 0.02208221 9805481
1.6550289 0.5094642 0.022090495 9674153
1.6555058 0.5115304 0.021994293 9871534
1.6575937 0.51435965 0.021744668 10003118
1.6595808 0.51715779 0.021366954 9871532
1.6606821 0.51888984 0.02134937 10068653
1.6624588 0.52078694 0.020897388 9805738
1.6328559 0.48120597 0.02910912 9341820
1.634865 0.48382512 0.028611302 9801597
1.6364107 0.48593169 0.027821481 9539975
1.6378944 0.48858014 0.026919365 10131339
1.6396863 0.49104193 0.026590466 10131604
1.64147 0.49342147 0.025187254 9934744
1.6426492 0.49550781 0.023818433 9080724
1.6440357 0.4982852 0.023654342 9410722
1.6464994 0.50038368 0.023352802 9476516
1.6479996 0.50285274 0.023170352 9608103
1.6496575 0.50627947 0.022667706 9542567
1.6511191 0.5089348 0.022109866 9937068
1.6529984 0.51049304 0.022010982 9871532
1.6309848 0.48177326 0.026410639 9802124
1.6323639 0.48400921 0.025564075 9473674
1.6340697 0.48674995 0.024805188 9276554
1.6359752 0.48912314 0.024290621 9277067
1.6377969 0.49132794 0.023995399 9014673
1.6394145 0.49428645 0.023794353 9212052
1.6408163 0.49636066 0.02365905 9278361
1.6417519 0.49854168 0.023525894 9344929
1.6291538 0.4827033 0.024295092 8619394
1.6307704 0.4849208 0.024154603 8750724
1.6323271 0.48781952 0.024037242 8882313
1.6343801 0.49039423 0.023627996 9079692
1.6366332 0.49346402 0.023199856 9211532
1.6258624 0.48109338 0.02422142 8618880
1.6271704 0.48303562 0.024269998 8881791
1.6289134 0.48615962 0.023702443 8816517
1.7099999 0.56010431 0.028324485 10198173
1.7120936 0.56262916 0.028212607 9803934
1.7139287 0.56464463 0.028310657 9804707
1.70461 0.55517554 0.02766782 10987434
1.7074591 0.55791259 0.028120995 10855589
1.6999664 0.55120319 0.027343988 11119277
1.7017281 0.55352378 0.027614355 10987692
1.7025597 0.55656761 0.027730286 10921641
1.7093056 0.56549335 0.02283603 11708829
1.7113396 0.56821764 0.022741973 11971217
1.7127787 0.57075524 0.022224009 11248791
1.6890064 0.53831285 0.028412819 11250864
1.6897901 0.54102111 0.028036594 11381936
1.6923047 0.54351944 0.027522206 11382191
1.6934876 0.54654551 0.026598752 11447727
1.6956547 0.54981846 0.026390493 11184813
1.697927 0.55218208 0.026997447 11119532
1.6992438 0.55479985 0.027408481 11053739
1.7029148 0.55974424 0.023165345 11250338
1.7046611 0.56203336 0.022743583 11119011
1.7059478 0.5643636 0.022292137 11447201
1.7076906 0.56701332 0.021988451 10723998
1.7095674 0.56927049 0.021108806 10657690
1.7108774 0.57160854 0.020647526 9935259
1.7121292 0.57420844 0.020196557 9935771
1.7138482 0.57637775 0.020055652 10001308
1.6817102 0.53189462 0.028679371 11382194
1.6834016 0.534015 0.028806448 11382193
1.6848623 0.53608668 0.028944254 11316656
1.6864809 0.53848404 0.028716266 11250862
1.6874249 0.54141563 0.027983963 11316399
1.6898309 0.54363668 0.027759075 11447728
1.6916206 0.54643786 0.027037978 11447727
1.6924682 0.54898751 0.026689231 11382192
1.6944582 0.55062777 0.024257958 11579048
1.6956772 0.55350548 0.022756696 11710115
1.6976882 0.55545294 0.022596359 11250856
1.6992316 0.55790067 0.022408724 11447205
1.7006013 0.56017494 0.022089362 11512740
1.7025867 0.56291288 0.021096826 10987429
1.7036746 0.56533259 0.021103859 10921893
1.7056789 0.56746095 0.020054281 10264481
1.7077833 0.57028955 0.020035744 10001310
1.708608 0.5723449 0.018341482 9147548
1.7108757 0.57506186 0.016933441 8687252
1.6753142 0.52687258 0.028367579 11579315
1.6771293 0.52913803 0.028498769 11513778
1.6797076 0.53158295 0.028376997 11447729
1.681023 0.53444725 0.028638065 11447983
1.6855633 0.54104376 0.02406162 11645098
1.6874057 0.54379761 0.023945212 11513255
1.6885124 0.54643267 0.023514152 11972772
1.6907228 0.54857349 0.022890925 11382185
1.6919503 0.55132157 0.022685289 11447720
1.6937048 0.55372012 0.0222857 11644582
1.6954358 0.55602068 0.021425366 10987690
1.6969124 0.55904949 0.02132827 11119273
1.6991681 0.56097084 0.020267665 10724261
1.7003803 0.56367397 0.018501699 10133153
1.7023458 0.56562263 0.018454969 10001567
1.7034341 0.56849265 0.016908586 9213339
1.7057625 0.57008934 0.017202318 9082010
1.7061872 0.57276189 0.016726375 8884632
1.7085866 0.57515872 0.016379356 8555926
1.6632105 0.51128066 0.030503988 11184303
1.6639377 0.51377338 0.030107498 11184304
1.6671902 0.51781482 0.029145777 11381935
1.6689291 0.52023232 0.02869457 11316142
1.670539 0.52290016 0.028166831 11513520
1.6724834 0.52545857 0.028111935 11579058
1.6741891 0.52812743 0.027307153 11448240
1.6756794 0.53030771 0.025879085 11186093
1.6774703 0.53239828 0.025056601 11252143
1.6791787 0.53463149 0.024430275 12367530
1.6803527 0.53715318 0.024207532 11842476
1.681862 0.53952384 0.023972571 11907758
1.6837664 0.54217362 0.023467839 11710892
1.6855072 0.54511577 0.022994518 11382185
1.6873127 0.54707366 0.021859467 10922155
1.6885822 0.54942697 0.021726489 10987948
1.6902105 0.55203962 0.021092296 10725292
1.6923647 0.55416715 0.019801557 10658726
1.6931738 0.55729079 0.01888454 10001828
1.6956931 0.55920357 0.018495977 10001572
1.6964586 0.56181312 0.017409623 9410720
1.6981273 0.56404984 0.017350376 9345182
1.6999518 0.56596428 0.017071426 9279389
1.7014157 0.56938004 0.016652346 9344924
1.7035986 0.57160348 0.016777813 9147805
1.6530825 0.49962157 0.032200873 10592418
1.6546565 0.50205112 0.031837344 10789284
1.6558179 0.50380939 0.032195687 11052711
1.6575116 0.5060665 0.032014251 11118761
1.659187 0.50911099 0.031083107 11250093
1.6608046 0.5115568 0.030590296 11250096
1.6616602 0.51435256 0.029823899 11250097
1.6641849 0.51683849 0.028426349 10987947
1.666047 0.51895338 0.027639568 10988203
1.6665533 0.52119452 0.027575254 11119531
1.6685694 0.52354836 0.026500762 11316906
1.6704268 0.52623051 0.025091708 11973286
1.6719924 0.52888674 0.024964094 11711146
1.6736526 0.53091371 0.024500608 12170666
1.6755987 0.53327405 0.023872674 11645616
1.6770158 0.53578836 0.023559093 11711151
1.6785889 0.53813368 0.022910237 11842223
1.6799389 0.54036343 0.02245903 11316912
1.6817902 0.54309148 0.021549821 10922672
1.683262 0.54533893 0.021361053 11184554
1.6844916 0.54726481 0.020160913 10396326
1.6866343 0.55005562 0.019106507 9739171
1.6887457 0.55335599 0.017972231 9410722
1.6900877 0.55481046 0.018340528 9476770
1.6914281 0.55791891 0.018073499 9476514
1.6935418 0.56152654 0.01725328 9608101
1.6473323 0.49534294 0.031890631 10328988
1.6491358 0.49812469 0.031996489 10592417
1.6506418 0.5003953 0.031783581 10724004
1.6522739 0.50272524 0.030344546 10790310
1.654881 0.50672787 0.030114055 11119789
1.6568143 0.50947928 0.028043151 10923695
1.6587242 0.51288998 0.026923358 11120562
1.6600628 0.51439011 0.026651919 11513770
1.6616729 0.51719815 0.026336253 11513764
1.6636295 0.51943755 0.025747776 11382182
1.6649554 0.52187204 0.024907708 11710376
1.6671765 0.52409732 0.02426511 11447723
1.6682628 0.52688295 0.024219871 11644844
1.6701244 0.52915943 0.023680806 11316656
1.671918 0.53178573 0.023288846 11645103
1.6740402 0.53474438 0.023277819 11841968
1.6744771 0.53615212 0.021655262 10397872
1.6758674 0.53841692 0.019855917 9937321
1.6782635 0.54128027 0.019905627 10199979
1.6799771 0.54409981 0.019285619 9937579
1.681778 0.54578704 0.019021809 9805736
1.6831257 0.5489105 0.018823504 9542563
1.6852227 0.55218983 0.018330336 9476772
1.6417632 0.49141389 0.031388879 10065558
1.6441724 0.49366346 0.031593859 10197400
1.645609 0.49637002 0.031875968 10460575
1.6468655 0.49811766 0.029038787 10397090
1.648533 0.50117534 0.028566241 11185314
1.6501009 0.50347298 0.028304517 11382181
1.6518114 0.50548327 0.028235197 11448230
1.653361 0.50792009 0.027121186 12039079
1.6548703 0.51046473 0.025963962 11710379
1.6566769 0.5129658 0.025806844 12235946
1.658178 0.51541501 0.025035143 11579055
1.6598524 0.51780903 0.024790287 11185070
1.661388 0.52034098 0.024608135 11446953
1.6629286 0.5227291 0.024108589 11053486
1.6649355 0.52492863 0.023868799 11053999
1.6663369 0.5275501 0.021827698 10659243
1.6680881 0.52986932 0.02041471 9739689
1.6696744 0.53228384 0.020373106 9871272
1.6722617 0.53484052 0.020318389 9937324
1.6726137 0.5374741 0.019967675 9937323
1.6737618 0.53927201 0.019858241 10068396
1.6757011 0.54141164 0.01933676 9937321
1.6337442 0.48143202 0.03231883 9736332
1.6345594 0.48422468 0.031448305 9868174
1.6368603 0.48635232 0.030866802 9737101
1.6382539 0.48933092 0.030270636 9803408
1.6397523 0.49161902 0.029812336 9869460
1.6418597 0.49399921 0.028566658 10395022
1.6430578 0.49660158 0.028157175 10592151
1.6449503 0.498757 0.028042078 11315354
1.6464918 0.50135207 0.027082205 11512479
1.6478298 0.50405556 0.026360154 11053481
1.6501507 0.50621712 0.026228726 11315880
1.6520542 0.50884748 0.025780082 11447467
1.6533757 0.51139206 0.025288641 11054260
1.6552696 0.51428264 0.024243772 10988209
1.6567155 0.51729953 0.024658024 11447212
1.6575975 0.51903021 0.021318674 10134449
1.6600012 0.52084136 0.021097541 9871274
1.6614121 0.52359551 0.020620763 9608360
1.663236 0.52531946 0.020395041 9608358
1.664543 0.52821422 0.020274639 9739687
1.6658915 0.53084272 0.02040118 9805482
1.6302365 0.48104963 0.030554831 9604998
1.6312628 0.48264056 0.030425072 9801337
1.6331966 0.48526272 0.029778004 9539712
1.6347086 0.48767483 0.029347003 9933960
1.6360903 0.4901585 0.028260946 10196614
1.6381937 0.4924362 0.027676105 10263442
1.6397326 0.49498984 0.027527213 10657428
1.6415579 0.49733293 0.026734233 10461857
1.6427466 0.49968484 0.026571155 10856100
1.6445585 0.5022853 0.026311755 10725291
1.6456537 0.50392854 0.0244596 10462119
1.6477522 0.50650382 0.022809088 9871530
1.649057 0.50949007 0.022463143 10003372
1.6501455 0.51152736 0.022114456 10003118
1.6523236 0.51403213 0.021813691 9937582
1.6547966 0.51653546 0.021608114 10134960
1.6556238 0.51961023 0.021245122 10200498
1.6581538 0.52236509 0.021085918 9805740
1.6282769 0.48126385 0.029642224 9276283
1.6295222 0.48412132 0.029022694 9408389
1.6312437 0.48591849 0.028494239 9605770
1.6326969 0.4884474 0.027307808 10000011
1.6344643 0.49113277 0.026893318 10328984
1.636178 0.49337181 0.026273847 10066843
1.6379498 0.49544516 0.02527529 10395294
1.6394522 0.49753019 0.024118602 9738913
1.6416 0.50062418 0.023529172 9542567
1.6425793 0.50282139 0.023266673 9805737
1.6444091 0.50580442 0.022805154 9805738
1.6463755 0.5088197 0.02227366 9805996
1.6468803 0.51048905 0.022369266 10134702
1.6262614 0.4822098 0.027293384 9408653
1.6274227 0.48462307 0.02593708 9933969
1.6296991 0.48666176 0.02519393 9539982
1.6307278 0.48943853 0.024446547 9277326
1.6325973 0.49160114 0.024047494 9080209
1.6342314 0.49403021 0.023768604 9278103
1.6357318 0.49618521 0.023246646 9409688
1.6372235 0.49857032 0.023290515 9409949
1.6389067 0.50216728 0.023045421 9608103
1.624029 0.48269308 0.024903953 8882309
1.6256725 0.48514062 0.024411023 8817032
1.6270902 0.48729548 0.023941576 8882568
1.6290194 0.49005446 0.023536861 9014154
1.630603 0.49250019 0.023149788 9211019
1.6320977 0.49492064 0.022857249 9211538
1.6206553 0.48115918 0.02429235 8750465
1.6221519 0.48292005 0.024220645 8750722
1.6237077 0.48533896 0.023776531 8816517
1.6999393 0.55653942 0.028195858 11053225
1.7123625 0.57401884 0.022382379 11970959
1.6957303 0.55433816 0.027080357 11185069
1.6976025 0.55639601 0.027698696 11185067
1.7057058 0.56780046 0.022683501 12431771
1.7083217 0.57161206 0.022238791 12103062
1.7094098 0.57323831 0.02182126 11380373
1.7099072 0.57537365 0.021259546 11117462
1.7127395 0.57783008 0.021572411 10723476
1.7137558 0.58124828 0.020857334 10001818
1.6839707 0.53891605 0.028670907 11448242
1.6874783 0.54404205 0.027557313 11447728
1.6891937 0.5466212 0.027182937 11447984
1.6908008 0.54903865 0.026854873 11447984
1.6925009 0.55237359 0.026634157 11316655
1.6940793 0.55460197 0.027162015 11250863
1.699042 0.56168312 0.022672772 11710113
1.7010255 0.56362009 0.022699296 11119012
1.7026074 0.56706476 0.022283316 11775390
1.7037183 0.5692842 0.021745086 11184544
1.7058054 0.57141149 0.021137774 10790046
1.7075061 0.57365841 0.020734847 10067101
1.7085447 0.57603323 0.020195007 9673120
1.7105948 0.57784104 0.019927263 9673374
1.7120236 0.58109713 0.018546402 9542047
1.6774721 0.53290224 0.028329313 11513523
1.6787945 0.53583097 0.028793931 11579570
1.6813637 0.53822672 0.028804898 11316656
1.6822447 0.54161906 0.028452694 11382449
1.6847076 0.54317057 0.028111637 11448242
1.6865824 0.54690653 0.027252674 11513779
1.6874574 0.5496121 0.026649117 11513777
1.6892694 0.5494076 0.026719391 11448240
1.6900833 0.5517509 0.024709642 11119787
1.6924952 0.55542052 0.02264452 11841701
1.6945835 0.55742383 0.022536635 11644580
1.6954991 0.56014383 0.022247732 11053479
1.6970607 0.56244171 0.021873713 11512996
1.6987455 0.56456041 0.021439493 11315877
1.7002002 0.56688297 0.020951807 10921894
1.7020092 0.56960243 0.019981265 10526622
1.7035699 0.57235497 0.020022213 10002597
1.705659 0.57501405 0.019678235 9739944
1.7070118 0.57636625 0.016334295 8687511
1.6725209 0.52938688 0.028448582 11711157
1.6744987 0.53187889 0.028598547 11645364
1.6752694 0.53497905 0.028696656 11645109
1.6825285 0.54366338 0.023945451 11382188
1.6838626 0.54558098 0.023608744 11448229
1.6852812 0.54856586 0.02322191 11776169
1.6872319 0.55127531 0.023146808 11316648
1.6887696 0.55399001 0.022349894 11513511
1.6905085 0.55557054 0.021857083 11316649
1.6915228 0.55804688 0.021546781 11119273
1.6936039 0.56049937 0.021249831 11053481
1.6951162 0.56329185 0.020443678 11184292
1.6966289 0.56545079 0.019885659 10790311
1.6979721 0.56788868 0.017860055 9870496
1.6999161 0.57005847 0.016592205 9279386
1.7020955 0.57313746 0.016024411 9279134
1.7026979 0.57544732 0.016316891 9082011
1.7053502 0.57806414 0.015926003 8884888
1.6583987 0.51183301 0.030676603 11250095
1.6618434 0.51734883 0.029049158 11250352
1.6632997 0.51930338 0.029127836 11382192
1.6652801 0.52311689 0.028713703 11579568
1.6672196 0.5258882 0.028383136 11711155
1.6695917 0.52781498 0.028419256 11711157
1.6707219 0.53077513 0.027358055 11514546
1.6720583 0.53240627 0.026028335 11251885
1.6732881 0.53516412 0.025357783 11777453
1.6748607 0.53724688 0.025147915 11186350
1.676713 0.53961909 0.023987591 12039596
1.6788923 0.54219019 0.023557663 12039341
1.6803125 0.54479516 0.02314353 11645356
1.6817638 0.54701054 0.022737443 11316649
1.6828218 0.54892164 0.02214402 11316652
1.6851237 0.55164343 0.021803975 11250861
1.6868789 0.55398077 0.020823002 10987948
1.6879238 0.55681396 0.020198226 11184298
1.6898875 0.55903202 0.017705858 9608096
1.6915591 0.56123602 0.018725991 10330277
1.693302 0.56386191 0.017284036 9410978
1.6952455 0.56576616 0.017031074 9345184
1.6960248 0.56882101 0.016847134 9279392
1.6987648 0.57172251 0.016682565 9279388
1.7005293 0.57372433 0.016136527 9279133
1.6481678 0.50051272 0.03202039 10789796
1.6502423 0.50395763 0.032051504 11118761
1.6525913 0.50629342 0.031589746 11381677
1.6540729 0.50913823 0.031594932 11447729
1.6558981 0.51202542 0.030681849 11381425
1.6567128 0.51470268 0.03005451 11184304
1.6588899 0.51592767 0.029704988 11184303
1.6598853 0.51884007 0.028377533 11185071
1.6620589 0.52135384 0.028198957 11316656
1.6643244 0.52385432 0.027001441 11185838
1.6652913 0.52604616 0.026008129 11645353
1.6668396 0.52819085 0.025454283 11973286
1.6684421 0.53065872 0.025167704 11645612
1.6699721 0.53334469 0.024207115 12105133
1.6715574 0.53569967 0.023682356 12039345
1.6734223 0.53804451 0.023414731 11908273
1.675184 0.54070073 0.022987127 11382965
1.6767725 0.54283261 0.022654712 11711410
1.6783253 0.54540145 0.021907032 11185586
1.6798038 0.5479278 0.020866156 10594221
1.6813965 0.54994118 0.019238949 10067879
1.6835244 0.55341613 0.018924594 10133671
1.6842433 0.55501908 0.018139064 9542565
1.6867069 0.55717677 0.018130243 9542307
1.6886876 0.5611155 0.017419994 9608352
1.6899487 0.56295526 0.017289519 9542560
1.6911284 0.56455833 0.017436922 9411233
1.6929795 0.56706607 0.01669991 9279393
1.6418861 0.49482232 0.03158617 10394780
1.6433508 0.49752104 0.032121539 10591905
1.645519 0.49973899 0.031977117 10789540
1.6473063 0.50300485 0.031792402 11052711
1.6500546 0.50725067 0.030149102 11317166
1.65184 0.50845867 0.02860862 11121069
1.6530137 0.51213336 0.028055251 11120816
1.6549429 0.51488101 0.027185559 11120817
1.6568118 0.51574677 0.027237058 11776941
1.6582295 0.51897377 0.02639091 11973543
1.6601474 0.52179539 0.025845826 12236457
1.6617571 0.52450424 0.025144339 11645356
1.6631327 0.52649409 0.024358511 11776172
1.6648525 0.52897036 0.023958325 11579567
1.6666433 0.53156632 0.023510695 11841967
1.6681083 0.53429127 0.022791982 11382449
1.6697129 0.5359261 0.022317946 10857395
1.6705279 0.53835487 0.019889653 10068910
1.6730015 0.54149002 0.019630075 9937067
1.6746086 0.54395998 0.019484639 10003115
1.6764058 0.54601866 0.01906842 10003114
1.6774827 0.54751462 0.019322574 9871529
1.6795683 0.55113024 0.018249035 9673893
1.6809211 0.55413407 0.018076003 9608359
1.6374613 0.49080321 0.03139466 10196889
1.638881 0.49295679 0.031434238 10263193
1.6397554 0.4957107 0.0317173 10592158
1.6420527 0.49738127 0.030325711 10396064
1.6432728 0.50096202 0.029696882 10857128
1.6452359 0.50286448 0.028296769 11711139
1.6466408 0.50541061 0.028483629 11317420
1.6481596 0.50769639 0.0274176 12498854
1.6494285 0.51000607 0.026857734 11776684
1.651561 0.51275474 0.026251018 12170411
1.6532446 0.51523411 0.025525808 11842224
1.6549584 0.51768965 0.025599658 11710636
1.6563429 0.52013725 0.02476424 10791601
1.6580738 0.52262461 0.024331808 11184557
1.6598725 0.52463186 0.024269283 11119793
1.66107 0.52743858 0.023046196 10988206
1.6626576 0.52992535 0.020432651 9739945
1.6645242 0.53251183 0.02069515 9805482
1.6660374 0.53536236 0.020319998 9871530
1.6679244 0.53705102 0.020046771 9871787
1.6692137 0.54032928 0.019603074 10068909
1.6710713 0.54223192 0.019359529 10068653
1.6283715 0.48232359 0.031932294 9868173
1.6306057 0.48465729 0.031483054 9999760
1.6320515 0.48689947 0.031246245 10000017
1.6328552 0.48977941 0.030867219 10066325
1.6352241 0.49121979 0.030552804 10001046
1.6361562 0.49389935 0.029647052 10526869
1.6380621 0.49661592 0.028778672 10659226
1.6398938 0.49880973 0.028210163 10987166
1.6412055 0.50104672 0.027479649 11381666
1.6427439 0.50417542 0.027150869 11775908
1.6449445 0.5063889 0.026258528 11316654
1.6464406 0.50875783 0.026094139 11448239
1.6480088 0.51099795 0.025747001 11317171
1.6495224 0.51301527 0.025271535 10858168
1.6510441 0.51579601 0.025146961 11185846
1.6524616 0.51782364 0.023735166 10726066
1.6538423 0.5207724 0.02217716 10528431
1.6560541 0.52316791 0.021135271 9871790
1.6572676 0.5255155 0.021045804 9871533
1.6598604 0.52777249 0.020411611 9871531
1.6614493 0.53125858 0.020745873 9805741
1.6261297 0.48264265 0.030610085 9670527
1.6279483 0.48473948 0.030304611 9736316
1.6297971 0.48749587 0.029369831 9737093
1.6309429 0.49002519 0.0290429 10196874
1.632854 0.49232206 0.028619051 10460298
1.6347204 0.49489501 0.027766407 10723478
1.6362356 0.49719343 0.027221203 10790307
1.638003 0.49983779 0.026836157 11250338
1.6398115 0.5017097 0.026154518 11119019
1.6409565 0.50523388 0.025584877 11119536
1.6426215 0.50735927 0.024891794 10857138
1.6442963 0.50909519 0.022689164 9871534
1.6452515 0.51188195 0.023095965 10528687
1.6478825 0.51412868 0.022011459 10003376
1.6493003 0.51669097 0.021744907 10003376
1.6507676 0.51895529 0.021707118 10069170
1.6519935 0.52217537 0.021561444 10134701
1.6538545 0.52444398 0.020874977 9805740
1.6244775 0.48395514 0.02946949 9670008
1.6263974 0.48593912 0.029223621 9999235
1.6273866 0.48853162 0.028319657 9934733
1.6289858 0.49047065 0.02768594 10329241
1.6309403 0.49324134 0.026874244 10789017
1.6326314 0.49540028 0.026208758 10330532
1.6346066 0.49840641 0.024693966 10527399
1.6363229 0.50041485 0.023842573 10199464
1.6367484 0.50386381 0.023053646 9871787
1.6389672 0.50552845 0.022932291 9937070
1.6412123 0.50744766 0.022825837 10134448
1.6419923 0.51052713 0.022297204 10003118
1.6443788 0.51388925 0.022337317 10134960
1.6460471 0.51562464 0.021931708 10069168
1.6205543 0.48174995 0.027302802 9605517
1.6225752 0.48405617 0.027445793 9277582
1.6241603 0.48680848 0.02633512 10000020
1.625599 0.48925558 0.025349438 9868953
1.6276054 0.49154049 0.024450064 9540500
1.6287911 0.49373925 0.024171472 9343898
1.6299787 0.49642077 0.023279428 9409431
1.6322411 0.4987691 0.02309078 9541790
1.6344497 0.50072473 0.022701621 9607585
1.6189055 0.48232195 0.025336027 9079688
1.6202626 0.48481423 0.024791062 8751496
1.6221167 0.48734936 0.024126351 9079689
1.6238199 0.4897899 0.023531914 9014155
1.6252992 0.49203497 0.023597419 9146001
1.6265852 0.49495852 0.023051381 9342866
1.616678 0.48288935 0.024049699 8750210
1.6184655 0.4857662 0.023716271 8881795
1.6203095 0.48821303 0.023698568 9145222
1.621557 0.49103224 0.023067415 8948108
1.7115271 0.57979745 0.022024572 12234646
1.7127489 0.58170193 0.021811604 12168854
1.7139297 0.58479822 0.021055102 10789785
1.6903743 0.55355901 0.027379632 11382192
1.6922709 0.5568369 0.027707994 11316657
1.6943526 0.55774683 0.027763844 11382450
1.7024912 0.57062095 0.022415817 10461856
1.7040566 0.57335722 0.022023439 11446941
1.7056923 0.57543892 0.021813273 11643546
1.7070991 0.57791603 0.021081448 11118236
1.7089514 0.58032107 0.021066487 10921114
1.7105945 0.58361471 0.020209312 10593180
1.7121998 0.58540589 0.019634664 10461854
1.6789565 0.53917474 0.029073715 11382448
1.6821467 0.54421973 0.028229415 11579572
1.6850511 0.54727548 0.027117193 11645106
1.6857924 0.54979777 0.026858211 11579312
1.687324 0.55192608 0.026855052 11447984
1.6886064 0.55489337 0.027182162 11381936
1.6911845 0.5561918 0.027234972 11382193
1.6958835 0.56343663 0.022483826 10527907
1.6972343 0.56727427 0.022337139 10593700
1.6995157 0.56910092 0.021883309 11512737
1.700732 0.57152563 0.021170795 11249566
1.7022744 0.57377946 0.021200061 11381150
1.7034956 0.5764156 0.020696044 10725026
1.705403 0.57852429 0.020099759 9871269
1.7080246 0.58222669 0.019071937 9739686
1.709367 0.58418769 0.018906772 9871271
1.7098969 0.58665597 0.018827319 9805733
1.7120817 0.5884003 0.018365085 9739428
1.6755588 0.53800243 0.028983533 11579571
1.6770531 0.54115587 0.028799653 11513779
1.6791557 0.54304594 0.028581321 11513780
1.6805577 0.54414177 0.028559983 11579315
1.6823357 0.54716372 0.027501702 11645108
1.683293 0.55005771 0.026885211 11579315
1.6846646 0.55207813 0.026995003 11645107
1.6873715 0.5554505 0.023071885 10725543
1.6887579 0.5576281 0.02260077 11776165
1.6902777 0.55981511 0.022355974 11776167
1.6917087 0.56247252 0.022076845 11250600
1.6939368 0.56491005 0.021560192 11315875
1.6951575 0.56710786 0.021419823 11184546
1.6969364 0.56958389 0.020391941 10856099
1.6985682 0.57261693 0.020061791 10724516
1.700467 0.57443756 0.019916356 10395555
1.7016788 0.57741827 0.016599834 9213084
1.7035694 0.57997727 0.015702069 9147544
1.6685711 0.53179955 0.02856493 11777207
1.6708187 0.53396386 0.028563023 11842743
1.6721241 0.53669494 0.028623462 11842743
1.6732889 0.53787947 0.028571844 11842742
1.6768481 0.5432927 0.02426374 11317938
1.6788112 0.54647821 0.023417175 11973289
1.6805503 0.548823 0.023575604 11251115
1.682222 0.55044007 0.023267925 11841959
1.6833901 0.55356938 0.022550046 11185580
1.6852273 0.55601907 0.022435904 11973031
1.686563 0.55857646 0.021787286 11382187
1.6886274 0.56077248 0.021478236 11053995
1.6906946 0.56371236 0.020234942 10856361
1.6923543 0.56612426 0.020067334 11184549
1.6937052 0.56825745 0.019529581 10921125
1.6952523 0.57065308 0.018121719 10133154
1.696559 0.57305098 0.016375244 9213596
1.6983838 0.57508129 0.015853047 9278877
1.699309 0.57740015 0.016176105 9213084
1.7014214 0.5805313 0.016064823 9081751
1.6531583 0.51200777 0.031121373 11381937
1.6602674 0.52239186 0.028710365 11579057
1.6617302 0.52479845 0.028654456 11644849
1.6640668 0.52734613 0.028111935 11710900
1.6655715 0.52991307 0.027718902 11645620
1.6671776 0.53284818 0.026086628 11186350
1.6684057 0.53470004 0.025920689 11317935
1.670067 0.53724205 0.025894523 11317679
1.6719474 0.53988016 0.024384558 12368045
1.6739533 0.54197615 0.024039924 12368046
1.6748608 0.54448545 0.023423731 12105391
1.6765536 0.54675865 0.023002028 11645615
1.6782562 0.54933411 0.022620678 11973548
1.6801106 0.55215007 0.022080481 11447981
1.6815944 0.55445033 0.02161628 11644845
1.6833704 0.55668008 0.020812631 11119278
1.684999 0.55922735 0.019333065 10790313
1.6864872 0.56128484 0.019628584 10396842
1.688067 0.56414205 0.018323779 10462117
1.6896316 0.56548691 0.017177045 9345183
1.6910032 0.56895351 0.016720414 9345183
1.6932539 0.57086992 0.016795874 9148061
1.6944138 0.57385492 0.016538262 9213595
1.6962568 0.57572788 0.01615715 9147802
1.6987112 0.58030599 0.015418708 9344669
1.6461483 0.50491738 0.032302618 11381678
1.6472788 0.50604659 0.03219378 11381935
1.6484219 0.50888997 0.031762421 11579316
1.6502435 0.51148808 0.031342447 11447474
1.6510615 0.51544869 0.030019701 11250350
1.6534417 0.51519936 0.029966712 11118766
1.6549582 0.51851624 0.029217958 11316145
1.656675 0.5210706 0.028939664 11513267
1.6587305 0.52365524 0.027473509 11842222
1.6600176 0.52637887 0.026349664 11120813
1.6617994 0.52849048 0.026153982 12236458
1.6634226 0.53078836 0.025159121 11908269
1.6651366 0.53288126 0.024882853 11514545
1.6664096 0.53545105 0.024257183 12564910
1.6681364 0.53812611 0.02347219 11777205
1.6698203 0.54060858 0.023035407 11974068
1.6716903 0.54292923 0.022861481 11908276
1.6730212 0.54532802 0.022703052 11645365
1.675101 0.54849583 0.022211611 11382707
1.6763772 0.55021209 0.019815385 10462378
1.6783178 0.55283028 0.018233061 9739685
1.6787488 0.55489773 0.018250585 9608615
1.6808753 0.55762893 0.018072546 9674150
1.6830872 0.55946803 0.018005073 9608358
1.684857 0.56212813 0.01760751 9542563
1.6861931 0.56414145 0.017395198 9673890
1.6881769 0.56660128 0.016799986 9411236
1.6886261 0.56906414 0.016512156 9477028
1.6389828 0.49699226 0.031934917 10789024
1.6404085 0.49909326 0.032021582 10855077
1.6413445 0.5025565 0.031829953 11184299
1.6437806 0.50469744 0.032043338 11316142
1.6452535 0.50763065 0.030394137 11317169
1.6470013 0.50908607 0.028549671 11252401
1.6472118 0.51156992 0.028209746 10989744
1.6497679 0.51446843 0.027604699 10989488
1.6519805 0.51659411 0.026926339 11908266
1.6528847 0.51924711 0.026898324 11514285
1.6549861 0.52162546 0.026515901 11842734
1.6564507 0.52421737 0.025550306 12105134
1.6580544 0.52668238 0.024776042 11645360
1.6596426 0.52922809 0.024259925 11645106
1.6612033 0.53163785 0.023911774 11579826
1.6632488 0.53400409 0.023583591 11973552
1.6651825 0.53669786 0.023195148 11711157
1.6662921 0.53882223 0.021328509 10988208
1.6676812 0.54101974 0.019507468 9937324
1.6691501 0.5437628 0.019560218 10069168
1.6709818 0.54569227 0.019349933 10134703
1.6725345 0.54846871 0.019110203 10068909
1.6750596 0.55145437 0.018765986 9805736
1.6762236 0.55346477 0.018572569 9871529
1.6784437 0.55732429 0.018232167 9608613
1.6339303 0.49360985 0.031418085 10591644
1.6349392 0.49605483 0.031729221 10855074
1.636915 0.49793607 0.032120109 10986404
1.6384486 0.50158197 0.032019734 11184299
1.6400523 0.50314462 0.028700769 10989485
1.6422111 0.5059402 0.028608441 11120301
1.6433234 0.50830841 0.027943492 12039595
1.6444752 0.51018083 0.027757049 12236714
1.6463445 0.51268053 0.026890516 12170926
1.6481925 0.51505822 0.026167572 11842479
1.6495898 0.51757437 0.02593559 11645103
1.6510546 0.52015847 0.02523762 11645360
1.6529262 0.5224939 0.024666488 11251380
1.6541165 0.52455491 0.025004923 11579314
1.6560436 0.52710432 0.024481177 11054774
1.657879 0.52990651 0.022143066 10790829
1.6592599 0.53205222 0.020770311 9805740
1.6612864 0.53472823 0.020596623 9871531
1.6624177 0.53695738 0.020226181 10003117
1.6634409 0.53923184 0.019760609 10003118
1.6657196 0.54153341 0.019446969 10003117
1.6670004 0.54480195 0.019454718 9937325
1.668934 0.5464412 0.019332707 10200496
1.623611 0.48282206 0.032038271 9999758
1.6263095 0.48643339 0.031518936 10065553
1.6280342 0.48899168 0.031093478 10131861
1.6295739 0.49147516 0.030909777 10198170
1.6310376 0.49425289 0.030567765 10396062
1.6325694 0.496425 0.029726028 10790302
1.6347514 0.4986473 0.028494 11119007
1.6363463 0.50138998 0.027784169 11579044
1.6380763 0.50384378 0.027653396 11514026
1.6396041 0.5060966 0.027255118 11973802
1.6410327 0.50902265 0.026820123 12105645
1.6425776 0.51063693 0.025837302 11514036
1.6441892 0.51359606 0.025558174 11251895
1.6460718 0.51626784 0.024772048 11579827
1.6480134 0.51875359 0.024636269 11317171
1.6493809 0.52054012 0.022554636 10659762
1.6504451 0.52315789 0.021368206 9937580
1.6522219 0.52505505 0.020916224 9937326
1.6540513 0.52821583 0.020506084 10003119
1.6557323 0.53042465 0.020658851 10068910
1.6568381 0.53203708 0.020666599 9937326
1.6591582 0.53542322 0.020635843 9871530
1.6213274 0.48285031 0.031422198 9342076
1.6229863 0.48556337 0.030902326 9802112
1.6240932 0.487497 0.030191123 10196872
1.6255809 0.48998535 0.029451609 10328454
1.6276541 0.49226767 0.028990865 10526096
1.6291995 0.49438694 0.02812773 10920083
1.6310625 0.49739292 0.027895272 11052959
1.6323795 0.50007468 0.027056932 11119529
1.6341721 0.50245953 0.02647382 11513772
1.6361427 0.50434661 0.026257217 11710638
1.6373166 0.50673282 0.025152743 11054774
1.6389381 0.50912303 0.024287283 11513779
1.6406174 0.51178747 0.023305595 10857396
1.6429327 0.51401013 0.023119032 10791859
1.6440511 0.51670873 0.021909416 10200498
1.6451582 0.51905352 0.021777272 10266289
1.6475561 0.52143657 0.021415293 9937583
1.6490148 0.52406234 0.021179199 9937580
1.6508988 0.52683157 0.020782351 9937582
1.6178001 0.48139992 0.030326545 9077353
1.6188968 0.48309124 0.029437482 9538426
1.6207415 0.48571873 0.029259562 9998720
1.6227431 0.48807311 0.028828084 10130820
1.6239142 0.49063748 0.028003752 10132629
1.6258729 0.49353635 0.027324319 10527393
1.6274219 0.49531332 0.027107775 10855842
1.629078 0.49808711 0.025374115 11184299
1.6312959 0.49996418 0.024545193 10856365
1.6320701 0.50263852 0.023813605 10594223
1.6338301 0.50533563 0.022803068 10003375
1.634764 0.50794542 0.022723019 10069424
1.6366013 0.50996596 0.022844017 10332339
1.6388233 0.51267785 0.022605538 10266804
1.6414639 0.51561761 0.02198261 10135222
1.6158757 0.48197022 0.028852761 9473415
1.6168422 0.48400456 0.027531087 9868431
1.6191944 0.48708713 0.02717936 9606289
1.620435 0.48911878 0.02620244 10263451
1.6219442 0.4913905 0.025330782 10198173
1.6238136 0.49352628 0.02458638 9935517
1.6251093 0.49631104 0.024502993 9804708
1.6273879 0.49841237 0.023679554 9607587
1.6287494 0.50110376 0.022954822 9673379
1.630137 0.50389177 0.02280277 10069424
1.6317803 0.50560576 0.022695303 9871790
1.6135094 0.48265201 0.025885165 8948102
1.6152014 0.48442653 0.02537334 8685444
1.6170045 0.48708948 0.024666786 9014153
1.6184872 0.48995841 0.023738563 9014154
1.6200941 0.49244437 0.023661315 9277841
1.6219277 0.49424356 0.023135483 9343120
1.6236303 0.49698389 0.022776127 9474709
1.6248647 0.49887869 0.023206353 9671834
1.6114795 0.48318338 0.02388072 8618879
1.6136495 0.48580906 0.023771286 8816257
1.6148133 0.48800179 0.023781061 8947586
1.6166737 0.49063453 0.023500979 9013896
1.6179502 0.49238271 0.02323103 9408397
1.6079142 0.48165736 0.023795664 8158585
