# .PCD v0.7 - Point Cloud Data file format
VERSION 0.7
FIELDS x y z rgba
SIZE 4 4 4 4
TYPE F F F U
COUNT 1 1 1 1
WIDTH 1188
HEIGHT 1
VIEWPOINT 0 0 0 1 0 0 0
POINTS 1188
DATA ascii
1.2898777 0.55973792 0.0027792454 10460309
1.2915965 0.56109625 0.0023397803 10658460
1.2956444 0.56490338 0.0017977357 11446684
1.2810435 0.55525267 0.0034269691 10790563
1.2832463 0.55767602 0.0028411746 11580338
1.6884155 0.53619295 0.15963578 10196122
1.6865866 0.53939122 0.15693599 11119789
1.6881903 0.53932035 0.15675449 12040913
1.6914673 0.54160923 0.15551314 12697814
1.6935515 0.54414999 0.15438685 9999533
1.6948822 0.54463553 0.15463424 10131371
1.6802956 0.53645277 0.15572003 10986150
1.6831156 0.53669107 0.1561929 10592419
1.6863008 0.53822207 0.15486684 11316398
1.6889646 0.54266673 0.15418932 11118518
1.6925952 0.54489368 0.15327722 10394799
1.67643 0.53495985 0.15492925 11579062
1.6791155 0.53682548 0.15465152 11183526
1.6797771 0.53818899 0.15475744 11249320
1.6853259 0.54319042 0.15191597 11381431
1.6876333 0.54439926 0.15232587 11184038
1.6897831 0.5459789 0.15128249 11579066
1.6727197 0.53476954 0.1541189 7765642
1.6770504 0.53863043 0.15243322 11249577
1.6814443 0.54337317 0.1515274 10593462
1.6836179 0.54352754 0.15110737 11381681
1.6861484 0.54390138 0.15080431 11117993
1.6900983 0.54984748 0.14883685 11379873
1.674741 0.54022592 0.15119717 9673401
1.677006 0.5410018 0.14950114 10921129
1.6801214 0.54435074 0.14894485 7501951
1.6814363 0.54539227 0.1488876 9804705
1.6839459 0.5465315 0.14957172 11974852
1.6869229 0.55050641 0.14895156 11313564
1.6889741 0.55061877 0.14714196 11248027
1.6708519 0.54008979 0.14952955 1249315
1.6730936 0.540887 0.14981842 2501439
1.6782854 0.54604429 0.14627224 1385757
1.6795411 0.54668039 0.14777443 5135464
1.6824524 0.55025351 0.14653984 11972270
1.6842473 0.55104136 0.14599565 11511721
1.6869298 0.55137002 0.1463604 11379355
1.6652207 0.53820091 0.147618 1710618
1.6653113 0.53916341 0.14886919 1842204
1.668878 0.54161078 0.14790291 1972253
1.6712614 0.54194689 0.14820704 1315367
1.6767533 0.54746777 0.1461091 462115
1.6781204 0.54902196 0.14540324 923434
1.6804737 0.55081803 0.1455622 7368067
1.682515 0.55194986 0.14365235 11315104
1.6603557 0.5378688 0.14732274 1972001
1.6628497 0.53877133 0.14842802 1841949
1.6650701 0.54141665 0.14618596 1381404
1.6671705 0.54202425 0.14715302 1577761
1.6717546 0.54735237 0.14421237 1512986
1.6740208 0.54825395 0.14451748 1644827
1.675987 0.54995078 0.14383161 1513749
1.6787597 0.55249584 0.14273548 2693660
1.6809852 0.55280381 0.14310801 8484968
1.6587582 0.53970695 0.14637196 1906713
1.6605757 0.54088014 0.14519775 1315862
1.6628886 0.54139614 0.14617592 1447446
1.6674634 0.54665095 0.14322236 1250090
1.6702108 0.54853678 0.143206 1710111
1.6723999 0.54945552 0.14290023 1776162
1.6751151 0.55257124 0.14132842 2499111
1.676327 0.55327564 0.14167881 1381910
1.6546894 0.53942573 0.14598382 1645328
1.6566935 0.54019547 0.14475498 1841688
1.6590843 0.54122871 0.14378291 1380900
1.663377 0.5464052 0.14254901 1709857
1.6656575 0.54773402 0.14223295 1644320
1.6683038 0.54886514 0.14211735 1775910
1.6708026 0.55327916 0.14063254 2368021
1.6729636 0.55329162 0.14040032 1908259
1.6505668 0.54031575 0.14391923 1972760
1.6526845 0.53988522 0.14340442 1709855
1.6550232 0.54180127 0.14278126 1315355
1.6574757 0.54363912 0.14259246 1644065
1.6594558 0.54655194 0.14180148 1643807
1.6617117 0.54732555 0.14069703 1578523
1.664258 0.54826015 0.14024693 1447723
1.6658672 0.54938024 0.1390422 1446438
1.6685237 0.5531382 0.13871425 1907735
1.6704248 0.5542832 0.1386869 1578786
1.6485288 0.53974754 0.14178655 1447196
1.6510937 0.54129964 0.14186737 1249817
1.6555183 0.5459584 0.14031559 1709598
1.6578608 0.54709226 0.13936713 1446944
1.6595129 0.54819703 0.13925862 1513242
1.6651064 0.55351788 0.13779056 1513488
1.6669942 0.55426919 0.13753623 1446942
1.6405475 0.53687215 0.14169151 1184026
1.6423703 0.53756326 0.1422554 1052443
1.6454344 0.54014552 0.14101392 1184544
1.6471421 0.54089081 0.14058715 1710105
1.6471136 0.54382527 0.14063001 1973565
1.6513462 0.54522669 0.13902158 1776412
1.6534328 0.54685581 0.13908306 1710365
1.6562109 0.54859352 0.13796386 1579809
1.6576512 0.5505299 0.13700396 1775646
1.6606233 0.55277967 0.13661647 1710368
1.6626573 0.55369401 0.13687843 1316634
1.6647155 0.55538845 0.13538766 2170145
1.6360087 0.536856 0.14159304 1052688
1.6383258 0.53711158 0.14097548 1118230
1.6403437 0.5392012 0.13976017 1446934
1.6429842 0.54061681 0.1398302 1512218
1.6449687 0.54248554 0.13823274 1972761
1.647956 0.54507184 0.13816327 1578791
1.6497806 0.54649019 0.1373688 1512988
1.6522641 0.54845458 0.13643003 1579541
1.6541449 0.55078363 0.13655251 1513497
1.6560476 0.55240625 0.13525778 1513238
1.6583593 0.55374157 0.13536745 1381659
1.6616311 0.55519402 0.13388491 2038300
1.6307143 0.53566712 0.14056534 791056
1.6346083 0.53706175 0.13961631 987145
1.6368351 0.53906029 0.13917848 1644051
1.6383187 0.53957367 0.13871127 1381653
1.6426046 0.54195654 0.13804632 1906458
1.6435084 0.54516059 0.13701236 1710365
1.6453776 0.54646719 0.13603777 1578274
1.647824 0.54773003 0.1360274 1644324
1.6502782 0.55025268 0.13485348 1381662
1.6522069 0.55132025 0.13464469 1579038
1.6553519 0.55319279 0.13368565 1381911
1.6276851 0.53608537 0.13831815 1249831
1.6304135 0.5361582 0.13837695 1053215
1.6322942 0.53831983 0.13819826 1906714
1.6347278 0.54186195 0.13674742 1380645
1.6363318 0.54179114 0.13656592 1774872
1.639396 0.54474515 0.135382 1578529
1.6416306 0.54584801 0.13532203 1579037
1.644085 0.54734421 0.13497162 1447194
1.6461469 0.55022836 0.13358301 1710361
1.6482382 0.55097169 0.13388747 1381408
1.6260886 0.53698778 0.13719183 1118991
1.6289046 0.53692293 0.13648111 1776662
1.630666 0.54103172 0.13517606 1511966
1.633507 0.54143149 0.13588029 1511713
1.6352179 0.54458171 0.13378817 1513255
1.6373836 0.54543829 0.13460088 1381924
1.6400404 0.54704279 0.13348365 1578783
1.6426768 0.55045158 0.1333251 1579288
1.6441848 0.55128354 0.13195705 1447704
1.6221299 0.53670013 0.13610524 1447192
1.6244732 0.53663158 0.13607514 1316123
1.6266739 0.54039133 0.13409019 1250067
1.6280205 0.54144937 0.1358242 1381404
1.6306373 0.54406518 0.13325262 1776152
1.6332562 0.54516888 0.13297433 1644833
1.6356223 0.5478524 0.13173121 1448471
1.637975 0.54965466 0.13131744 1317409
1.6402248 0.55116707 0.13120639 1382158
1.6424971 0.55235535 0.13038546 987934
1.6154802 0.53447574 0.13578624 1183774
1.618688 0.53584814 0.13485503 1184290
1.6203851 0.53802836 0.13432163 1841438
1.6225278 0.53925598 0.13211477 1513239
1.6244724 0.54038835 0.1340602 1315611
1.626735 0.54358959 0.13215041 1710883
1.6292654 0.54508281 0.13142806 1579041
1.6315659 0.54729146 0.13094664 1644572
1.6338797 0.54881966 0.13064551 1250840
1.6364875 0.55126399 0.12977678 1315092
1.6384075 0.55201036 0.12947345 1119505
1.6403754 0.55376941 0.13009465 791334
1.6097409 0.53304213 0.13543993 856858
1.6112499 0.53355503 0.13413936 857108
1.6143355 0.53482527 0.13378793 1053718
1.6158681 0.53715616 0.13367522 1709601
1.6183 0.53832996 0.13341057 2235422
1.6212153 0.54214591 0.13079363 1381653
1.6229947 0.543127 0.13125449 1579556
1.6249399 0.54453862 0.13028771 1645096
1.627342 0.54674679 0.12995631 1447705
1.6296399 0.54822946 0.12979686 1512985
1.6319098 0.55049354 0.12880349 1381400
1.634253 0.55155259 0.12817079 1052688
1.607774 0.53339636 0.13303041 1119263
1.6099088 0.53551704 0.132815 1447198
1.612473 0.53669375 0.1329062 1710110
1.6146004 0.53928578 0.13130999 2170145
1.6164641 0.54053205 0.13043129 1644314
1.6191301 0.54252738 0.13048154 1710624
1.6212046 0.54538667 0.12936431 1710881
1.6236424 0.54613721 0.12878686 1579034
1.6253532 0.54838163 0.12830496 1119258
1.6278639 0.55012739 0.12750936 1578791
1.6305614 0.55193967 0.12703377 856347
1.6039845 0.53395754 0.13176632 1184280
1.6057034 0.53513891 0.13158953 1578012
1.6085954 0.53717166 0.13147193 2104095
1.6106516 0.53817779 0.12991011 2038043
1.6126964 0.54110312 0.12914795 1644825
1.6146631 0.54257613 0.12906712 1841699
1.6169531 0.54416287 0.12818623 1776170
1.6193962 0.54611951 0.12820548 1447710
1.6217659 0.54825872 0.12695616 1250333
1.6239548 0.54946083 0.12654477 1512991
1.6017344 0.53538454 0.13032067 1775394
1.6035513 0.53571761 0.13011491 1775894
1.6065103 0.53759468 0.129206 2235422
1.6088498 0.54078722 0.12850475 1710358
1.6111686 0.5425247 0.12792921 1841690
1.6129866 0.54361254 0.12681919 1842479
1.6153865 0.5470627 0.12583673 1381403
1.6177766 0.54796964 0.12563157 1316123
1.6196878 0.54858589 0.12608248 1381911
1.5994722 0.5347743 0.13014328 2038297
1.5998628 0.53676742 0.12798488 1775647
1.602618 0.53640139 0.12771648 2236173
1.6058633 0.54088801 0.12835777 1842204
1.6062189 0.54167187 0.1262902 1776157
1.6089673 0.54341459 0.12578374 1841957
1.6112628 0.54599273 0.12500232 1578273
1.6133498 0.54713506 0.12497252 1315868
1.6157715 0.54829091 0.12430906 1185047
1.5958171 0.53599745 0.12726647 1710363
1.5979218 0.53655678 0.12756544 1710110
1.6009469 0.54065275 0.12583363 1514280
1.6029196 0.54204327 0.12523979 1776683
1.6053205 0.54342294 0.12515128 1710370
1.6072786 0.54463738 0.12394381 1446442
1.6093771 0.54717451 0.12358081 1316127
1.6130304 0.54836714 0.12347502 1579032
1.5920877 0.53565836 0.12647504 2104602
1.5941073 0.5375998 0.12539279 1644571
1.5963376 0.53789461 0.12544 1906457
1.5984075 0.54114473 0.12403011 2039847
1.6006732 0.54310191 0.12394661 1644843
1.6029462 0.54426575 0.12353444 1578269
1.6055834 0.54682171 0.12211639 1316374
1.6075802 0.54773277 0.1224637 1119511
1.5851969 0.53433478 0.1255641 2040109
1.5876712 0.53453755 0.12560481 2105126
1.590433 0.53681386 0.12458736 1775647
1.592569 0.53982288 0.12297374 2038823
1.5947565 0.54090887 0.12348813 1842979
1.5970809 0.54233015 0.12291819 1448750
1.599004 0.54412168 0.12202042 1316638
1.6013058 0.54749221 0.12087733 1250324
1.602845 0.54783469 0.12081665 1315864
1.5794965 0.53260219 0.12423754 1579032
1.5813278 0.53351969 0.1244123 1908762
1.5833503 0.53462285 0.12415224 2237210
1.5866071 0.53612083 0.12325341 2169385
1.5879077 0.53715324 0.12405139 2300711
1.5905955 0.54067183 0.12225795 1908007
1.5930729 0.54117364 0.12167507 1515046
1.5951079 0.54452032 0.12041456 1382182
1.5967773 0.54627854 0.1203056 1512478
1.5995326 0.5481326 0.1196875 1381151
1.6020473 0.54792207 0.11866647 1710618
1.5776155 0.5335803 0.12321097 2038809
1.5793023 0.53383118 0.12247002 1644825
1.5858753 0.5405919 0.1205619 1776678
1.5883192 0.5420543 0.12042302 1776164
1.5911167 0.54386377 0.1195572 1513750
1.5931115 0.54565203 0.11912435 1251094
1.5957497 0.54709345 0.11855119 1644063
1.5734289 0.53300166 0.12162417 1643050
1.5757434 0.53404695 0.12202483 2038568
1.5802125 0.53929907 0.11918515 1841957
1.5821289 0.53998464 0.1197331 1710628
1.5839803 0.54208344 0.11903852 1644310
1.5866033 0.54341054 0.11836797 1710616
1.5891387 0.54540277 0.11789632 1382689
1.5910547 0.54719859 0.11752015 1841692
1.5691549 0.53248149 0.12062752 1973014
1.5716897 0.53352606 0.12148368 2103840
1.5756236 0.53941846 0.11883837 1449767
1.5778937 0.53985947 0.11843985 1579555
1.5805292 0.54165602 0.11794144 1513496
1.5836884 0.54232192 0.11731112 1513233
1.585795 0.54566163 0.11715484 1513762
1.5883433 0.54628205 0.11623311 989460
1.562942 0.53047234 0.11971718 2104356
1.5655993 0.53200394 0.12035054 2038049
1.5672681 0.53387439 0.11968619 2171165
1.5718495 0.53855437 0.11786497 1711393
1.574369 0.53907514 0.11768669 1710875
1.5764158 0.54116315 0.11683178 1383190
1.5781972 0.54217094 0.11618811 1382424
1.5814595 0.54554087 0.11536777 1381653
1.5838385 0.54640281 0.1157192 1578528
1.5862365 0.5470385 0.11384952 989729
1.5589688 0.53056866 0.119596 1644323
1.5602028 0.53103149 0.11840659 2170409
1.5632429 0.53320551 0.11846387 1973792
1.5657167 0.53342885 0.11752605 1973286
1.5700051 0.53905118 0.11593509 1973538
1.5726249 0.54032338 0.11549497 1514010
1.5746152 0.54266196 0.11494929 1382426
1.5767983 0.54522377 0.11513007 1710600
1.5790472 0.5454722 0.11440843 1579024
1.5542188 0.5304215 0.11826086 1907752
1.5571246 0.53114218 0.11760092 2235692
1.5593762 0.53325146 0.1171723 1841955
1.5644426 0.53742445 0.1139608 1843210
1.5660244 0.53912938 0.11502075 1645088
1.5682312 0.54042977 0.11492771 1513253
1.5707226 0.54318005 0.11407334 1250839
1.5725253 0.54392833 0.11286479 1513742
1.5756481 0.54505336 0.11247104 1645315
1.5513134 0.52959496 0.11605197 1776166
1.5528216 0.53054309 0.11698365 1907745
1.5545768 0.53340113 0.1152451 2367781
1.5568734 0.53419805 0.11473203 1973034
1.5598778 0.53764105 0.11398095 2236460
1.5620639 0.53854716 0.11415654 1644838
1.5643101 0.53948009 0.11376369 1316393
1.5661039 0.54237115 0.11287749 1381415
1.5687827 0.54375947 0.11233526 1447450
1.5706005 0.5446102 0.11167902 1840906
1.5487452 0.53138316 0.11523789 1907741
1.5511997 0.53279626 0.11431926 2434088
1.5535156 0.53378332 0.11403692 1907739
1.5556517 0.53740937 0.11248714 1973038
1.5577891 0.53817511 0.11282116 1841955
1.5601612 0.53970289 0.11183524 1448215
1.5618782 0.54367608 0.11150289 1644825
1.5646225 0.54380184 0.11104107 1512746
1.5676285 0.54529756 0.1100266 1381406
1.5455939 0.53069419 0.11428314 1907997
1.5467839 0.53243291 0.11348665 2564901
1.5491496 0.53372002 0.11370844 2301985
1.5515599 0.53695321 0.11150998 2105622
1.5539269 0.53793365 0.11188501 1841954
1.555724 0.53872991 0.11145389 1381400
1.5584916 0.54169869 0.11010081 1711119
1.5606914 0.54323566 0.10998058 1579276
1.5626239 0.54440314 0.10900515 1578514
1.5651416 0.5450421 0.10872883 1381406
1.540772 0.53114992 0.11254603 2432834
1.5427487 0.53197157 0.11258429 2301998
1.5451772 0.53282231 0.11209911 2434091
1.5468829 0.53660345 0.11096746 1908004
1.5500836 0.53766632 0.11097628 1907751
1.5520248 0.53984284 0.10993528 1512987
1.5540187 0.54157633 0.10901725 1513749
1.556411 0.54245591 0.10966247 1645334
1.5371196 0.53032279 0.1111756 1647410
1.5387882 0.53162408 0.1113106 2499381
1.5409119 0.53186661 0.11069357 2367775
1.5429047 0.53642046 0.11040658 2236965
1.5455134 0.53738856 0.10853106 2433322
1.5481858 0.53884292 0.10863596 1710112
1.5501405 0.54084313 0.10816014 1447969
1.5519494 0.54279709 0.10737741 1775876
1.554068 0.54360723 0.10631871 1710372
1.5305064 0.52880734 0.1098606 2169915
1.5323261 0.52947533 0.11044079 2104878
1.53532 0.53130031 0.11049044 2499108
1.5393205 0.53551894 0.10935295 2172182
1.5416625 0.53735673 0.10795075 2039328
1.5438951 0.53877544 0.10729623 1644572
1.5465331 0.54034531 0.10746157 1382185
1.5479411 0.54233927 0.10610563 1710104
1.5264442 0.52805537 0.10913748 1972771
1.5284458 0.52916026 0.11019403 1973289
1.5319921 0.531506 0.10846388 2696239
1.5324107 0.5323655 0.10814083 2696504
1.5357088 0.53565776 0.10791802 2170921
1.5377378 0.53642499 0.1067965 1909014
1.539408 0.53840888 0.10656148 1579029
1.5419842 0.54013985 0.10592455 1710617
1.5447555 0.54242623 0.10522121 1645587
1.5220881 0.52710724 0.10828954 1973041
1.523903 0.52841592 0.10951841 1841703
1.5264211 0.53144449 0.10694855 3287854
1.5292158 0.53282201 0.10759753 2499118
1.5310472 0.53442091 0.10663754 2302500
1.5335107 0.5362252 0.1057536 2039338
1.5357026 0.53792173 0.10533339 1709865
1.5376838 0.53965724 0.10490972 1840922
1.5400883 0.54072338 0.1046626 1906699
1.5199058 0.52918279 0.10728633 2236201
1.5224527 0.53063762 0.10608256 2827805
1.5252635 0.53199255 0.10588545 2367015
1.5269536 0.53411865 0.1052981 2171670
1.5294807 0.53673673 0.10432899 1710108
1.5317215 0.53791034 0.10435814 1972509
1.5340251 0.53961778 0.10393417 1710104
1.5358073 0.54063916 0.10224009 1841688
1.5142992 0.52783859 0.10620487 1973539
1.5165968 0.52780461 0.1062305 1712677
1.5181009 0.53103316 0.10573775 2761760
1.5202918 0.53195822 0.10514879 2433564
1.5230743 0.53433383 0.10427845 2040104
1.5249629 0.53592539 0.10360426 1579046
1.5272621 0.53737617 0.10307366 1841446
1.5302017 0.53946245 0.10217786 2169866
1.5334692 0.54154313 0.10180575 1843727
1.510215 0.52652395 0.1050117 2105884
1.5122353 0.52776027 0.10555232 2236961
1.514513 0.53022373 0.10423404 2958637
1.5172265 0.53071439 0.10396403 2695714
1.5201287 0.53468907 0.1041289 1910319
1.5212939 0.5354948 0.1020596 2104879
1.52302 0.53752387 0.10167998 1644579
1.5253453 0.53882694 0.1009686 2104876
1.5278374 0.54027641 0.10088438 2171921
1.5077186 0.52704537 0.10415268 2301742
1.5102519 0.52990025 0.10252863 2565157
1.5126982 0.53019774 0.102485 3024680
1.5154669 0.53424126 0.10327649 2892839
1.5173714 0.53577137 0.10109568 1973801
1.519302 0.53683746 0.1005919 1776159
1.5217664 0.5387826 0.10032767 1974549
1.5021018 0.52614832 0.10470814 2368548
1.5045006 0.52726328 0.10302287 2302755
1.5063111 0.53000867 0.10193419 3157814
1.5086343 0.53083467 0.10175389 2829099
1.5110762 0.53384042 0.098851383 1513740
1.5129901 0.53544331 0.10021466 1776669
1.5153688 0.53639817 0.099418044 1841957
1.517644 0.53862536 0.099064469 2104878
1.5198076 0.53905576 0.098922253 2302255
1.4975681 0.52610552 0.10190958 2105631
1.5002736 0.52751285 0.10157281 2565416
1.5026003 0.52872241 0.10088921 2959658
1.5043883 0.53027314 0.10024208 2762033
1.5066895 0.5332315 0.099541843 2236454
1.5089569 0.53480148 0.098966777 1842210
1.5114198 0.53607297 0.098271966 2105380
1.5131948 0.53813481 0.097959638 2039841
1.5158043 0.5392977 0.097255647 2039333
1.4929665 0.52648312 0.10071629 3287854
1.4959233 0.52701104 0.10002398 2368031
1.4981062 0.52836877 0.099871635 3222818
1.5001554 0.53095114 0.098688304 2498338
1.5030737 0.53307086 0.098224878 2498597
1.5049796 0.53442132 0.097828627 2302004
1.5072205 0.53576386 0.09717679 1973543
1.5096327 0.53758252 0.096926272 1908000
1.5131763 0.53899407 0.095557511 2499634
1.4918354 0.52710301 0.099953651 2959913
1.4940953 0.52748883 0.098505974 2892842
1.495872 0.53018272 0.097297847 2236445
1.4987401 0.53245789 0.097296655 2170653
1.5011103 0.53399909 0.096564293 2368039
1.50317 0.5356065 0.096249521 1908267
1.5050476 0.53737056 0.095322967 1645342
1.4876044 0.52697062 0.097800255 2893098
1.4901781 0.52782708 0.097887099 2565661
1.4925026 0.52991784 0.096842647 2368548
1.4941525 0.53275383 0.095884204 1908265
1.4966328 0.53359592 0.09539932 2302501
1.4990155 0.53544426 0.095338762 1842987
1.5014241 0.53763014 0.094354987 1776411
1.48378 0.52628374 0.096914351 2762285
1.486382 0.52785259 0.095772862 2236713
1.4884028 0.52920061 0.095987678 2236964
1.4903021 0.53207755 0.094716728 2171170
1.4924382 0.53344679 0.094372571 2170669
1.4947343 0.5348922 0.093785346 2039339
1.4972601 0.53671682 0.092984259 2105120
1.499495 0.53836668 0.093040287 2105376
1.5017035 0.53865433 0.091670394 1907997
1.479823 0.52622908 0.095421612 2763037
1.4815402 0.52736247 0.094943225 2237464
1.4843315 0.52995878 0.094791234 2105376
1.4863107 0.53142464 0.093403161 2039583
1.4886575 0.53319103 0.0930475 2170407
1.4910092 0.5348711 0.092207611 2105883
1.4934512 0.53771728 0.091266811 1777678
1.4950768 0.53781164 0.091875613 1711885
1.4755592 0.52547264 0.095065594 2959907
1.4781153 0.52748871 0.094100118 2630942
1.4802071 0.52925366 0.093069971 2369048
1.4821887 0.53095758 0.092753351 2237718
1.4843926 0.53280616 0.091904163 2237219
1.4866163 0.5346638 0.091819525 2040852
1.4888608 0.53619421 0.090987861 1907999
1.4925897 0.53755617 0.0905779 1777678
1.4682937 0.5241065 0.094540834 3353647
1.4734801 0.52697241 0.092702806 2762530
1.4763204 0.527637 0.092723727 2367524
1.4783176 0.5307858 0.091278434 2106905
1.4803981 0.53232479 0.090743601 2171168
1.4831839 0.53407133 0.0909217 2170921
1.4850349 0.53629494 0.089811504 1776664
1.4641247 0.52331007 0.093469322 3222043
1.4673142 0.52487731 0.09203124 2696236
1.4697466 0.52639192 0.092001855 2630190
1.4719813 0.52893066 0.091189563 2368532
1.4741344 0.53093261 0.089806259 2237464
1.4763566 0.53197587 0.090236306 2237220
1.4788409 0.53411156 0.08903265 2303260
1.4808207 0.53549856 0.088270962 2236951
1.4833133 0.53572053 0.088170171 1777678
1.4582162 0.52257454 0.09254092 3483938
1.4607441 0.52279675 0.091881514 2958376
1.463586 0.52405417 0.091509163 2563647
1.465292 0.52568758 0.090210259 2499103
1.4680154 0.52749449 0.089436591 2300957
1.4700328 0.52943456 0.089092672 2236182
1.4727139 0.53166068 0.088643193 2237218
1.4747798 0.53319347 0.088218749 2039838
1.4768573 0.53455079 0.087944567 1776415
1.4785362 0.53595245 0.087026894 2234653
1.4572575 0.52152419 0.09125638 3287586
1.4592686 0.52446741 0.089892566 2104877
1.4617656 0.52517545 0.089388788 2367775
1.4660859 0.53042948 0.086900592 1974049
1.4681391 0.53175831 0.087352455 2171179
1.4707946 0.53275681 0.087554574 2236962
1.455158 0.52360803 0.088690281 2697000
1.4574145 0.52537584 0.089022696 2367269
1.4619606 0.53020197 0.086725235 2105637
1.4644479 0.53111672 0.086838603 2171439
1.4664655 0.53274941 0.086049438 2105378
1.4447833 0.52003789 0.089383066 3288110
1.4485924 0.52251053 0.087776124 2434853
1.451351 0.52320319 0.08790642 2565669
1.453522 0.52488524 0.08778888 2498597
1.4559901 0.52834797 0.086150169 2433840
1.458057 0.5293504 0.085651696 2302000
1.4601814 0.53032011 0.085319161 2302759
1.4621575 0.5330795 0.084317148 2367774
1.4396768 0.51926696 0.088363826 3156524
1.4422432 0.5196234 0.088834882 3288095
1.4447261 0.52164888 0.086759031 2828067
1.4467204 0.5222401 0.087345958 2893866
1.4495434 0.52426386 0.086650133 2499100
1.4513206 0.5286355 0.084612787 1514508
1.4535105 0.52883005 0.084559619 2368293
1.4561453 0.53016168 0.084406972 2368042
1.4596139 0.53175163 0.082873404 2566180
1.4602818 0.5330286 0.083565056 2106643
1.440686 0.52104938 0.085896313 2893601
1.4429042 0.52309012 0.085337341 2367778
1.446016 0.52538562 0.084547997 2433319
1.4476804 0.5252623 0.084426343 2433318
1.4499521 0.52912462 0.08362335 2368301
1.4518811 0.53011584 0.082594812 2105638
1.4538939 0.53328085 0.081731558 2237718
1.457162 0.53475451 0.081384122 2238229
1.4583079 0.53494799 0.082231283 2172179
1.4351094 0.51984727 0.08430773 3223333
1.4365804 0.52093899 0.085177183 3025704
1.4390638 0.52258945 0.084459305 2302255
1.4413188 0.52427089 0.083148122 2367780
1.4431863 0.52784348 0.08271414 2171676
1.445522 0.52867496 0.082255006 2368553
1.4477522 0.52981424 0.081794918 2565672
1.4502729 0.53137714 0.081224501 2500388
1.4547335 0.53539884 0.079645574 2237462
1.4300351 0.51958662 0.083952665 3288875
1.4322724 0.51965177 0.084056258 3223326
1.4346813 0.52308357 0.082895935 2497370
1.4370697 0.52382016 0.082483888 2499364
1.4389303 0.52649605 0.081833065 2368810
1.4421133 0.52808332 0.080845773 2236967
1.4441912 0.52893257 0.080701709 2565930
1.4458437 0.53118056 0.079354644 2762253
1.4480927 0.53261441 0.078584194 2632474
1.4257605 0.51875389 0.082872748 3289131
1.4282817 0.51862907 0.082718194 3354419
1.43048 0.52262461 0.082110584 2497838
1.433461 0.52359086 0.081401527 2564652
1.4356878 0.5268749 0.080852449 2433839
1.4377327 0.52782989 0.079619288 2301997
1.440038 0.52957129 0.079895735 2566182
1.4419909 0.53083056 0.078637719 2894886
1.4436543 0.53207231 0.078007877 2763028
1.4216298 0.51838136 0.082467496 3550255
1.4234581 0.51890433 0.079906583 3812409
1.427362 0.52263331 0.07972014 1974547
1.4294882 0.52356291 0.079384387 2434081
1.4311619 0.52566445 0.079677761 2170919
1.4333069 0.52744853 0.078783453 2368045
1.4352807 0.52877963 0.077995002 2763054
1.4379989 0.53041089 0.078768671 3158064
1.4403194 0.53227258 0.077938318 2434593
1.4184214 0.51867473 0.079540849 3681327
1.4207771 0.51974487 0.080414951 3024432
1.4230891 0.52128053 0.079463899 2433838
1.4250114 0.52278352 0.079265296 2433832
1.4271888 0.52546823 0.078293204 2303012
1.4294386 0.52696002 0.077947438 2499629
1.4317192 0.52891082 0.077171504 3025452
1.433588 0.53193951 0.076385498 2434341
1.4361532 0.53260958 0.075946391 2237990
1.4378904 0.53326422 0.076197684 2565927
1.4141527 0.51800412 0.080349982 3156267
1.416586 0.51914567 0.079187632 3090223
1.4180245 0.52075374 0.078059196 2564408
1.4209243 0.52262771 0.078128636 2631206
1.4227585 0.52485073 0.076840222 2433831
1.4251907 0.5268023 0.076439738 2500137
1.4278104 0.52853632 0.0765481 2763313
1.430068 0.53012443 0.074718356 2499620
1.4322009 0.53187895 0.074730098 2368043
1.4344304 0.53250504 0.073523521 2435915
1.4100615 0.51795089 0.078681111 3288350
1.4122831 0.51864421 0.077680528 2893356
1.4144102 0.52078277 0.078067005 2564151
1.4189534 0.52469045 0.075716138 2237217
1.4206154 0.52591062 0.075922847 2499630
1.4232075 0.52829421 0.074791908 2828566
1.4256902 0.53010762 0.074311912 2894627
1.427932 0.53161502 0.073807776 2303010
1.4057806 0.51713276 0.077620447 2631441
1.408295 0.51702237 0.077485263 2499859
1.4098581 0.5202328 0.076680422 2432560
1.412501 0.52255327 0.07534641 2368030
1.4148333 0.52482712 0.074107647 2432555
1.4170281 0.5258249 0.074708283 2499876
1.4195361 0.52823532 0.073723137 3157791
1.4219548 0.52954167 0.073991597 2762788
1.4238683 0.53138536 0.071956873 2368302
1.4039266 0.51855838 0.074689686 2696480
1.4061732 0.52078807 0.074826658 1840411
1.4088395 0.52195072 0.074482322 1775382
1.4107139 0.52394146 0.073308885 2365722
1.4131016 0.52539855 0.073837996 2499369
1.4153473 0.52720881 0.072712958 2894623
1.4175801 0.53029948 0.071941078 2105376
1.4196666 0.53164828 0.070898712 2433587
1.3964344 0.51495194 0.074897826 8746319
1.3977679 0.51690727 0.074883401 7233626
1.3999289 0.51814622 0.074586093 5064773
1.4021404 0.51985228 0.073896289 2894115
1.4046781 0.52147424 0.073265433 1578778
1.4067845 0.52348584 0.072810709 1511948
1.4091938 0.52561533 0.071943998 1906950
1.4110432 0.52692264 0.07123059 2302746
1.4149946 0.53058219 0.071631014 2236962
1.3919218 0.51444149 0.074229419 13288090
1.3934901 0.51637673 0.073737204 10985855
1.3959482 0.51763433 0.073477805 7959146
1.3981754 0.51820493 0.072976351 6183010
1.400317 0.52110291 0.071716726 7038824
1.4025152 0.52294493 0.071507752 3880250
1.4046205 0.52547282 0.070308805 2894881
1.4072882 0.52664351 0.070860744 1907989
1.4099464 0.52975988 0.068337202 2629916
1.4120051 0.53061211 0.069170833 2762790
1.4141622 0.53119481 0.068166673 2302504
1.3871052 0.51381505 0.073405027 15986136
1.3896433 0.51547492 0.07220602 15722708
1.3917876 0.51726878 0.072082877 13749453
1.393837 0.52042776 0.071093738 10129552
1.3966535 0.52132201 0.070682168 9275258
1.3987699 0.52311504 0.070457816 7169365
1.4014719 0.52491891 0.06986475 3947060
1.403044 0.52632928 0.069513559 1645086
1.4078435 0.53048456 0.068203866 1908994
1.3812091 0.51297873 0.0724594 16182737
1.383702 0.51289606 0.072328448 16182991
1.3856509 0.51593053 0.070965648 15393760
1.3879281 0.51691914 0.071252346 14867926
1.3901217 0.51908642 0.070133805 15459548
1.3922422 0.5210644 0.069595695 12169657
1.39446 0.5231334 0.068725884 9341824
1.396873 0.52441454 0.068567634 6645355
1.399111 0.52580297 0.068189204 2041911
1.4018164 0.52846903 0.067333639 921610
1.4041905 0.53013337 0.066972196 1514264
1.4064536 0.53057945 0.066409051 1448970
1.3741078 0.50961256 0.071355402 15655080
1.3766636 0.51199734 0.071161866 16182468
1.3789119 0.51223254 0.071486771 16182738
1.3812084 0.51496655 0.069707215 15853005
1.3832589 0.51696634 0.069949627 15590866
1.3859061 0.51866078 0.069203556 15722707
1.3878199 0.52016795 0.068837702 14736577
1.3901882 0.52221608 0.068080783 13420472
1.3926239 0.5232867 0.067674398 11119766
1.395134 0.525608 0.068000674 2570043
1.3702877 0.50960946 0.07140404 15654563
1.3723724 0.51050436 0.070551097 15260322
1.3751121 0.51361406 0.06891346 14930578
1.3774023 0.5146206 0.069043994 15391909
1.3795567 0.51686382 0.068827569 15590071
1.382144 0.51844293 0.068472803 15722181
1.3840051 0.51977837 0.067580163 15657658
1.3864859 0.52233028 0.066963971 15065561
1.3888625 0.52312791 0.066943347 14144967
1.3902576 0.52493149 0.066664338 9672090
1.3663163 0.5089559 0.070508063 15588758
1.368886 0.51110649 0.069177568 14733721
1.370805 0.51232648 0.068261683 14602640
1.3735235 0.51429474 0.068661034 14799520
1.3755169 0.51638901 0.067662895 14998200
1.3778806 0.51848555 0.067256868 15787179
1.3804637 0.52047837 0.065941513 15591345
1.3826935 0.52157974 0.066235483 15723233
1.3841658 0.52333403 0.065306604 14079939
1.3631831 0.50882018 0.068771899 15390866
1.3648151 0.51076311 0.068018973 14667405
1.3666613 0.51224601 0.067999721 14669195
1.3691145 0.51452535 0.066927254 14602392
1.371646 0.51559317 0.066623509 14865573
1.3737628 0.51785648 0.066177785 15326362
1.3760593 0.51975274 0.065428376 15393704
1.3784163 0.52103257 0.065004647 15921865
1.3590089 0.50825435 0.066488326 15194515
1.3604927 0.51031792 0.067364633 14865045
1.3630103 0.51151681 0.066685677 14208136
1.3649323 0.5139643 0.065852463 14076303
1.3670549 0.51543361 0.065251112 14800012
1.3695279 0.51716566 0.064877689 15392409
1.3721209 0.51879913 0.064229071 15195290
1.3745072 0.51963997 0.063691735 15459260
1.3545589 0.50814486 0.066274107 15129247
1.3576519 0.50920641 0.066522896 14733722
1.3588485 0.5120703 0.064644873 14076564
1.3614352 0.51346242 0.065064073 14076565
1.3632259 0.51531827 0.06384486 14669464
1.3657415 0.51590538 0.064310431 14404994
1.3679475 0.51906216 0.063504279 14734197
1.3494362 0.50733387 0.06523633 14931869
1.3522449 0.50880378 0.065211475 14800517
1.3547019 0.51107693 0.064269125 14274452
1.3567415 0.51341474 0.063562691 14405773
1.3588287 0.51481521 0.063058078 14471827
1.361328 0.5169729 0.062208354 14602611
1.3637145 0.51924342 0.061788499 14799243
1.3666368 0.51881725 0.060998201 14734467
1.343778 0.50636756 0.064047754 14801814
1.3462397 0.50763649 0.064241707 14734729
1.3487073 0.50984085 0.063623071 14274186
1.3508089 0.51090539 0.063242376 14340001
1.3528936 0.51349717 0.061916411 14537090
1.3553674 0.51462698 0.062007666 14603912
1.3569809 0.51846445 0.061105907 14207861
1.3593779 0.51802933 0.060429811 14470006
1.3617711 0.51860976 0.061062813 14469526
1.3398306 0.50563896 0.063173115 14669983
1.341707 0.50692904 0.06366986 14734737
1.3441166 0.50837088 0.062785745 14536835
1.3464112 0.51034486 0.06259656 14602644
1.3491611 0.51289964 0.061347246 14471817
1.3510383 0.51421273 0.060865641 14603412
1.3531373 0.51622462 0.060084879 14669189
1.3561709 0.51739514 0.059821188 14471537
1.3358086 0.50476503 0.062080085 14078613
1.3380013 0.50640506 0.062409878 14340243
1.3405505 0.50885391 0.060904384 14273927
1.3426402 0.51001424 0.060936868 14273698
1.3447573 0.51275152 0.059897244 14734726
1.3472261 0.51335895 0.05982846 15064214
1.3489996 0.51591378 0.059058547 15128991
1.3521222 0.51622581 0.058552384 15196018
1.3318787 0.50451821 0.061734617 14209441
1.3340361 0.5066756 0.061814845 14144131
1.3359178 0.50831854 0.060179591 13221496
1.3385613 0.50912607 0.059948623 13813652
1.340551 0.51248598 0.058824837 14142332
1.3429633 0.5134784 0.059089541 14733965
1.3457944 0.51490629 0.057370305 15326102
1.3251047 0.50358635 0.060466468 9603196
1.3276374 0.50433981 0.06069243 11115140
1.3302236 0.50618249 0.059145391 13419673
1.3321133 0.50824666 0.059104204 14339737
1.3344951 0.50947487 0.058641255 13747870
1.3365012 0.51209772 0.057551622 14142343
1.3384006 0.5134322 0.057261288 13944946
1.3413446 0.51440609 0.056758642 14339961
1.3216946 0.50320232 0.05998987 9537405
1.3237822 0.50363278 0.059465468 9472128
1.3281832 0.50797856 0.057817161 10787734
1.3300012 0.50900888 0.057217121 13352617
1.3326945 0.51188534 0.056132972 13156023
1.3346272 0.51303852 0.056119502 14142357
1.3376566 0.51375455 0.056162238 14208147
1.3174535 0.50230032 0.058940828 10261621
1.3197441 0.50346643 0.058353364 9077120
1.3217424 0.5060457 0.058170497 8486791
1.3241813 0.50728941 0.056865573 8486011
1.3269167 0.50903374 0.056551874 9208183
1.32862 0.51132023 0.055310905 10262679
1.331156 0.51240098 0.055757344 11709848
1.314903 0.50187171 0.058432341 10392943
1.317301 0.50644994 0.056838453 8813700
1.3205056 0.50791562 0.055546641 9078916
1.3224248 0.5088551 0.05456084 9407885
1.3244385 0.51082069 0.054751575 10263449
1.3265096 0.51245153 0.053023338 10197134
1.328589 0.51373386 0.053238213 10064764
1.3179435 0.50816286 0.054903865 9408406
1.3207295 0.51042616 0.053842664 10790550
1.3226476 0.51230466 0.052042544 10130833
1.3248115 0.51327854 0.052820385 10131846
1.3199525 0.51356757 0.051865757 10197639
1.3173504 0.51424706 0.051251709 10262916
1.3157411 0.56406254 0.0096210837 10459258
1.3101522 0.56319916 0.0085082054 10721657
1.3134739 0.56693149 0.0084679723 10129783
1.3159498 0.567541 0.0092797279 9866599
1.3179077 0.56973886 0.0062160492 9538961
1.3046498 0.56222534 0.0073779821 10920317
1.3084126 0.56326008 0.0086512566 10458486
1.3090891 0.56659186 0.0075414777 9866871
1.3109851 0.5668447 0.0061786771 9538419
1.3139715 0.56979394 0.0057928562 9472652
1.31621 0.57105494 0.0054942966 9538185
1.3171995 0.57367069 0.0056122541 9144196
1.319829 0.5753237 0.0044817328 9144707
1.3234491 0.57789612 0.0027358532 8880774
1.3252001 0.57890332 0.0036405921 8814988
1.328854 0.58285344 0.0025228858 9012620
1.3307153 0.58349335 0.0011163354 9013121
1.2989925 0.55976552 0.0074423552 10525313
1.3000746 0.56244636 0.0076073408 10590587
1.3032148 0.56388426 0.0069410205 9933184
1.3057966 0.56595027 0.0062614679 10130032
1.3070536 0.56757534 0.0053678155 9801608
1.3095452 0.56920397 0.0057578683 9736337
1.3113627 0.57157052 0.0043084025 9801613
1.314064 0.573066 0.0052216053 9537932
1.3217522 0.57855022 0.003354609 8881783
1.2925714 0.55896366 0.006390214 10722445
1.295155 0.56051517 0.0059685111 7304579
1.2966489 0.56177121 0.0063074231 9933962
1.2993175 0.56341088 0.0053135157 9605264
1.3014259 0.56481528 0.0050799847 9145224
1.3034642 0.5674566 0.0051041245 9999503
1.3057177 0.56830573 0.0045608878 9210759
1.3080802 0.57104558 0.0036352277 8750216
1.3089001 0.57263911 0.0038379431 9078399
1.2830424 0.55381584 0.0065171123 10722969
1.2846813 0.55481136 0.0060640574 10592398
1.2879975 0.55806267 0.0056923628 10460311
1.2901222 0.5589236 0.0056837797 9934222
1.2926655 0.56130797 0.0053398013 9736849
1.2947754 0.56333697 0.0049545765 9671060
1.2974026 0.56500435 0.0045203567 9473681
1.2990011 0.56710875 0.0043863654 9276817
1.301458 0.56825918 0.0033938289 9211024
1.3040785 0.57120419 0.0028960109 7895422
1.3060852 0.5724479 0.002510488 7764093
1.2793947 0.55387294 0.0057902932 10986651
1.2819294 0.55487752 0.0059715509 10460302
1.2841372 0.55751526 0.0051574111 9803407
1.2860181 0.55872774 0.0051594973 10263958
1.2882462 0.56128937 0.0044088364 9802899
1.2908703 0.56276011 0.004529655 9868692
1.292688 0.56485558 0.003187716 9934486
1.2953007 0.56681103 0.0026448965 10920102
1.2976397 0.56789118 0.0025596023 9539216
1.2798839 0.55758244 0.0044627786 10526877
1.2822016 0.55882716 0.0041875839 10461342
1.2846544 0.5610739 0.0039029717 10394776
1.2867062 0.56272197 0.0038797259 10856104
1.2893908 0.56447762 0.0026581883 10329756
1.2906518 0.56738222 0.0020028353 10658718
1.2932839 0.56746918 0.0019209981 11051158
1.2977399 0.57105273 0.0013827682 10855067
1.280499 0.56036764 0.003257215 10527144
1.6860186 0.53623855 0.15976238 10919587
1.6872413 0.53755498 0.16134661 10525080
1.6837707 0.53726059 0.16035864 11446692
1.6867983 0.54024905 0.1583069 11381928
1.6894124 0.54178107 0.15700281 12040397
1.6922297 0.54515821 0.15723178 10394794
1.6941745 0.5461852 0.15603769 10131625
1.6779524 0.53609955 0.15953448 11840946
1.6805815 0.5376218 0.15778917 11117476
1.6823151 0.5381645 0.15868086 11183261
1.6868514 0.54384029 0.15588385 11446711
1.688778 0.54459256 0.15642983 11315630
1.69067 0.54602897 0.15527141 11973050
1.6755162 0.53677636 0.15716401 11645630
1.6783845 0.53848898 0.15743044 11512238
1.6824827 0.54436374 0.15608534 11644863
1.6843529 0.54515678 0.15499872 11644599
1.6866423 0.54546183 0.15411851 11249581
1.6890607 0.547539 0.15375331 11841473
1.6715757 0.53842592 0.15608051 924950
1.6742952 0.53849399 0.15617216 7567742
1.6766808 0.54045171 0.15515125 10987947
1.6810651 0.54486215 0.15350255 10988733
1.6828481 0.54516298 0.15343702 10855854
1.6844342 0.54677916 0.15246704 12105406
1.6872408 0.55033231 0.15281919 11643532
1.6887209 0.55089098 0.15030789 11379860
1.6738718 0.54116654 0.15298247 4346471
1.6789266 0.5459789 0.15174448 5002846
1.6807342 0.54712307 0.15201885 7765382
1.6829878 0.54940671 0.15142754 11776964
1.6851114 0.55144286 0.14998886 11578026
1.6707988 0.54250401 0.15216786 1249817
1.6720934 0.54245925 0.15200466 1710116
1.6769083 0.54749596 0.14976954 988194
1.6791198 0.54863 0.15008295 2635590
1.6821808 0.5514403 0.14880446 11050914
1.6836455 0.55151063 0.14846966 11840159
1.6638734 0.54025936 0.15028027 2104093
1.6655889 0.54140401 0.1513828 1906973
1.6687279 0.54287714 0.15058154 1710110
1.6728384 0.54863364 0.1487031 2170919
1.6754661 0.5486325 0.14858231 1184558
1.6767304 0.54987293 0.14749616 856092
1.6800423 0.55283552 0.14726192 6050124
1.682255 0.55239171 0.14647239 11314316
1.6597426 0.53988671 0.14987504 2038813
1.6614463 0.54033113 0.15037689 2104093
1.6640692 0.54298759 0.1488784 1512736
1.6665735 0.54325283 0.14933223 1446437
1.671728 0.54926389 0.1472052 1513242
1.6735473 0.55003959 0.14697847 1776417
1.6753356 0.55169404 0.14630747 1644825
1.6783086 0.55418265 0.14503431 1906441
1.6580278 0.54091322 0.14895058 1315860
1.6608696 0.54192966 0.14787793 1447449
1.6667368 0.54903209 0.14580125 1578783
1.6693414 0.5492751 0.14585006 1644574
1.6729021 0.55179048 0.14505476 1709610
1.6739039 0.55469733 0.1437785 2433308
1.6758389 0.55512601 0.14383253 1513237
1.6539912 0.5403949 0.1472871 1579546
1.6564493 0.54126376 0.14770344 1644822
1.6572336 0.54304224 0.14490348 1381653
1.6605058 0.54733962 0.14602011 1447446
1.6628835 0.54816282 0.14478019 1579296
1.6652627 0.54907435 0.14478496 1578780
1.6669848 0.54967535 0.14334619 1841955
1.6690037 0.55390579 0.14337599 2105116
1.6718824 0.55497473 0.142526 1973279
1.6737206 0.55624455 0.14269564 1579287
1.6506691 0.54109216 0.14699936 1447197
1.6516614 0.5417636 0.14618224 1512989
1.655118 0.54339826 0.14551818 1315862
1.6560276 0.54643005 0.14411891 1578011
1.659106 0.54748416 0.14390084 1578787
1.6607081 0.54825789 0.14371324 1644069
1.6657785 0.55365568 0.14253727 2039335
1.6677852 0.55468017 0.14077741 2038812
1.6698254 0.55641091 0.14118734 1119768
1.6453936 0.54049748 0.14496949 1315107
1.6482494 0.54111046 0.14448151 1644057
1.6513889 0.54254198 0.14394939 1380635
1.653082 0.54632682 0.1437937 1709596
1.6546371 0.54719847 0.14264923 1513241
1.65712 0.54818499 0.14247942 1644829
1.6590451 0.55303919 0.14162898 2038803
1.6612818 0.55249131 0.14072418 2039316
1.6639262 0.55472392 0.13990176 1710360
1.6660391 0.55558419 0.14020336 1249562
1.6416417 0.53976375 0.14414322 1118995
1.6435994 0.54149705 0.14308348 1512727
1.6461508 0.54236907 0.14336923 1578520
1.6478219 0.5452767 0.14243546 1776413
1.6508174 0.54712695 0.14159274 1447707
1.6527586 0.54822642 0.14068961 1316631
1.6550293 0.549505 0.13942751 1710618
1.6574991 0.55252612 0.13984972 1775388
1.6598134 0.55476832 0.13892022 1644319
1.6619642 0.55555087 0.13883609 1184288
1.6360795 0.53792781 0.14262575 1314064
1.6378011 0.53885943 0.14328557 1249552
1.6395422 0.54083824 0.14212787 1578263
1.6422172 0.54139084 0.14203447 1578010
1.6446098 0.54535669 0.1406616 1775646
1.646278 0.54686689 0.14048582 1381151
1.6490343 0.54813439 0.13975096 1644325
1.6510494 0.55077326 0.13913578 1645080
1.6539459 0.5525704 0.13805205 1446682
1.6557412 0.55339175 0.13822931 1578520
1.6585417 0.55524433 0.13788879 1512748
1.6311327 0.5377717 0.14218327 1052689
1.6339695 0.53877252 0.14270201 1381393
1.6361216 0.54090196 0.14105171 1316368
1.6384079 0.54064798 0.1409798 1578517
1.6405249 0.54521662 0.13977316 1710133
1.6429336 0.54622954 0.13950276 1578278
1.6444519 0.54814267 0.13879737 1644577
1.6473081 0.54995161 0.13801515 1579032
1.6494514 0.55184871 0.13726789 1578774
1.6517024 0.55282825 0.1371358 1315862
1.6254792 0.53572267 0.14056611 1052688
1.6273463 0.53676814 0.1410231 1118493
1.6289471 0.53778613 0.14131182 1381918
1.6320951 0.54029632 0.14029539 1512479
1.633652 0.54103225 0.14128438 1447197
1.6359082 0.54495132 0.13836676 1578026
1.6384873 0.54616022 0.13798955 1644579
1.6412659 0.54747695 0.13738257 1644836
1.6428499 0.54967332 0.1369499 1579034
1.6451678 0.55118507 0.13621974 1776152
1.6477041 0.55325711 0.13583034 1118741
1.6236322 0.53665829 0.14007998 986895
1.6253424 0.53886986 0.1394496 1775389
1.6276302 0.5398103 0.13971117 1644059
1.6297953 0.54217964 0.1371721 1447197
1.6318784 0.54436707 0.13731235 1578528
1.6345327 0.54579431 0.13654369 1382188
1.6362666 0.5467397 0.13674372 1514017
1.6390296 0.54955524 0.13568503 1447205
1.6411561 0.55112231 0.13505244 1316127
1.643779 0.55260754 0.13485652 1053467
1.6212335 0.53848624 0.13813123 1512723
1.6233065 0.5389871 0.138439 1578520
1.6264168 0.54152048 0.1360057 1315611
1.6281596 0.54393399 0.13685459 1511983
1.6306059 0.54595816 0.1356163 1578523
1.6323768 0.54661494 0.13574773 1710114
1.6348529 0.55006397 0.13474435 1447701
1.6371424 0.55109119 0.13357168 1381659
1.6392385 0.55183423 0.134094 1053730
1.6142783 0.53566021 0.13781545 987431
1.6177995 0.53805244 0.13708526 1447199
1.6195374 0.53842807 0.13722068 1314853
1.6232967 0.54401881 0.1354472 1513009
1.6263096 0.54537648 0.13444394 1710626
1.6284955 0.5464676 0.13427263 1578781
1.6307328 0.54840481 0.13380224 1578260
1.6333117 0.55088878 0.13259149 1512980
1.6348311 0.55178457 0.13193536 1249816
1.609725 0.53422421 0.13648993 856858
1.6115026 0.5348779 0.13706672 1118744
1.6126965 0.5378533 0.13554484 1447449
1.6155369 0.53895056 0.13603282 1578525
1.6179194 0.5409115 0.13430023 1644817
1.6193221 0.54307777 0.13444221 1645081
1.6221598 0.54486012 0.13341451 1645089
1.6246495 0.54622817 0.13243479 1579037
1.6267912 0.54782879 0.1331712 1446688
1.6285993 0.54986995 0.13180566 1578519
1.630789 0.55194581 0.13112098 1184014
1.6067536 0.53550744 0.13494056 1118751
1.6090102 0.5369724 0.13482976 1446685
1.6110771 0.53868771 0.13423949 1972508
1.6144021 0.54166412 0.13325661 1841437
1.6157053 0.54269844 0.1329385 1579034
1.6183951 0.5437302 0.13227701 1776666
1.6204567 0.546606 0.13197905 1512992
1.6226693 0.54829472 0.13121516 1249821
1.625097 0.54988801 0.13066071 1184538
1.6276941 0.55174226 0.12996185 1118234
1.6291549 0.55195975 0.12934226 920855
1.6040876 0.53548664 0.13486391 1316395
1.6044424 0.53652316 0.13365841 1381158
1.6070279 0.5379163 0.1333971 2104099
1.608865 0.54199475 0.13230044 2103113
1.6115828 0.5420959 0.13197768 1644073
1.6142317 0.54445201 0.1310249 1842467
1.6164213 0.54652077 0.13038093 1317399
1.6185164 0.54817563 0.12994754 1382167
1.6211846 0.54941231 0.12929875 1053736
1.6235185 0.54966575 0.12902975 725016
1.6011372 0.53663021 0.13218141 1776154
1.6030626 0.53783047 0.13210654 1644583
1.6057172 0.54129881 0.13136935 1709614
1.6073642 0.54144126 0.13032907 1775908
1.6101623 0.5435909 0.13011354 2038054
1.6120797 0.54555988 0.12941176 1644832
1.6145418 0.54798985 0.12860149 1381407
1.6164337 0.54916137 0.1282782 1053967
1.6188736 0.54996538 0.12792349 1316114
1.597244 0.53691828 0.13160056 2170650
1.5993814 0.53807557 0.13090605 1578779
1.6036396 0.5420987 0.12902772 1775156
1.6057117 0.54371804 0.12886333 1775911
1.6082447 0.5451048 0.12841254 1579035
1.6104431 0.54718745 0.12750429 1315609
1.612704 0.54824644 0.1269784 1119008
1.5904828 0.53529274 0.13092327 1644825
1.5925235 0.53605098 0.13110858 1907997
1.5950286 0.53745317 0.12968391 1710106
1.5975386 0.53838432 0.12978792 1709594
1.5991936 0.54181629 0.12820178 1775912
1.601679 0.54353315 0.12776083 1644073
1.6040636 0.54469609 0.12745583 1578530
1.6062748 0.54721606 0.12652558 1315609
1.6084965 0.54846269 0.1260044 1185055
1.5864265 0.53485858 0.12896943 2368552
1.5893552 0.53660375 0.12962055 2302493
1.5908602 0.53716344 0.12827045 1710109
1.5934004 0.53864342 0.12820321 1513484
1.595486 0.54144096 0.12723231 1842974
1.597623 0.54283696 0.1263991 1710887
1.5998278 0.54414111 0.1263786 1381673
1.6022931 0.54663301 0.1256811 1380390
1.6049402 0.54865885 0.12436247 1185047
1.5817767 0.53436875 0.1287359 2301985
1.5847058 0.5352934 0.12816799 1711394
1.5873969 0.53664362 0.12771255 1710113
1.5886917 0.53945905 0.12627697 1907494
1.5915543 0.54037392 0.12651914 1908515
1.59374 0.5424419 0.1249004 1842215
1.5959108 0.5444231 0.12493604 1316898
1.5985367 0.54547805 0.12380904 1250840
1.6000938 0.54824203 0.12370521 1184023
1.6023271 0.54963559 0.12330526 1118484
1.577456 0.53356582 0.12781239 1907483
1.5805693 0.53472781 0.12718236 1777693
1.5832514 0.5358029 0.12653661 1580061
1.5873387 0.54203039 0.12505215 2039336
1.5897522 0.5425393 0.12459207 1973542
1.5917224 0.54439604 0.12365544 1382935
1.5940526 0.54615766 0.12307638 1316117
1.5965786 0.54781306 0.1226002 1250066
1.5987903 0.54857165 0.12219524 1316116
1.6009079 0.54976535 0.12143123 1249061
1.57511 0.53314656 0.12614536 1578547
1.5767584 0.53459924 0.12581092 1710372
1.5790954 0.53497642 0.12538403 2368024
1.5834959 0.5415498 0.12417752 2171169
1.5854192 0.54228896 0.12310618 1841956
1.5876563 0.54363883 0.1229651 1579804
1.5901618 0.54532522 0.12187773 1382425
1.5924169 0.54704356 0.1216839 1381395
1.5945361 0.54803616 0.12018591 1840163
1.5704377 0.53375769 0.12522775 1186610
1.5728812 0.53465968 0.12466371 2038314
1.5744691 0.53494459 0.12369078 1972778
1.5787787 0.54119945 0.12271476 1644576
1.5815301 0.54161906 0.12179512 1841959
1.5837667 0.54377979 0.12151235 1578778
1.5861852 0.54452783 0.12118959 1578776
1.5880886 0.54709399 0.12023026 1251112
1.5654445 0.53243178 0.1236921 2103835
1.5684698 0.53426844 0.12334222 2170138
1.570562 0.53485239 0.12325418 2170141
1.5728101 0.53919959 0.12232774 2105380
1.575377 0.54063052 0.12056535 1841950
1.5775197 0.54089916 0.12097073 1907493
1.579617 0.54331046 0.12021589 1512991
1.5822827 0.54466814 0.12006134 1841179
1.5841465 0.54668933 0.11832988 1578780
1.5621024 0.53245252 0.1226657 2039331
1.5638099 0.53292906 0.12244093 2170909
1.5665448 0.53470325 0.12164372 1973274
1.5712014 0.53987038 0.11942106 1842208
1.5733668 0.5410018 0.12019616 1710880
1.575543 0.54343289 0.11911923 1120278
1.5773454 0.54439116 0.11866313 1579540
1.5795085 0.54616433 0.11780298 1513492
1.5582392 0.53194708 0.12116396 1906991
1.5601389 0.53298134 0.1211071 1908011
1.562367 0.53491098 0.1200735 1776411
1.5669458 0.53952688 0.11936218 1711121
1.5690386 0.54024982 0.11904639 1907749
1.5715969 0.54281843 0.11754817 1381653
1.5736682 0.54420453 0.1172564 1447957
1.575474 0.54523414 0.11681271 1711372
1.5536987 0.53176701 0.12028104 1841706
1.556039 0.53254324 0.12026727 2236206
1.558418 0.53451592 0.11991519 2039069
1.5611621 0.5385375 0.11875337 2039583
1.5632675 0.53889102 0.11799043 1776661
1.5651346 0.54094642 0.11699051 1644834
1.5673674 0.54170907 0.11669761 1579543
1.5697988 0.54438102 0.11635947 1316627
1.5483764 0.52999222 0.11903626 1775910
1.5497923 0.53118253 0.11934644 2170160
1.552233 0.53261274 0.11909705 2696492
1.5551065 0.53401524 0.11841893 2037787
1.5588 0.5389142 0.11693603 1908003
1.5611441 0.54041493 0.11587745 1710117
1.5630455 0.541435 0.11637688 1710368
1.5659828 0.54434621 0.11469966 1578029
1.5680947 0.5449636 0.11464792 1447446
1.5462618 0.53124332 0.11837351 1907748
1.5476902 0.53164244 0.11816812 2104863
1.5499272 0.53443027 0.11717474 2300959
1.5524101 0.53502333 0.11610031 2169121
1.5546256 0.53850579 0.11534268 1907992
1.557206 0.53976619 0.11502767 1709858
1.5593412 0.54035866 0.11534196 1907750
1.5608485 0.5433293 0.11387759 1906958
1.5637643 0.5451436 0.11311167 1578007
1.543846 0.53227651 0.11660004 2301738
1.5464404 0.53397566 0.1159907 2761509
1.5482302 0.5347923 0.11570162 2169628
1.551252 0.53860724 0.11314303 2039583
1.5529251 0.53962862 0.11392075 1710117
1.5575802 0.54359478 0.11252326 1841429
1.5605912 0.54490542 0.11243272 1709326
1.5397575 0.53274345 0.11541122 2696494
1.5421257 0.53332686 0.11491728 2367276
1.5447576 0.5341863 0.11459309 2038579
1.5469422 0.53834867 0.1125592 2104633
1.5490261 0.53924572 0.11337852 1907498
1.550746 0.54070342 0.11225981 1512490
1.5538306 0.54315537 0.11139542 1580047
1.5553907 0.5439232 0.11171335 1579540
1.5338594 0.53067613 0.11561739 2500134
1.5359348 0.53154886 0.11391389 2434607
1.5381478 0.53315663 0.11361599 2301994
1.5398434 0.53399563 0.11430436 2366752
1.5425912 0.5378986 0.11206645 1974040
