# .PCD v0.7 - Point Cloud Data file format
VERSION 0.7
FIELDS x y z rgba
SIZE 4 4 4 4
TYPE F F F U
COUNT 1 1 1 1
WIDTH 1217
HEIGHT 1
VIEWPOINT 0 0 0 1 0 0 0
POINTS 1217
DATA ascii
1.3562629 0.58946669 0.30194378 1120322
1.3583167 0.58936334 0.30143112 1054526
1.3605821 0.59277451 0.30144697 989492
1.3626859 0.59447944 0.30147326 1054264
1.3637505 0.5962832 0.30109671 855856
1.3552793 0.58934695 0.29962707 1054527
1.3569794 0.59212685 0.29961738 923707
1.3589599 0.59311557 0.29989037 1120310
1.3604851 0.59539759 0.29966909 987699
1.351671 0.58895761 0.29769534 1054782
1.3528231 0.59021366 0.29906648 989245
1.3546399 0.59237182 0.29835635 989242
1.3569843 0.59444726 0.29811561 1053490
1.3493125 0.58961785 0.29719782 1054783
1.3511518 0.59164333 0.29664052 989496
1.3526723 0.59398699 0.29644802 922158
1.3543646 0.594818 0.29733095 855598
1.3456335 0.58913618 0.29515359 1054526
1.3475959 0.58983129 0.29561779 989241
1.3488308 0.59316713 0.29489756 1119284
1.3502134 0.59413731 0.29500639 790314
1.3431444 0.58913958 0.29388493 1055039
1.3448682 0.59253311 0.2938098 1053747
1.3463799 0.59346277 0.29337755 724519
1.3372352 0.58795923 0.29252282 1186112
1.3397796 0.58868682 0.29261607 1055037
1.3409333 0.59164357 0.2924518 1119541
1.34306 0.59297311 0.29211617 658729
1.3351498 0.58816522 0.29101682 1055036
1.3375742 0.5903722 0.29080915 988725
1.3390269 0.59190917 0.29054943 790570
1.3315599 0.58743036 0.28924769 1120575
1.3331923 0.58947515 0.2895368 988982
1.3355598 0.59139431 0.28914714 856107
1.3281536 0.58632278 0.28801066 1186113
1.3293395 0.5882138 0.28796494 989496
1.3312076 0.59046149 0.28772497 1053489
1.3341554 0.59135658 0.28696799 658982
1.324165 0.58607239 0.28626028 1186112
1.3257411 0.58720851 0.28610587 989751
1.3276837 0.58982164 0.28632572 922414
1.3305023 0.59105647 0.28615898 724517
1.3191447 0.58631372 0.28543466 1251648
1.3214847 0.58662856 0.28462783 1120830
1.3234329 0.58892286 0.28497791 988978
1.3250337 0.58986962 0.2852917 658725
1.3177841 0.58674192 0.2826997 1055039
1.3196499 0.58805609 0.28344265 988982
1.3215041 0.5892753 0.28305125 856363
1.31449 0.58565193 0.28032154 1186111
1.3158727 0.58706021 0.28192976 1054777
1.3180224 0.58881974 0.28157398 922159
1.3098063 0.5853467 0.28005481 1055034
1.3121939 0.58618063 0.28068301 989242
1.3140354 0.58810604 0.28004879 987694
1.3081148 0.58519518 0.27876231 1054773
1.3100111 0.58755463 0.27867648 856363
1.3122752 0.58768052 0.27829671 1251127
1.3035367 0.58457565 0.27737588 1186108
1.3060192 0.58607119 0.27724525 988208
1.3079681 0.58734924 0.27790502 1185590
1.300347 0.58348799 0.27595249 1186107
1.3021535 0.58557677 0.27538994 922156
1.3034949 0.58675075 0.27586684 1251379
1.2944869 0.58169866 0.27487034 1251391
1.2967652 0.58228248 0.27406958 1251645
1.2983398 0.584342 0.27460301 790825
1.2995429 0.58628523 0.27390224 1251125
1.285769 0.57483643 0.27376801 6777200
1.2881429 0.57583529 0.2735056 3684152
1.2903057 0.57906568 0.27307227 2304070
1.2932677 0.58049822 0.27305865 922422
1.2942852 0.58422017 0.27302605 658730
1.2965008 0.58543098 0.27249146 1119538
1.2832491 0.57338941 0.27157307 6580080
1.2854033 0.57591057 0.27150375 6515075
1.2874687 0.57753927 0.27181038 6186114
1.2888986 0.58045298 0.27137852 5593978
1.2910299 0.58233225 0.27198893 1580351
1.2931848 0.58360624 0.27125859 461865
1.2809145 0.57287425 0.27157065 6580081
1.2823324 0.57535887 0.2705138 5989256
1.2831882 0.57626003 0.27099919 6581134
1.2853178 0.5793215 0.27050707 7369871
1.2826509 0.57845747 0.2682718 7238542
1.2828753 0.57930171 0.26980051 7304077
1.5798818 0.62077469 0.39752185 11579568
1.5714951 0.61694407 0.39680779 6059421
1.5740857 0.61859131 0.39683431 8819368
1.576059 0.62048119 0.39674714 11645617
1.5679181 0.61637777 0.39571306 3691899
1.5698471 0.61779881 0.39536273 5663635
1.5713915 0.619268 0.39586291 9015205
1.5643525 0.61590469 0.39411643 4543346
1.5662179 0.61668891 0.39449114 4348034
1.5690597 0.62010163 0.39602193 10265266
1.5605927 0.61444771 0.39213187 5463155
1.5621213 0.61604393 0.39287251 5397885
1.5642431 0.61811048 0.39309263 5791877
1.5561063 0.61461103 0.39148369 5857920
1.5586283 0.61487454 0.3913326 5857662
1.5601795 0.61726791 0.39113718 6843015
1.55284 0.61337513 0.38912639 5660791
1.554373 0.61386591 0.38982368 5923454
1.5563011 0.61675107 0.38947362 7040138
1.5503495 0.61324716 0.38844627 5923453
1.5526048 0.61559582 0.38825512 6908811
1.5542159 0.61644477 0.38862255 7040138
1.5467811 0.61298108 0.38689414 6055293
1.5483621 0.61423451 0.38692415 6843274
1.5501323 0.61549288 0.38814509 7105931
1.5425934 0.61230612 0.38522747 5792121
1.5449395 0.61374903 0.38546979 6843531
1.5388329 0.61232114 0.38418987 5134443
1.5405164 0.61242509 0.38362372 4608367
1.5429096 0.61442804 0.38364717 6382725
1.537051 0.61242086 0.38247699 2504016
1.5392709 0.61457288 0.38197616 4213097
1.5325992 0.61243254 0.38132152 726836
1.5345166 0.61312383 0.38075638 1056318
1.5365654 0.61492628 0.38069648 2305619
1.5308566 0.61301231 0.37987697 463153
1.5329452 0.61418068 0.37889758 660533
1.5350873 0.61585295 0.37866834 1186112
1.5286336 0.61373097 0.37797147 988470
1.5313075 0.61533153 0.37739301 1120317
1.5253882 0.6141358 0.37651384 1382717
1.5272338 0.61545277 0.37555218 1382970
1.5291045 0.616862 0.37599027 1974853
1.5230787 0.61556244 0.37472081 1317433
1.5247175 0.61600226 0.37420142 1383225
1.5267715 0.61772525 0.3738032 2237509
1.5212934 0.61566669 0.37267113 1251640
1.5231199 0.61791295 0.37280953 2171974
1.5171909 0.61508691 0.37141937 1317435
1.5189598 0.61680001 0.37138695 1646398
1.5207139 0.6181004 0.37214559 2172230
1.5077628 0.60819966 0.37067369 528170
1.50969 0.60775757 0.37047684 528172
1.5133474 0.6141361 0.36943093 1317181
1.5149734 0.61584115 0.37009314 1449019
1.5172634 0.61765039 0.36993745 2172232
1.5060192 0.60761237 0.3691614 593706
1.509136 0.61281884 0.3685874 1317183
1.5108954 0.6152311 0.36838487 1383226
1.5131434 0.61731535 0.36799088 2172232
1.5020907 0.60700661 0.36743808 527912
1.5055394 0.61206943 0.36685818 1251647
1.5072784 0.61464584 0.36691147 1383483
1.5096245 0.61639911 0.36684924 1909316
1.4983046 0.60717338 0.36475983 528169
1.4994466 0.60714084 0.36648086 527913
1.5016944 0.61189973 0.36500022 1317182
1.5034897 0.6133824 0.36525139 1383228
1.5056977 0.61529589 0.36518404 1712192
1.5076935 0.61689252 0.36541247 2172233
1.4938534 0.60706383 0.36419487 528173
1.4960527 0.60717678 0.36491993 527916
1.4994934 0.612284 0.36356181 1317437
1.5015244 0.6149354 0.3637377 1843524
1.5035462 0.61589998 0.36389732 2172233
1.4920943 0.60639703 0.36279601 527917
1.4960057 0.61192489 0.36231852 1317437
1.4974552 0.61362624 0.36246774 1580606
1.4993438 0.61529815 0.36203375 2106442
1.4880652 0.60604584 0.360982 527916
1.4894776 0.60700417 0.36267886 527917
1.4924014 0.61149669 0.3609494 1317438
1.4937313 0.61242056 0.36107802 1383485
1.4952667 0.61497366 0.3601034 2171722
1.4846199 0.60539925 0.35947031 527915
1.4865654 0.60534006 0.35996965 527914
1.4871764 0.61119747 0.36009258 1317183
1.4896227 0.61182141 0.35957402 1383230
1.4918039 0.61395621 0.35901612 1843526
1.4807508 0.60481501 0.3578425 527913
1.4825854 0.60520458 0.35853222 527914
1.4860716 0.61095512 0.35792258 1317693
1.4877207 0.61309743 0.35767168 1712452
1.4893541 0.61437351 0.35770175 2106442
1.4761963 0.60434282 0.35727403 462632
1.4786109 0.60468853 0.35712272 528168
1.4823247 0.61034447 0.35661966 1251901
1.4841244 0.61243272 0.35631534 1777988
1.4861954 0.61373532 0.3559047 2106444
1.4746599 0.60380077 0.35520321 528168
1.4787805 0.60974324 0.35499823 1251647
1.4803717 0.61120844 0.35475078 1515073
1.4818193 0.61303818 0.35480401 2040649
1.4707079 0.6032275 0.35384321 528168
1.472043 0.60448217 0.3556546 528423
1.4746182 0.60923177 0.35307243 1186110
1.4762423 0.6105814 0.35386798 1449282
1.4781029 0.61277544 0.35338387 1974858
1.4667718 0.60277063 0.3522926 528168
1.469209 0.60351259 0.35290372 593706
1.4719365 0.60978001 0.35194552 1252159
1.4744868 0.61163652 0.35133851 1777733
1.463044 0.60305434 0.3506341 593707
1.4645526 0.60278857 0.35071313 593454
1.4688134 0.60875517 0.35013369 1186368
1.4701192 0.61080045 0.35009956 1580867
1.472487 0.61197352 0.34981385 1974858
1.4609374 0.60264993 0.34918472 593705
1.4650321 0.60808182 0.34898224 1186113
1.466558 0.6098721 0.34870666 1515073
1.4684925 0.61136472 0.34898019 1909065
1.4568808 0.60288554 0.34782943 593707
1.4588194 0.60243541 0.34764186 593708
1.4602871 0.60735816 0.34747165 1186368
1.4629118 0.60879946 0.34761012 1383488
1.4645174 0.61053109 0.34718317 1777735
1.4528832 0.6021868 0.3461715 593709
1.4549804 0.60240829 0.34639433 593709
1.4569612 0.60678363 0.34590483 1186369
1.4587984 0.60797572 0.34579235 1317953
1.4602785 0.60989511 0.34581146 1712196
1.4624339 0.61088353 0.34592915 1974601
1.4508162 0.60166347 0.3447966 593711
1.4531677 0.60615361 0.34417456 1186366
1.4547805 0.60710776 0.34467512 1252159
1.4565881 0.60948724 0.34421998 1711943
1.4455287 0.60058415 0.34276235 593967
1.4474194 0.6009739 0.34358186 593712
1.4491887 0.60526633 0.3424522 1186113
1.4511664 0.6057514 0.34331849 1186366
1.4528818 0.60859632 0.34249723 1646404
1.4545233 0.60949099 0.34293389 1908810
1.4433316 0.60037112 0.34199405 593967
1.4465747 0.60486913 0.34121284 1120576
1.4490359 0.6082015 0.34187573 1646404
1.4506187 0.60881519 0.34139141 1843018
1.439764 0.60019189 0.34041733 593968
1.4413319 0.60025406 0.34043404 593969
1.443253 0.60448992 0.33962804 1120577
1.4452341 0.60732007 0.33945364 1515076
1.4473348 0.60798228 0.33974361 1711943
1.4354796 0.59967947 0.3381305 594224
1.4375625 0.5997318 0.33894709 594220
1.439346 0.60375297 0.33772072 1120577
1.4415424 0.60563678 0.33808354 1383489
1.4431171 0.60754704 0.3387925 1646404
1.4336083 0.59977049 0.33719453 593971
1.4353826 0.60353732 0.33659983 1055040
1.4372022 0.60506833 0.33684456 1252162
1.438957 0.60697484 0.33665755 1645893
1.4298303 0.59977865 0.33543384 659506
1.4309013 0.60063112 0.33628857 659252
1.4330506 0.60338587 0.33510378 1120320
1.4353228 0.60636121 0.33512849 1580355
1.426089 0.59922612 0.33433664 659508
1.427894 0.5993464 0.33420154 659507
1.4298527 0.60320747 0.33389899 1054784
1.4317591 0.60576952 0.33368918 1449282
1.4326566 0.60662192 0.33397636 1645892
1.4214784 0.59858644 0.33279279 659506
1.4238501 0.59871674 0.33268988 659253
1.4255846 0.60339361 0.3320407 1054527
1.4273741 0.6042639 0.33241266 1251905
1.4296134 0.60631764 0.33244336 1580355
1.4183873 0.59773934 0.33064315 725301
1.4199986 0.59798563 0.33134985 659508
1.4235876 0.60374755 0.33059576 1186111
1.4253316 0.6053111 0.33049887 1514562
1.4275913 0.60632801 0.33118531 1645636
1.4161856 0.59771407 0.32981595 725044
1.4200168 0.60281563 0.32905403 1054782
1.4215908 0.60452962 0.32929963 1382976
1.4123096 0.59746325 0.3283321 725301
1.4140866 0.59772921 0.3281762 659766
1.4161336 0.60213244 0.32834968 1120061
1.4179173 0.60358453 0.3274222 1382975
1.4195023 0.6046344 0.32824177 1514305
1.4100854 0.59711027 0.32680124 725303
1.4118533 0.6014657 0.32601562 988731
1.4139328 0.60269654 0.32597187 1251390
1.415858 0.60388023 0.32664213 1448768
1.4068745 0.59742922 0.32477707 725305
1.4079473 0.59939086 0.32483807 922939
1.409755 0.6022805 0.32471785 1251390
1.4112689 0.6031431 0.32474795 1448510
1.4022626 0.59709197 0.32331383 790841
1.4044274 0.59858692 0.32352346 856890
1.4060252 0.60070908 0.32352659 1054526
1.407627 0.60268521 0.32309169 1317437
1.3985538 0.59643763 0.32229966 791096
1.4001682 0.59786952 0.3217659 856890
1.4020696 0.59975833 0.32212648 922940
1.4037552 0.60241765 0.32181364 1317181
1.3945798 0.59507704 0.32025585 856890
1.3965313 0.59561193 0.32110655 791351
1.3981382 0.59889889 0.32041454 922681
1.4005839 0.60191697 0.32003722 1316925
1.4025103 0.60225141 0.31944054 1251133
1.390991 0.5937869 0.31854939 856889
1.392869 0.59468997 0.31959575 856635
1.3952935 0.59835231 0.31903064 922937
1.3962682 0.60079014 0.31876707 1317180
1.3978746 0.60176277 0.31832719 1250876
1.3873 0.59330058 0.31768736 922427
1.3889222 0.59375471 0.31833345 857145
1.3906127 0.59804463 0.31671596 857403
1.3923712 0.59924352 0.31723642 1185850
1.3940053 0.60140884 0.31753966 1185336
1.3826206 0.5928452 0.31620559 922428
1.3850794 0.59331906 0.31683072 922426
1.386723 0.59716916 0.31567505 857657
1.3885077 0.59847158 0.31564665 1120314
1.3907694 0.60064662 0.31556907 1119287
1.3808631 0.59237158 0.31471816 922683
1.384833 0.5975672 0.3138487 988983
1.3862007 0.59946263 0.31443831 1119543
1.3886836 0.6002928 0.31440794 1053751
1.3774996 0.59229672 0.31362551 922683
1.3809001 0.59652889 0.31287357 857398
1.3825409 0.59903228 0.31271476 1119543
1.375195 0.59270722 0.31157127 922941
1.377404 0.59651208 0.31161857 923192
1.3793106 0.59848833 0.31096631 1185336
1.3807778 0.5992713 0.31136411 1053235
1.3713615 0.59294546 0.31027403 923198
1.3727597 0.59493923 0.30994719 923448
1.3751254 0.59719753 0.31005308 1054263
1.376575 0.59849817 0.30985293 1053493
1.3679948 0.59223753 0.30850774 923452
1.3695242 0.59393775 0.3085278 923191
1.3718497 0.59459019 0.30806416 857652
1.3728489 0.59818816 0.30805588 1053750
1.3640448 0.59160984 0.30736288 988991
1.3659166 0.59284204 0.30680662 923451
1.3676827 0.59393948 0.30740657 923448
1.3691646 0.59745848 0.3067067 1185078
1.3709539 0.59806788 0.30673972 921650
1.3592532 0.59073216 0.30511677 1120063
1.3617108 0.59163344 0.30578494 988988
1.363471 0.59328711 0.30536082 858169
1.3652759 0.59705031 0.30523911 1053749
1.366967 0.59758091 0.30519006 855855
1.3578076 0.59059811 0.30389675 1054270
1.3591576 0.59297466 0.30391198 923958
1.3614 0.59641278 0.30345598 1119542
1.3637261 0.59692842 0.30396235 921905
1.3536553 0.59036672 0.30237895 1120064
1.355381 0.59273243 0.30267385 989495
1.3574996 0.59591103 0.30161968 1119540
1.3588092 0.59662807 0.30246115 987699
1.3498197 0.5899455 0.30000871 1054526
1.3514506 0.59147465 0.30118692 1054780
1.3535428 0.59413463 0.30039984 922930
1.35572 0.59554684 0.30049312 921904
1.3475066 0.59069431 0.29911059 1054783
1.3496289 0.59268463 0.29952684 1054777
1.3516085 0.59448272 0.29910097 987954
1.3442369 0.59040558 0.2974492 1054782
1.3457444 0.59167027 0.2980043 1055033
1.3475894 0.59443003 0.29776481 921902
1.3493987 0.59495425 0.29869133 790059
1.3404487 0.58969694 0.29510456 1120316
1.3419497 0.59026885 0.29658645 1054780
1.3435341 0.59348136 0.29611379 1119283
1.346125 0.59439158 0.29601899 724520
1.3352559 0.58880341 0.29496053 1186113
1.3382614 0.58999932 0.2947208 1120570
1.3399789 0.59263968 0.29502043 988210
1.3415809 0.59340656 0.29472795 658981
1.3319557 0.58818728 0.29362664 1186111
1.334151 0.58874881 0.29365978 1120573
1.3360097 0.5915699 0.29321977 1054004
1.3383336 0.59281427 0.29365006 658726
1.3303519 0.58856761 0.29208097 1120830
1.3319762 0.59051073 0.29175377 988468
1.3339717 0.59173977 0.29220837 856107
1.3262718 0.58706629 0.29051256 1186112
1.3279455 0.58969784 0.2904014 988725
1.3299366 0.59080923 0.29033774 922158
1.3228092 0.58645248 0.28837425 1186111
1.3243779 0.58915758 0.28877112 988983
1.3261209 0.59009874 0.28881857 922671
1.3205767 0.58788121 0.28746235 989239
1.3224766 0.58967662 0.28740719 922416
1.3168106 0.58724332 0.28570893 1120573
1.318732 0.58917511 0.28581148 857390
1.3197507 0.59021056 0.28766823 1185334
1.3126379 0.58709955 0.28429133 1186110
1.3146061 0.58813208 0.28422651 922674
1.3166378 0.58964157 0.28445041 1119282
1.310503 0.5873059 0.28259915 1054524
1.3125 0.58859444 0.28282857 987953
1.306915 0.58621287 0.28123075 1054520
1.3084892 0.58831191 0.28124309 987951
1.3029683 0.58574128 0.27997515 1054264
1.3047171 0.5876044 0.27996111 922158
1.2985101 0.58441544 0.27842152 1251645
1.3012793 0.58662164 0.27809608 856364
1.3030398 0.5879119 0.27844328 1185588
1.2910135 0.57917738 0.27626237 657167
1.2925169 0.58075154 0.27639237 725043
1.2953569 0.58294284 0.27725434 1251135
1.2969677 0.58610237 0.2767036 790313
1.2990317 0.58701789 0.27699116 1119535
1.2853742 0.57544541 0.2762174 6776947
1.2876683 0.57791257 0.27579233 5395819
1.2896848 0.5799734 0.27587569 3883876
1.2915934 0.58298409 0.274786 593717
1.2932842 0.58468217 0.27533251 527145
1.2955977 0.5864464 0.27534977 1185590
1.2826388 0.57424402 0.27494878 6514290
1.28424 0.57712269 0.27444151 6581133
1.2852771 0.57889152 0.27418369 7304592
1.2873392 0.58138716 0.27398056 7040649
1.2899005 0.58280206 0.27397943 3948634
1.2823019 0.57708234 0.27338013 6581135
1.283036 0.57990623 0.27237371 7238028
1.5671544 0.61780387 0.39783871 8755893
1.568156 0.61826581 0.39745295 10266805
1.5633625 0.61722714 0.39552164 3496853
1.5652771 0.6178785 0.39665926 7833508
1.5594401 0.61607283 0.39413151 4740461
1.5609819 0.6170916 0.39524063 3494528
1.562572 0.6194424 0.39572528 6518168
1.5572174 0.61637241 0.39380702 4675964
1.5591235 0.61824596 0.39381519 5134724
1.5512543 0.61459744 0.39212495 5529207
1.5534713 0.61525124 0.39250314 5660542
1.5551658 0.61737537 0.39232457 6317190
1.5495358 0.61432213 0.39073923 5923455
1.5517282 0.61639619 0.39047006 6843274
1.5456384 0.61357439 0.38979506 5792378
1.5476437 0.61575329 0.38953766 6843275
1.5419633 0.6126954 0.38794041 5923965
1.5436389 0.61467171 0.38796884 6777740
1.5451818 0.61646861 0.38912469 7105934
1.5377431 0.61250126 0.38634592 6383748
1.53984 0.61285526 0.38651738 6318213
1.5414774 0.61554825 0.38604474 7369102
1.5333738 0.61195076 0.38554266 6778511
1.5355518 0.61227667 0.3850475 5923452
1.5377568 0.61524999 0.38477966 7303309
1.5318766 0.61242062 0.38333309 3819881
1.5341218 0.6138137 0.3833352 5134197
1.5276295 0.61219728 0.38200766 1320263
1.5296555 0.61292541 0.38199276 2174800
1.531538 0.61488014 0.38220152 4673392
1.5259339 0.61262494 0.38043526 661049
1.5281445 0.61443597 0.37995836 1121344
1.5295956 0.61591554 0.37890029 1186883
1.5239726 0.61385292 0.3787041 791606
1.5259804 0.61596304 0.3787933 1055042
1.5200815 0.61416191 0.37795895 1120056
1.5216419 0.6152541 0.37688091 1251641
1.5236239 0.61701626 0.37664759 1777733
1.5175217 0.61478996 0.37566894 1383229
1.5196723 0.61625648 0.37518114 1383224
1.5211027 0.61790854 0.37483716 2106438
1.5143571 0.61473715 0.37402034 1317692
1.5162029 0.61546493 0.37372479 1317434
1.5181527 0.61810744 0.37386093 2237767
1.5066547 0.60849345 0.3730095 528423
1.5082452 0.60915655 0.37360355 593705
1.5121155 0.61516869 0.37238503 1317436
1.5139539 0.61669713 0.37193081 1646142
1.5153477 0.61825836 0.37239498 2237768
1.503118 0.6079312 0.37093157 594213
1.5050833 0.60865194 0.37210497 593957
1.5074569 0.61385721 0.37106243 1382975
1.5100505 0.61573017 0.37112263 1317689
1.5115418 0.61817533 0.37055427 2172233
1.4988282 0.6073212 0.36892831 528169
1.5006447 0.60810792 0.37017915 593958
1.504545 0.6126979 0.369326 1382721
1.5059609 0.61535054 0.3694669 1383482
1.5082219 0.61725044 0.36912432 1909316
1.4970438 0.60763538 0.3680585 527913
1.5011638 0.61267984 0.36834911 1251902
1.5025009 0.61475247 0.36765426 1449275
1.5040913 0.61661214 0.3682074 1975109
1.5057299 0.61764455 0.36838287 2172234
1.4930501 0.60769486 0.36680543 527915
1.4950876 0.60777074 0.36724725 527917
1.4968138 0.6125496 0.36624521 1251903
1.4986073 0.61316293 0.36674488 1317693
1.5004836 0.61562675 0.36607936 1843524
1.5025254 0.61667365 0.36671728 2172233
1.4907446 0.60771871 0.36538202 527913
1.4949672 0.61290324 0.36515564 1317694
1.4963386 0.61450076 0.36462712 1580865
1.4981878 0.61622882 0.36449373 2171979
1.4870453 0.60689986 0.36364454 527662
1.4893503 0.60761762 0.36426237 528171
1.490712 0.61249065 0.36315861 1252157
1.492772 0.6131283 0.36387411 1383485
1.4942153 0.61575365 0.36320689 2106186
1.4832799 0.60606813 0.3623831 527917
1.4863775 0.61198455 0.36211053 1317694
1.4886107 0.61265087 0.36207083 1383485
1.4909672 0.61579889 0.36219561 2106441
1.4930843 0.6157158 0.36102134 2106441
1.4796929 0.60570049 0.36089405 527916
1.484725 0.61203098 0.36008957 1449022
1.4867939 0.61423135 0.36000916 1909319
1.4892616 0.61542243 0.3602466 2040905
1.4769541 0.60573602 0.35929286 528169
1.4791501 0.6103403 0.35787851 1251901
1.4809194 0.61136615 0.35914022 1317695
1.4824487 0.61311805 0.35863379 1777733
1.4844822 0.61467731 0.35891005 2106187
1.4736633 0.60511553 0.35777259 528170
1.4768856 0.61043918 0.35744539 1251901
1.4785811 0.61209452 0.3573426 1580866
1.4804161 0.61385643 0.3564508 2040395
1.469512 0.60445428 0.35662699 528169
1.4733598 0.60959589 0.35562354 1186111
1.4752493 0.61168039 0.35589632 1580611
1.4772213 0.61283255 0.35571909 1975114
1.465956 0.60372478 0.35514155 528169
1.4694333 0.60953987 0.35496956 1186366
1.4712868 0.61054647 0.35443819 1383487
1.472944 0.61213654 0.35458192 1777734
1.4621235 0.60352576 0.35352239 528169
1.4642078 0.60318887 0.35301226 593707
1.4671551 0.60963136 0.3528648 1251904
1.4687209 0.61155605 0.35269946 1777733
1.4713449 0.612589 0.35264751 1974857
1.4599727 0.60395157 0.35166731 593707
1.4635148 0.60862577 0.35131511 1186112
1.4652271 0.61108828 0.35131881 1712196
1.4559562 0.6033811 0.35035285 593709
1.4585642 0.60320318 0.34987527 593709
1.4595301 0.60816652 0.34974158 1186112
1.4613166 0.61004078 0.34964547 1580867
1.4632578 0.61105645 0.34938914 1974601
1.4519186 0.60351324 0.34930605 593710
1.4535909 0.60323036 0.34844804 593709
1.4556625 0.60786939 0.34816265 1186367
1.45731 0.60950267 0.34791383 1515073
1.4589524 0.61031485 0.34828347 1843014
1.4483049 0.60225612 0.34654692 659243
1.4503469 0.60294712 0.34757063 593707
1.4516395 0.6069473 0.34637448 1186370
1.4537214 0.60842204 0.34683418 1318209
1.4551277 0.61009926 0.34685677 1711942
1.4436315 0.60181105 0.34596783 659247
1.446198 0.60198402 0.34638292 659246
1.4493098 0.60742903 0.34531024 1317697
1.4517215 0.60947871 0.34533417 1711942
1.4418783 0.60103428 0.34408006 593710
1.4456625 0.60605824 0.34419537 1120831
1.4472458 0.60885203 0.3438004 1580611
1.4497021 0.60913205 0.34423253 1843274
1.4385004 0.60084158 0.34293428 593711
1.4420598 0.60544908 0.34254894 1120575
1.444293 0.6081326 0.34192076 1580611
1.445554 0.60895926 0.34269971 1843272
1.4344051 0.60036767 0.34094346 593715
1.4363651 0.6008004 0.34214699 659504
1.4381886 0.60498786 0.34101403 1120575
1.4397606 0.60733432 0.3408204 1514818
1.4413722 0.6081025 0.34062245 1580611
1.430396 0.60057497 0.33992609 594224
1.4326401 0.600425 0.33982998 659503
1.4349494 0.60423374 0.33935171 1055039
1.4363081 0.60655141 0.33876517 1449026
1.4382081 0.60751957 0.33929968 1580354
1.4287952 0.60023832 0.33863321 593717
1.4304624 0.60430413 0.33835426 1120575
1.4322727 0.60478687 0.33759186 1186623
1.4339871 0.60725135 0.33771494 1514819
1.4247954 0.5997473 0.33619469 593966
1.4266889 0.60054147 0.33733913 659505
1.4289017 0.60423338 0.33611372 1054784
1.4299543 0.60658473 0.33601624 1514818
1.4315698 0.60733896 0.33652878 1777221
1.4205266 0.59903926 0.33543319 725045
1.4227929 0.59962672 0.33603194 659507
1.4242547 0.60435694 0.33504331 1054780
1.4261006 0.60544276 0.33496419 1317696
1.427531 0.60694355 0.334851 1645891
1.4165382 0.59880096 0.33382806 724790
1.4190493 0.598885 0.33369431 659251
1.4223592 0.60475588 0.33307132 1251903
1.4241641 0.60603309 0.33280635 1514562
1.4153049 0.59865868 0.33256519 725045
1.4181812 0.60357058 0.33161366 988734
1.4200981 0.60533011 0.33158925 1448768
1.4112217 0.59760135 0.33087039 725302
1.4138291 0.59831154 0.33043391 725302
1.4146135 0.60252571 0.33037686 1054523
1.4167295 0.60489815 0.33025721 1383232
1.407522 0.59785092 0.32833695 790841
1.4090121 0.59811264 0.329972 725303
1.4112694 0.60212517 0.32883126 988731
1.4129882 0.60446429 0.32860529 1382976
1.4146392 0.60510886 0.3293151 1514304
1.4029815 0.59792042 0.32758495 791095
1.4053043 0.59799862 0.32754248 790840
1.4065723 0.60090518 0.32712156 988733
1.4088473 0.60284519 0.32729188 1120315
1.4104333 0.60440421 0.32754171 1383231
1.4010574 0.59827894 0.32635456 856376
1.4035764 0.59980106 0.32588121 922682
1.4044011 0.60386968 0.32571024 1382717
1.4066777 0.603863 0.32558101 1382972
1.3970008 0.59699142 0.32369381 856633
1.3986598 0.59825885 0.32494655 856632
1.4008621 0.60116351 0.32414052 1054268
1.4029493 0.60330927 0.3243728 1317180
1.3937309 0.59641469 0.32235649 856633
1.3951919 0.5979284 0.323358 856887
1.3969674 0.59970379 0.3229956 922938
1.3988063 0.60248899 0.32257921 1251388
1.3895552 0.59515834 0.32119074 856888
1.3919261 0.59629464 0.32249156 856634
1.3932421 0.59903908 0.32163846 988472
1.3949869 0.60168123 0.32111934 1251130
1.3969729 0.60246551 0.32175094 1250618
1.3862016 0.59422874 0.31965399 856889
1.3872356 0.59436488 0.32066113 922683
1.3893108 0.59857333 0.31966001 922939
1.3914983 0.60069752 0.31970224 1185850
1.3929555 0.60193878 0.32020473 1184825
1.3819766 0.59372962 0.31877717 857146
1.3840694 0.5944491 0.31985286 857146
1.3855767 0.59810877 0.31820595 923194
1.3876157 0.6001153 0.31811854 1119799
1.3895855 0.60119301 0.31869549 1185335
1.3778968 0.59357131 0.31777364 988219
1.3799988 0.59330302 0.31724045 922683
1.3822074 0.597826 0.31755829 923447
1.3837395 0.5981797 0.31624672 988982
1.3849632 0.600416 0.31692809 1185334
1.3758349 0.59332174 0.31559104 922683
1.3780215 0.59345567 0.31607926 922939
1.379797 0.59763026 0.31509948 923186
1.3813398 0.60000277 0.31541929 1185336
1.3717642 0.59312761 0.31376442 988477
1.3738123 0.59321642 0.31396416 988475
1.3759211 0.59681851 0.31406611 857911
1.3775516 0.59958816 0.31333926 1119542
1.3791496 0.60007298 0.31423482 987699
1.3693447 0.59329492 0.31225887 988732
1.3720355 0.59588158 0.31223151 923448
1.3737488 0.59890139 0.31165704 1185592
1.3751566 0.59979916 0.31290525 1053493
1.3663981 0.59298122 0.31122985 988734
1.3684584 0.59507191 0.31131566 923193
1.3696988 0.59820336 0.31032273 1316920
1.3714812 0.59905922 0.31090575 987441
1.3618574 0.59233284 0.30923194 1119805
1.3639567 0.59410667 0.30968818 923448
1.366129 0.5950644 0.30956134 988983
1.3678977 0.59847546 0.30900183 987698
1.3581862 0.59169513 0.30752498 1054269
1.359942 0.59326977 0.30756137 988988
1.3617475 0.59406281 0.30805615 923706
1.3639121 0.59795046 0.30783647 1119541
1.3660895 0.59824491 0.30801037 921645
1.3543408 0.5908007 0.30617291 988989
1.3563956 0.59092891 0.30639797 1054525
1.3577143 0.59376496 0.30609477 923704
1.3602097 0.59766692 0.30639842 987955
1.3620911 0.59794796 0.30636722 855853
1.3519266 0.59083986 0.30530208 1054526
1.3546038 0.59360296 0.30536741 923955
1.3565755 0.59677684 0.30453485 987953
1.3588742 0.59742403 0.30464953 921906
1.3491938 0.59123766 0.30404884 1054272
1.3506324 0.59330982 0.30327353 989496
1.352178 0.59530103 0.30310255 922673
1.3544061 0.5963484 0.30342156 1053747
1.3466921 0.5920642 0.30178457 1054783
1.3482585 0.59348863 0.30230758 1054776
1.350282 0.59555453 0.30156922 922159
1.34288 0.59140891 0.3001889 1054780
1.3444862 0.59282696 0.30035305 1055032
1.3466768 0.59491897 0.30043933 921904
1.338845 0.59113657 0.29862696 989500
1.3406624 0.5915134 0.29877135 1055035
1.3425412 0.59440917 0.29895648 856367
1.335546 0.59009784 0.29643381 1186367
1.3368063 0.59096307 0.29737547 1055034
1.3386073 0.59359229 0.29728398 987954
1.340778 0.59414518 0.29761058 724519
1.3311865 0.58928728 0.2958762 1120574
1.3330641 0.59055078 0.29573038 1055035
1.3348029 0.59257817 0.29603142 987951
1.3367875 0.59358478 0.29591224 658726
1.3270017 0.58884108 0.29523578 1186366
1.3290305 0.5891602 0.29441902 1055038
1.3310096 0.59182787 0.29418001 987953
1.3327534 0.59246755 0.29469135 724261
1.3251053 0.588458 0.29297516 1120573
1.3269892 0.59078944 0.29282075 922673
1.3286655 0.59166622 0.29299638 922158
1.3213263 0.58758068 0.291316 1185856
1.3233237 0.58994049 0.29140329 922674
1.3251661 0.59066105 0.29172456 987952
1.3174063 0.5874998 0.28958121 1186110
1.319284 0.58899683 0.28979772 923187
1.3209844 0.59024692 0.29026672 1053488
1.3152599 0.58816832 0.28825921 1054521
1.3170161 0.58995503 0.28836262 988465
1.3108978 0.58818692 0.286553 1186366
1.3131061 0.58900917 0.28691411 923191
1.3146784 0.59068036 0.28683206 1185334
1.3073701 0.58700073 0.28537112 1186109
1.3098559 0.58835495 0.28495106 988467
1.3116645 0.58992767 0.28523934 1250867
1.3041757 0.58633709 0.2829653 1186108
1.3061199 0.58759063 0.28402662 988211
1.3074267 0.589288 0.28359705 987951
1.2999066 0.58389413 0.28405145 855834
1.3019722 0.58691466 0.28252172 1054263
1.303897 0.5889883 0.2824263 987952
1.2959013 0.58492863 0.28094473 1316929
1.2987132 0.58574057 0.2811847 1251644
1.299871 0.58788395 0.28075615 856105
1.3020324 0.58877659 0.28048387 1250871
1.287241 0.57809669 0.27997735 5723744
1.2914324 0.582232 0.27966222 1251641
1.2944204 0.5846014 0.28009826 987706
1.2960048 0.58700585 0.27917311 921901
1.2978536 0.58815444 0.27932474 1250868
1.2828851 0.57509923 0.27826217 6514033
1.2851071 0.57631421 0.27939317 6842225
1.28645 0.57872152 0.27840233 6515081
1.2884529 0.58116424 0.27841192 6120064
1.2906153 0.58348274 0.2776033 2633037
1.2928791 0.5855822 0.27801406 461613
1.2803822 0.57707441 0.27744731 5857926
1.2833885 0.57789516 0.27707794 6449550
1.2844257 0.58035803 0.27726877 7172747
1.2864918 0.58075565 0.2763294 7501455
1.2807143 0.58016032 0.27517766 7107472
1.283131 0.58006036 0.27500233 7238283
1.5623131 0.61782414 0.39750463 11250873
1.562603 0.61852252 0.39792681 9281212
1.5596535 0.61839414 0.3965795 7768234
1.5618502 0.62036288 0.39646503 11645363
1.5544486 0.61624217 0.39492115 3494263
1.5557988 0.61758989 0.39642748 6321813
1.5580149 0.6195522 0.39592344 7043739
1.5519177 0.61662591 0.3950097 3953273
1.553448 0.61927426 0.39457548 6056855
1.5560126 0.61912501 0.39465639 5661844
1.5465786 0.61456281 0.39262128 5529206
1.5480813 0.61568457 0.393253 5332347
1.5498976 0.61749232 0.39330134 5135749
1.5519472 0.61851501 0.39390904 4806530
1.5440062 0.61476856 0.39190745 5857918
1.545754 0.61673009 0.39167249 6514826
1.547811 0.61758095 0.39170909 6908810
1.5407493 0.61415452 0.39025196 5989248
1.5426748 0.6156255 0.39025486 6646152
1.5437047 0.61700922 0.39104468 7105932
1.536737 0.61335832 0.38886744 6120834
1.5387125 0.61461669 0.38897872 6515078
1.5402057 0.61645103 0.38910395 7106188
1.5321409 0.6125837 0.38814268 6449546
1.5343344 0.61313367 0.38753718 6252162
1.5362501 0.61582923 0.38725007 7303310
1.528777 0.61195177 0.38642302 6646927
1.5305417 0.61277092 0.38598111 6318210
1.5325685 0.61498177 0.38606721 7500433
1.5266724 0.61213017 0.38461456 5463160
1.528688 0.61456501 0.3844468 7369102
1.5231311 0.61192954 0.38357311 3621985
1.5244114 0.61303401 0.38257477 3161698
1.5263822 0.61503822 0.38213196 4673394
1.5208985 0.6128121 0.38146669 1385798
1.5232702 0.61542755 0.38094783 3029087
1.5165787 0.61327714 0.38048917 463669
1.5185585 0.61376137 0.38003033 923963
1.5206292 0.61606598 0.37951773 1384521
1.5148215 0.61415988 0.3787666 857400
1.5166868 0.61516649 0.37810037 1120571
1.5180513 0.6167084 0.37723231 1449023
1.5129673 0.61484617 0.37662202 1317435
1.5148964 0.61658692 0.37638405 1580609
1.5159984 0.61792946 0.37509751 2172232
1.5050248 0.60938281 0.3754167 659246
1.5091741 0.61437833 0.37576443 1383231
1.510715 0.61613464 0.37468278 1449020
1.5128531 0.61806494 0.37457743 2171975
1.5012131 0.60903615 0.37485301 725039
1.5031199 0.60966277 0.37381002 659496
1.5071077 0.61528522 0.37340665 1383229
1.5078996 0.61723691 0.37317371 1909059
1.5102799 0.61844087 0.37265879 2238024
1.4995013 0.60918957 0.37240458 659496
1.5034064 0.61404008 0.37182915 1317438
1.5044919 0.61655051 0.37192404 1514813
1.5068628 0.61802089 0.37109628 2237513
1.4962634 0.60879499 0.37082374 593704
1.4989033 0.61309212 0.37059739 1317438
1.5012965 0.61537802 0.37063348 1449276
1.5031717 0.6179899 0.37014416 2172233
1.4918594 0.60910487 0.36938846 658989
1.4937613 0.60894847 0.36910728 593452
1.49524 0.61301059 0.36857662 1317695
1.4973186 0.61488771 0.36854711 1383741
1.4991424 0.61674452 0.36904803 1974854
1.4874562 0.60807323 0.36734369 658989
1.4896941 0.60858941 0.3679615 593453
1.4927645 0.61376667 0.36736566 1317694
1.4952781 0.61583805 0.36752859 1777732
1.4980793 0.6166867 0.36688203 2237771
1.4855161 0.60756779 0.36620361 593451
1.4894425 0.61334944 0.3658171 1317949
1.4911854 0.61407375 0.36609578 1449277
1.4930873 0.61649257 0.36564857 2106442
1.48191 0.60725999 0.3651439 593452
1.4855511 0.61286539 0.36467481 1317694
1.4870863 0.6142264 0.36437616 1646145
1.4891417 0.61615247 0.36411965 2106186
1.4780955 0.6067344 0.36306953 593451
1.4802895 0.60650766 0.36310482 527916
1.4819009 0.61196661 0.36261642 1251901
1.4837224 0.61314076 0.36278889 1449021
1.4852461 0.61495924 0.36251932 1974855
1.4745216 0.60606652 0.36090165 593705
1.4758754 0.60642338 0.36242577 593706
1.4780315 0.61114645 0.36093688 1186366
1.4798651 0.61218143 0.36130589 1317951
1.4817948 0.61433494 0.36106688 1909318
1.4718692 0.60614562 0.36044824 527915
1.4735801 0.61087584 0.35996386 1186364
1.4759387 0.61142868 0.35951832 1317694
1.4776425 0.61371922 0.35979712 1843527
1.4800814 0.61393011 0.35944873 2040649
1.4682684 0.60538453 0.35890937 528169
1.4724329 0.61023939 0.35791042 1186111
1.4737037 0.61279023 0.3581568 1712196
1.4643389 0.60492283 0.35758114 527914
1.4682615 0.60962701 0.35678658 1186367
1.4697922 0.61197853 0.35681829 1646402
1.4716299 0.61320156 0.35714737 1974858
1.4611051 0.60423255 0.35583171 593708
1.4642839 0.61001861 0.3552573 1186368
1.4659048 0.61101562 0.35510877 1514817
1.4677458 0.6121875 0.35553011 1843525
1.458349 0.60462147 0.35414901 593708
1.4598984 0.60951495 0.35436404 1186368
1.4620399 0.60996532 0.35431382 1252160
1.4635502 0.61171079 0.35370961 1777733
1.4547052 0.60416794 0.35281855 528175
1.456991 0.60466957 0.35288754 593709
1.4581168 0.60921359 0.3522425 1186111
1.4600683 0.61103868 0.3521626 1711940
1.4512001 0.60419619 0.35156837 593709
1.4541564 0.60833883 0.35046312 1186369
1.4561543 0.61033845 0.35048467 1580612
1.458137 0.61108261 0.351026 1712198
1.4469428 0.60317665 0.34925205 593708
1.4487519 0.6039204 0.35003665 593963
1.4504862 0.60773623 0.34868005 1120832
1.4523922 0.60958612 0.34924179 1383746
1.4538341 0.61053908 0.34894544 1711942
1.4426701 0.60261464 0.34819993 593709
1.4444973 0.602947 0.34827924 593709
1.446492 0.60725558 0.34738514 1186368
1.4483409 0.60798186 0.34771508 1252160
1.4501181 0.61024749 0.34792075 1646405
1.4389994 0.6020847 0.34676501 659249
1.44129 0.60215497 0.34671044 659246
1.443283 0.6063236 0.34539789 1121088
1.4439778 0.60763228 0.34661078 1186368
1.4466081 0.6097064 0.34639454 1646148
1.4368308 0.60178137 0.34520823 593713
1.4408455 0.6064263 0.34542102 1120833
1.4427071 0.60909367 0.34456962 1646147
1.4445438 0.60965502 0.34544018 1843271
1.4338642 0.60124683 0.34375903 659249
1.4366912 0.60598248 0.34361854 1120572
1.4389725 0.60820472 0.34316695 1514817
1.440876 0.60873914 0.34322032 1580612
1.4284992 0.60152847 0.34289649 659511
1.4309065 0.60122466 0.34210736 659251
1.4330478 0.6052404 0.34192327 1120574
1.4346972 0.60749865 0.3420094 1383489
1.4362981 0.60818756 0.34153131 1580355
1.4255285 0.60065389 0.34003466 725042
1.4270471 0.60096228 0.34099877 659508
1.4289632 0.60504246 0.33993056 1055040
1.4310508 0.60571623 0.34055263 1186367
1.4324725 0.60791695 0.34008124 1645892
1.4232738 0.6004228 0.33927661 659252
1.4266722 0.60496831 0.3387205 1054526
1.42891 0.60734689 0.33870071 1514561
1.4202673 0.60000694 0.33775297 724788
1.4234054 0.60520214 0.33777362 1054528
1.4250737 0.60669816 0.33724338 1449024
1.4267384 0.60760432 0.33765414 1645892
1.4156976 0.59934115 0.33627149 725044
1.4179826 0.5991649 0.33623773 659510
1.4194887 0.60447657 0.33506212 1054527
1.4212993 0.60540438 0.33570209 1251903
1.4229695 0.60711932 0.33562759 1580098
1.4117618 0.59874988 0.33470467 725047
1.4135222 0.59897178 0.33462137 724789
1.4155166 0.60343802 0.33311155 1054528
1.4176745 0.60490608 0.33435044 1186110
1.4187797 0.60646611 0.33396283 1514304
1.4094114 0.59856296 0.33324611 725045
1.410705 0.60322499 0.33326188 1054266
1.4130999 0.60346556 0.33317968 1054268
1.4151652 0.6059522 0.33240935 1448768
1.4064209 0.59804267 0.33174843 790838
1.4096385 0.60252178 0.33144793 988730
1.4115003 0.6054945 0.33101419 1383231
1.4129221 0.60611439 0.33228931 1579584
1.402195 0.59796631 0.33039415 791095
1.4043143 0.59818459 0.33004633 790838
1.4055655 0.60196394 0.33006969 988730
1.4078236 0.60473752 0.32958084 1251901
1.4094586 0.60560238 0.33022413 1382719
1.3997235 0.59849453 0.32870618 790839
1.402372 0.60098451 0.32840136 923193
1.4030178 0.60445762 0.32803616 1382973
1.4054432 0.60477352 0.32808626 1382973
1.3961079 0.59788811 0.32712266 856375
1.3981054 0.60023141 0.32713908 922935
1.3996372 0.60266411 0.32678941 1120057
1.4013357 0.60400707 0.3266556 1251387
1.3918667 0.59772992 0.32541671 856632
1.3941221 0.59835815 0.3252978 856633
1.3959801 0.60150981 0.32490206 1120314
1.3979781 0.60332322 0.32524437 1251386
1.3881764 0.59674245 0.32436472 791097
1.3901981 0.59827256 0.32383457 922681
1.3921275 0.60016441 0.32447881 988219
1.3937801 0.6029436 0.32390052 1251129
1.3844478 0.59594578 0.32250214 856889
1.3864003 0.59659851 0.3230173 857147
1.3882246 0.5993762 0.32274789 922941
1.390118 0.60203612 0.32204136 1185593
1.3921762 0.60260779 0.32248789 1185337
1.3807657 0.59497648 0.32148594 856890
1.3822556 0.59613693 0.32133821 857146
1.3841951 0.59846866 0.32107037 857404
1.3867269 0.60107112 0.32066628 1185849
1.3882883 0.60212076 0.32084623 1119030
1.3769395 0.59387702 0.31939384 922682
1.3787446 0.59436548 0.32035494 857146
1.3803301 0.59786642 0.31927198 923190
1.3821186 0.60023022 0.31886294 1120058
1.3841097 0.60182583 0.31981722 1184822
1.3746202 0.59402764 0.31809595 922683
1.3763955 0.59783387 0.31723627 988728
1.3778772 0.59866357 0.31806177 988728
1.3799663 0.60103989 0.31768581 1119541
1.3708131 0.59436858 0.31676415 988220
1.3730192 0.59502006 0.31537414 923191
1.3745432 0.59744388 0.31638741 923446
1.3763511 0.60057592 0.31599775 1119543
1.3669064 0.59413433 0.31519726 988733
1.3690839 0.59364629 0.31498358 988477
1.3709393 0.59691411 0.3148886 923447
1.3727901 0.59987974 0.3145557 1119541
1.3741572 0.60065269 0.31537703 987441
1.3645841 0.59400654 0.31357437 988732
1.3667505 0.59615123 0.31362098 989241
1.3689423 0.59947312 0.31294236 1185078
1.3703949 0.59977424 0.31348556 1119284
1.3611531 0.59304881 0.31224388 988474
1.3630524 0.59567255 0.31239003 923705
1.3653543 0.59882408 0.31184426 1251386
1.3668337 0.59930837 0.31171882 987699
1.3578109 0.59256047 0.31104124 988733
1.3592403 0.59467268 0.31004167 989501
1.3613293 0.59512043 0.31073877 989240
1.3630369 0.59900045 0.31029084 987954
1.3531334 0.59184766 0.30903623 1054270
1.3553765 0.59338284 0.30894393 988986
1.3572634 0.59525985 0.30916214 989238
1.3589153 0.59847283 0.30856159 1053491
1.3611262 0.59897631 0.30897617 790314
1.3493929 0.59157658 0.30778897 1120062
1.3511266 0.5923788 0.30760503 989245
1.353241 0.59369993 0.30730742 923706
1.3550116 0.59733701 0.30718708 987696
1.3569012 0.59799707 0.30765802 987952
1.3470454 0.59137022 0.30612978 1054525
1.3489932 0.59405738 0.30554074 923705
1.3510602 0.5964967 0.30533591 987953
1.3532414 0.59711552 0.30590856 987954
1.3430309 0.59168082 0.30516249 1120318
1.3452947 0.59280765 0.30418393 989500
1.3473456 0.59571683 0.30428144 987695
1.3492517 0.59614497 0.30385762 724520
1.3414853 0.5922628 0.30277392 1054782
1.3435253 0.59459704 0.30236751 1054005
1.3449347 0.59552544 0.30296111 855853
1.3372276 0.59215415 0.30153388 1054782
1.3391712 0.59295583 0.30174461 1055033
1.3412712 0.59511822 0.3012619 856365
1.3333614 0.59114689 0.29941979 1120573
1.3356094 0.59178078 0.30002832 1055035
1.3371336 0.59458959 0.29981175 921902
1.339597 0.59520847 0.29943404 724519
1.3303235 0.59021986 0.29827788 1186113
1.3317549 0.59107792 0.29835919 1054777
1.3333324 0.59376121 0.29851201 987696
1.3277988 0.59046888 0.29711181 1055035
1.3296893 0.59258759 0.29679474 856365
1.3321655 0.59293616 0.29635707 1316407
1.3218024 0.58880657 0.29547524 1186365
1.3241622 0.58970773 0.29541689 1054522
1.326088 0.59169328 0.29543406 922416
1.3203461 0.58863133 0.29449344 1120570
1.3219817 0.59129494 0.29370558 922414
1.3236406 0.59231883 0.29469189 1185845
1.3167078 0.58830726 0.29272455 1186109
1.3178453 0.58994943 0.29229379 988723
1.3199149 0.59111142 0.29260868 790313
1.3146617 0.58930266 0.29095876 988980
1.3155452 0.59076911 0.29072592 987950
1.3102164 0.5890156 0.28936321 988726
1.3123283 0.59028912 0.28936994 988210
1.3065085 0.58823079 0.28757554 1185854
1.3084027 0.58943343 0.28776756 856364
1.3094455 0.59058237 0.28823009 1250870
1.3024175 0.5875175 0.28613994 1251900
1.3043773 0.58837247 0.28638411 922416
1.3060786 0.59024191 0.28627753 1053744
1.3000515 0.58757174 0.28453195 1054004
1.3023357 0.58968651 0.28493273 922158
1.2941447 0.58542544 0.28353173 1054012
1.2966068 0.58662283 0.28318059 1054006
1.298449 0.58913755 0.28314215 1053743
1.3006108 0.58989471 0.28373179 1185590
1.2852942 0.57747698 0.2818417 6842991
1.2871869 0.57915115 0.2829304 6119020
1.2886405 0.58140242 0.28217 5725569
1.291014 0.58327991 0.28222859 1975367
1.2926524 0.58569419 0.28241405 395820
1.2948136 0.58763754 0.28169081 856368
1.2971187 0.5887962 0.28095901 1250870
1.2832276 0.57729518 0.28098437 6317170
1.2852302 0.58003497 0.28098878 6712462
1.2872291 0.58137941 0.2803424 7435411
1.2891684 0.58431959 0.2804161 5264239
1.2905629 0.58548689 0.28096226 2896206
1.281755 0.57856739 0.27962112 6252428
1.282825 0.58143657 0.27944195 7172491
1.2808592 0.5804553 0.27768528 7107731
1.2813952 0.5816806 0.27834627 7304333
1.5552989 0.618294 0.39770591 12369597
1.5511775 0.61783916 0.39704025 7176357
1.5536919 0.61968976 0.39667395 9017001
1.5471983 0.61682761 0.3958275 4152451
1.5491166 0.61861181 0.39573216 6912416
1.5508726 0.61998999 0.39559418 8752300
1.5434148 0.61601585 0.39451501 4215928
1.5450358 0.61813933 0.39425039 5399179
1.5468144 0.61925316 0.39490911 5662612
1.539179 0.61501861 0.39300171 5661054
1.5411487 0.61657548 0.39306688 5661060
1.5426463 0.61841649 0.39355299 5594502
1.5349329 0.61444128 0.39116567 6055043
1.5371845 0.61560422 0.39168349 6383494
1.5386658 0.6179148 0.39189267 6974859
1.5316069 0.61355615 0.38990337 6121092
1.5336068 0.61520731 0.38984922 6646153
1.5352755 0.61699754 0.39017138 7106190
1.5276506 0.61274421 0.38827783 6384009
1.5296631 0.61377424 0.38833642 6449541
1.5315161 0.61630642 0.38876748 7237520
1.5237018 0.61255884 0.38715005 6778516
1.5255766 0.6129353 0.38694584 6449540
1.5272808 0.61518407 0.38672659 7435153
1.5196258 0.61197734 0.38517833 6383754
1.5217237 0.61234456 0.38557026 6055041
1.5232329 0.61475223 0.3849808 7500689
1.5170226 0.61213517 0.38437107 5397625
1.5195287 0.61362427 0.38364527 5397112
1.5137103 0.6121192 0.38329625 3161695
1.5156472 0.61279595 0.38200372 1649227
1.5176551 0.61515844 0.38257927 5330810
1.5121853 0.61262053 0.38141176 1057605
1.5138547 0.61388898 0.38094038 1647944
1.514852 0.61617404 0.37968919 1318983
1.5077872 0.61288488 0.37979525 528695
1.5098999 0.61358833 0.37949309 726072
1.5119547 0.61569685 0.37879002 1252416
1.5128474 0.61706454 0.37805262 1252164
1.5022032 0.60869396 0.37748697 659502
1.5036871 0.60938007 0.37886244 659249
1.5058123 0.6135419 0.3786431 989245
1.5079265 0.61500442 0.37729511 1251898
1.509872 0.61719298 0.3774983 1580614
1.4977925 0.60868305 0.37695658 725042
1.5003818 0.60920459 0.37722164 659246
1.5040803 0.61439157 0.3765159 1382974
1.5056921 0.61595702 0.37570608 1514813
1.5076647 0.6174553 0.37605304 1975112
1.4962695 0.60881728 0.37474021 659500
1.4990336 0.60920209 0.37497339 725037
1.5000901 0.61417884 0.37397352 1383486
1.5018647 0.61538213 0.37426329 1383484
1.5036286 0.61712188 0.37438235 1843266
1.4941425 0.60943794 0.37303784 593707
1.4978693 0.61411655 0.37291285 1317949
1.4997401 0.61682558 0.37299085 1777729
1.5009785 0.61788285 0.37136912 2237769
1.4899238 0.60897827 0.37121108 659754
1.49227 0.60987461 0.37170613 659497
1.4948065 0.61349726 0.37138328 1317695
1.4960907 0.61629426 0.37158775 1580608
1.4973557 0.61737394 0.371335 2172234
1.4862297 0.6088531 0.37060255 659752
1.4881265 0.60929048 0.37032565 593962
1.4905396 0.61333179 0.36931834 1317695
1.4924221 0.61484182 0.37017053 1383486
1.4933398 0.61699593 0.36932871 2171979
1.4827378 0.60805249 0.36835527 593708
1.4849181 0.60820913 0.36905095 593961
1.4884555 0.61395049 0.36858273 1317951
1.4904258 0.61618912 0.36824232 1777988
1.480227 0.60810769 0.36761674 593706
1.4840994 0.61357391 0.36686113 1317694
1.4864203 0.6150499 0.36684743 1646401
1.4883389 0.61674666 0.36738279 2171979
1.4766815 0.60776532 0.36561775 593451
1.4785672 0.60782528 0.36599243 593961
1.4806287 0.61279088 0.36500821 1317695
1.4823477 0.61455214 0.36525217 1646401
1.4840941 0.61576164 0.36509278 2106187
1.4734018 0.60724998 0.36368436 593705
1.4749885 0.60730177 0.3647202 593706
1.4762142 0.6119988 0.36417383 1251903
1.4783607 0.61339635 0.36394715 1383486
1.4802377 0.61519408 0.36347559 1974856
1.4684203 0.60730064 0.36342841 593710
1.4704745 0.60701489 0.36275905 593708
1.4729341 0.61136335 0.36279848 1252157
1.4748161 0.61213875 0.36215693 1317694
1.4764118 0.61437505 0.36214638 1843526
1.4665005 0.60634947 0.36140689 593707
1.4689381 0.61065596 0.36007991 1251903
1.4706568 0.61101341 0.36104718 1186109
1.4723897 0.61368132 0.36056313 1712195
1.4744835 0.61461151 0.36151326 2040650
1.4629689 0.60559297 0.35997614 527661
1.4667462 0.6104846 0.35947588 1251903
1.4688973 0.61276126 0.35923082 1580866
1.4705193 0.61429083 0.35989782 2040394
1.4599491 0.60519409 0.35852855 527916
1.4632809 0.61024439 0.35773626 1186367
1.4653622 0.61220396 0.35774744 1646403
1.4667286 0.6135273 0.35811001 1974857
1.4559062 0.60483116 0.35682365 593706
1.4580045 0.60525119 0.35691494 593707
1.4590236 0.61047632 0.35626417 1186622
1.4611459 0.61138511 0.35637835 1449282
1.4628832 0.61244655 0.35667333 1777733
1.4527888 0.6048373 0.35554284 593710
1.456939 0.61041218 0.35480893 1252159
1.4589865 0.61187565 0.35507601 1712195
1.4500604 0.60513645 0.35379454 593708
1.4530771 0.60984612 0.3535783 1251904
1.4550468 0.61129355 0.35328838 1646404
1.4456997 0.60417747 0.35223982 593708
1.4477525 0.60426486 0.35246259 593708
1.4491973 0.60881436 0.35179043 1120829
1.4512706 0.61059988 0.3515422 1514819
1.4531404 0.6115644 0.35172898 1711941
1.4417162 0.60372645 0.35113746 658993
1.4437302 0.60354924 0.35088068 593710
1.445608 0.60829031 0.34980977 1186367
1.4473581 0.60940766 0.35001081 1317952
1.4486182 0.61132133 0.3502059 1777477
1.4372342 0.60282028 0.34911671 659247
1.439507 0.60312003 0.34973121 659247
1.4415616 0.60796362 0.34910154 1120833
1.4435444 0.60883188 0.34872782 1317952
1.4454279 0.61073494 0.3489725 1711684
1.4341369 0.60228586 0.34760329 659248
1.4362524 0.60223615 0.34826201 659248
1.4378121 0.60682631 0.34652197 1120831
1.4397538 0.60778886 0.3474814 1186367
1.4412239 0.60999244 0.34723926 1646148
1.4321163 0.6022439 0.34599826 659248
1.4344864 0.60214496 0.34615141 659253
1.4356846 0.60700423 0.34577781 1120830
1.4376829 0.60939968 0.34550074 1645892
1.4284437 0.60246557 0.34520975 659507
1.4298954 0.6020574 0.34532675 659503
1.432047 0.6065706 0.34429452 1120574
1.4335896 0.6085639 0.34406886 1449024
1.4355518 0.6093545 0.34475619 1580354
1.4238138 0.60184455 0.34298456 724785
1.4260709 0.6019758 0.3436994 659250
1.4281075 0.60589397 0.34243378 1120828
1.4300742 0.60718346 0.34265122 1252159
1.4318213 0.60888898 0.34295452 1645891
1.4208257 0.60035467 0.34015757 725042
1.422271 0.60126507 0.34195304 659250
1.4255042 0.60631806 0.34146875 1186110
1.427537 0.60844886 0.34156638 1580354
1.4296148 0.60918057 0.34195426 1777222
1.4185174 0.60076249 0.34010294 659252
1.4218984 0.6059556 0.34018341 1120316
1.4240019 0.60761493 0.33980447 1514560
1.4267931 0.60845524 0.33921713 1711429
1.4140013 0.59990484 0.33870637 725046
1.4162549 0.60038477 0.33940896 659252
1.4183495 0.60518783 0.33815441 1054783
1.4199481 0.60662282 0.3384988 1383231
1.4218642 0.60829794 0.33799762 1580097
1.4110932 0.59935272 0.33769599 790581
1.4133201 0.59939885 0.33703834 725047
1.4140635 0.60439289 0.33613813 988733
1.4160224 0.60571778 0.33704332 1251647
1.4181473 0.60738158 0.33679911 1579841
1.4068841 0.59890664 0.33489275 725045
1.408803 0.59900522 0.33625084 725044
1.4101137 0.60328072 0.33547884 988734
