# .PCD v0.7 - Point Cloud Data file format
VERSION 0.7
FIELDS x y z rgba
SIZE 4 4 4 4
TYPE F F F U
COUNT 1 1 1 1
WIDTH 1201
HEIGHT 1
VIEWPOINT 0 0 0 1 0 0 0
POINTS 1201
DATA ascii
1.4442108 0.65442789 0.31521824 3684371
1.439337 0.65104347 0.31559083 4341796
1.440897 0.65317011 0.31438646 4078871
1.4433742 0.65405381 0.31327194 3684625
1.4356198 0.65058315 0.31466267 4276257
1.4368701 0.65102816 0.31316864 4342043
1.4388466 0.65358287 0.31205115 3815449
1.4335434 0.64978433 0.3118639 4276266
1.4345546 0.65140498 0.3114073 4407063
1.4366453 0.65386033 0.31026796 3749658
1.4310987 0.64943075 0.31017992 4276003
1.4324104 0.65129828 0.30933952 4209944
1.433997 0.65316594 0.3087855 3618584
1.4288424 0.64960498 0.30881643 4275995
1.4306376 0.65244603 0.30716708 3552534
1.4252229 0.64887619 0.30720618 4210462
1.4268022 0.64985704 0.30655232 4210452
1.428125 0.6516524 0.30506143 3552528
1.423749 0.64833832 0.30519027 4276001
1.4245257 0.65024066 0.30425367 3815951
1.4267504 0.65101308 0.30295569 3618062
1.4191484 0.64678228 0.3049041 3683623
1.4210598 0.64817035 0.30352157 4144408
1.4226559 0.65040219 0.30248106 3552787
1.4176164 0.64669716 0.30278298 3618080
1.418632 0.64832473 0.30164322 4078618
1.419951 0.64978248 0.30062851 3486995
1.4152806 0.64681196 0.30066803 3815714
1.4166045 0.64855057 0.29987115 3815702
1.4181396 0.64941728 0.29862818 3421712
1.4129664 0.64619541 0.298861 3750176
1.4144948 0.64859784 0.29744664 3684117
1.4096203 0.64553368 0.2976464 3552803
1.4109633 0.64647192 0.29670733 3947290
1.411829 0.64872515 0.29576296 3290125
1.4075234 0.64534289 0.29549697 3750179
1.4090655 0.64695007 0.29493374 3684372
1.409982 0.64819932 0.29348689 3289872
1.4053658 0.64517039 0.29400256 3750174
1.4065578 0.64723814 0.29278862 3683860
1.408257 0.64774036 0.29153013 3551250
1.4017026 0.64456284 0.2935057 3356453
1.4028952 0.64477623 0.29209578 3750173
1.4041829 0.64742666 0.29087204 3289366
1.4067228 0.64776874 0.29008961 3420695
1.3991774 0.64383376 0.29091498 3684128
1.4006271 0.64480811 0.28995284 3881239
1.4019604 0.64733565 0.2888318 3026452
1.3970509 0.64344406 0.28884307 3815455
1.3981758 0.64559931 0.28798738 3618066
1.3993138 0.64711428 0.28757828 3091731
1.3931137 0.64254606 0.2874805 3618087
1.3946284 0.64318603 0.28724971 3815197
1.3964974 0.64576757 0.28553805 3355155
1.3984956 0.64654326 0.28568706 3026450
1.3916485 0.64229023 0.2860373 3749669
1.3928847 0.64392161 0.28499714 3749401
1.3939606 0.64612985 0.28356576 2960404
1.3894583 0.64193463 0.28426805 3684131
1.3904755 0.64404255 0.28297678 3683607
1.3916423 0.64544821 0.28148976 2960655
1.3843784 0.64112878 0.28286561 3683368
1.3867246 0.64143646 0.28269854 3749664
1.3881075 0.64426118 0.28052309 3289615
1.3904095 0.64510638 0.27963057 2894602
1.3834169 0.64117491 0.28115329 3618597
1.3844945 0.6415801 0.28026274 3750171
1.3859208 0.64451802 0.27867392 2763531
1.381231 0.64065242 0.27902219 3684128
1.3827357 0.64281505 0.27817059 3618575
1.3834609 0.64440215 0.27724627 2566410
1.3787637 0.64013594 0.27729413 3618335
1.3798859 0.64286637 0.276357 3289361
1.3816183 0.64384359 0.27505764 2435086
1.3745625 0.64017761 0.27622455 3552803
1.3766342 0.6403479 0.27581245 3683870
1.378222 0.64312863 0.27389315 2631948
1.3732851 0.63926458 0.27442789 3618590
1.3750654 0.64064789 0.27352276 3683609
1.3756297 0.64308304 0.2721687 2434059
1.3707536 0.63866603 0.27261165 3618586
1.3722996 0.64150262 0.27125308 3223311
1.373796 0.64261138 0.27032769 2368270
1.3665009 0.63824594 0.27178124 3683616
1.3685703 0.6382401 0.27069029 3749405
1.3700495 0.6412521 0.26909962 2828812
1.3720158 0.64177287 0.26868078 2367752
1.3652241 0.63773328 0.26958716 3749659
1.3666778 0.6390276 0.26825002 3552790
1.3680255 0.64115548 0.26751238 2368523
1.362846 0.63735855 0.26770666 3684128
1.3644247 0.6403541 0.26625568 3158029
1.3655877 0.64106274 0.2656697 1973771
1.35899 0.63690138 0.26725551 3618078
1.3605722 0.6367262 0.26598752 3618076
1.3620503 0.63991708 0.26451969 2763020
1.3641535 0.64047456 0.26431859 1973771
1.357234 0.63647121 0.26493689 3749405
1.3582507 0.63766134 0.26354203 3486486
1.359744 0.64022708 0.26284951 2105099
1.3548827 0.63600945 0.26287344 3618075
1.3566824 0.63736832 0.26182935 3552271
1.3575838 0.63993704 0.26079169 1710344
1.3522809 0.63551557 0.26113579 3618075
1.3542097 0.63866186 0.25963303 2697735
1.3554412 0.63962984 0.25895929 1578758
1.349154 0.63483 0.25979462 3618076
1.3504454 0.63559461 0.25919935 3486482
1.3518612 0.63829541 0.25752965 2433802
1.354051 0.63899451 0.25733379 1644546
1.3469515 0.63462317 0.25790262 3617815
1.3480756 0.6372152 0.25641373 3223563
1.3496362 0.6384173 0.25571296 1710600
1.3445042 0.63420033 0.25608185 3552023
1.3459133 0.63733339 0.25437009 2697224
1.3474638 0.63832009 0.25332233 1250054
1.3402818 0.63379765 0.25423607 3486235
1.3420957 0.63375062 0.25426534 3551771
1.3440416 0.63691127 0.25271147 2499850
1.3444847 0.63771844 0.25156578 1184516
1.3389509 0.63301897 0.25284958 3485979
1.3401061 0.63459373 0.25193653 3420443
1.3417286 0.63729656 0.25090614 1973513
1.3441699 0.63717717 0.2502175 1184515
1.3365529 0.63272148 0.25138012 3551770
1.3378921 0.6352905 0.24974433 3091725
1.3393598 0.63735813 0.24887711 1118467
1.3324113 0.63212156 0.24976435 3157273
1.3341347 0.63220954 0.24965283 3420438
1.335567 0.63486707 0.24791285 3091469
1.3365811 0.63740325 0.24718019 986883
1.3310776 0.631868 0.24798515 3354901
1.3318713 0.63184476 0.2474601 3618079
1.3334962 0.63532126 0.24589646 2236939
1.3352386 0.63650429 0.24516419 921348
1.3260614 0.63063204 0.24699464 3223058
1.3286628 0.63121265 0.24630332 3354903
1.3302144 0.63435984 0.24498266 2763021
1.3317325 0.63569158 0.24363682 1250055
1.3225929 0.62829095 0.24662334 2433029
1.3245428 0.62977099 0.24554226 3354134
1.3263987 0.6303395 0.24470076 3420444
1.3277608 0.63404381 0.24323875 2763274
1.3291962 0.6353966 0.24199706 855555
1.3193181 0.62601095 0.24634531 6445614
1.3210456 0.6271264 0.24475983 4668444
1.3229883 0.62845957 0.24414924 2958091
1.3258845 0.63418853 0.24101248 2039815
1.3271104 0.63477063 0.24033624 921089
1.3159521 0.623878 0.24492827 15853991
1.3180404 0.6250881 0.24409303 11840890
1.3195997 0.62576067 0.24335399 8616777
1.3216903 0.63187957 0.24019828 1645579
1.3237664 0.63436079 0.23896798 1118726
1.3142502 0.62316978 0.24301538 16249273
1.315727 0.62406266 0.24275705 16709582
1.3167293 0.62810147 0.23974234 13552794
1.3183651 0.62975931 0.23991975 6579785
1.3197194 0.6320802 0.23826513 922388
1.3211508 0.6335789 0.23736522 593157
1.3120316 0.62305343 0.24108014 16183480
1.3121331 0.62638772 0.24012166 16314811
1.3146141 0.62782812 0.23887932 15855552
1.316548 0.62933737 0.23780832 9409910
1.3103516 0.62313783 0.2394155 16183227
1.3111932 0.62645948 0.23784754 16183225
1.3125474 0.62767243 0.23696229 16381377
1.314491 0.62853378 0.23532009 15461054
1.3091733 0.62622857 0.23562083 15920056
1.3101493 0.62766027 0.23532757 16118200
1.3075798 0.62649524 0.23316529 15985590
1.3079067 0.62746441 0.23369002 15855030
1.3047483 0.62751389 0.23154494 15985839
1.3063921 0.6268816 0.23146671 15920054
1.3026831 0.6271556 0.22974584 14011796
1.3005517 0.62770993 0.22901246 12235912
1.3009696 0.6278069 0.22665343 12301700
1.5684986 0.6707871 0.40339404 14342861
1.5645936 0.66867 0.40359464 15592919
1.5659025 0.67106533 0.40214053 15263965
1.5614066 0.66739094 0.40234366 15724504
1.5625297 0.66957289 0.40132126 15593186
1.5634983 0.67055404 0.40054649 14935262
1.5587035 0.66651547 0.40117967 15856345
1.5602126 0.6693899 0.39923593 15593188
1.5615023 0.6702224 0.39921746 14606045
1.5551083 0.66559291 0.3990263 16119517
1.5564218 0.66690826 0.3994377 16251105
1.5578879 0.66889489 0.39757338 15527397
1.5530214 0.66533327 0.39763677 16250849
1.5546896 0.66819048 0.39630717 15461603
1.5558095 0.66852558 0.3964518 16711666
1.5505993 0.6651485 0.39595553 16447967
1.5523233 0.66776234 0.39471537 15593189
1.5468848 0.66458368 0.39506397 16580064
1.548368 0.6641705 0.39388075 16645599
1.5496979 0.66732085 0.39297628 15987945
1.5449593 0.66399956 0.39298394 16119513
1.5464206 0.66671437 0.39170852 15856356
1.5476078 0.66675538 0.39086455 15790565
1.5425367 0.6634661 0.39107758 11908754
1.5443124 0.66650093 0.38981551 13553339
1.5453769 0.66665471 0.38778371 9344654
1.539253 0.66315353 0.39036348 8421981
1.5406352 0.66348487 0.38920552 4605994
1.5419331 0.66694713 0.38782573 8225133
1.5435162 0.66719455 0.38649783 3619358
1.537379 0.66315317 0.38884321 2698513
1.5388955 0.6639421 0.38659826 2368019
1.5396864 0.66755903 0.3860181 3356969
1.5415421 0.66830802 0.38435555 3026456
1.5356922 0.66374236 0.38719103 2171407
1.5363078 0.66441882 0.38532698 3026205
1.5374622 0.66691929 0.38373724 3092246
1.5388921 0.66914284 0.38257062 3552798
1.5402117 0.66995209 0.38064834 3552804
1.5341456 0.66547775 0.38340691 3223583
1.5350095 0.6662333 0.38113675 3223329
1.5368445 0.66985768 0.38077971 3487009
1.5381842 0.67009425 0.37897885 3552802
1.5317152 0.66605169 0.38171938 3289634
1.5325259 0.66647446 0.37949124 3223843
1.5351168 0.66998136 0.37826243 3552799
1.5361162 0.67007595 0.37744445 3815458
1.5291121 0.66657364 0.37831676 3158051
1.5307368 0.66633129 0.37756732 3158052
1.5326478 0.66971529 0.37647748 3618334
1.5273299 0.66637403 0.37641567 3289378
1.5284984 0.66860068 0.37545484 3158560
1.5301434 0.66925365 0.37474054 3618336
1.5253675 0.66600859 0.37454155 3223581
1.5268512 0.66853058 0.373362 3355421
1.527899 0.66874516 0.37220666 3881249
1.5227022 0.66573596 0.37299469 3289118
1.5242743 0.66829216 0.37181333 3355676
1.5260588 0.66878092 0.37013754 3947296
1.518975 0.66507626 0.37173632 3289373
1.520727 0.66634929 0.37058625 2829596
1.522449 0.66791898 0.36984819 3618333
1.5176929 0.66442531 0.36961815 3289634
1.5184834 0.66711491 0.3684637 3224092
1.5198386 0.66778934 0.36775458 3947037
1.5128435 0.66332495 0.3682569 3355170
1.515066 0.66359377 0.36828813 3420962
1.5165102 0.66687018 0.3665126 3421211
1.5111661 0.66329443 0.36725911 3486501
1.5126487 0.66495788 0.3657079 2763295
1.5144078 0.66647696 0.36457929 3552542
1.5096807 0.66277069 0.3644453 3486243
1.5105866 0.66527909 0.3635987 2698267
1.5122856 0.66638017 0.36262676 3947294
1.5069137 0.66260111 0.36347094 3552036
1.5084208 0.66529202 0.36195207 3158552
1.5097204 0.66594523 0.36046025 4013083
1.5044292 0.66274154 0.36132732 3157790
1.5063561 0.66503131 0.35984054 3355674
1.5013112 0.66134518 0.36024663 3552289
1.503073 0.66348058 0.35874528 2435095
1.5040662 0.66528326 0.3580341 3947546
1.4991771 0.6610049 0.35822892 3618343
1.5004073 0.66390824 0.3567279 2172176
1.5012357 0.66514623 0.35646036 4078619
1.4963946 0.66109061 0.3565779 3683876
1.4981563 0.66409123 0.35492691 3355673
1.5001754 0.66433525 0.35451913 4144663
1.4922189 0.66126657 0.35499471 3881257
1.4944079 0.66148245 0.35405946 3224095
1.4960217 0.66366524 0.35310614 3552794
1.4914266 0.66061044 0.35321328 3881001
1.4922783 0.66229689 0.35193124 2960920
1.4936552 0.66325361 0.35120663 3881239
1.4889036 0.66032958 0.35137632 3881254
1.4903195 0.66214681 0.34998938 3421465
1.4912819 0.66251224 0.34862447 3947029
1.486549 0.66017163 0.34951982 3355427
1.4880261 0.66191345 0.34803322 3487000
1.4831051 0.65943521 0.34859872 4078376
1.4846311 0.66016734 0.34711158 3092764
1.4856645 0.66210103 0.34619832 3750167
1.4810729 0.65877783 0.34635937 4013094
1.4820802 0.66151857 0.34510484 3027478
1.4836746 0.66170639 0.3442665 3355926
1.478215 0.6581775 0.34457555 4079141
1.4798595 0.66101873 0.34310251 3290138
1.4816363 0.66153151 0.34204212 3815452
1.4737709 0.65817887 0.34324703 4209965
1.4760349 0.65774751 0.34263375 4144679
1.477411 0.66078496 0.34139737 3355418
1.4728984 0.65742964 0.3414425 4210222
1.4740531 0.65975237 0.34039745 2961177
1.4756575 0.66024321 0.33958474 3552792
1.4707372 0.65697849 0.339618 4276010
1.4721508 0.65979117 0.33848184 3026966
1.4735858 0.66018653 0.33752069 4144669
1.4664965 0.65595239 0.33784452 4341291
1.4684187 0.65629745 0.33827066 4276011
1.4698275 0.65936303 0.33638719 3289882
1.4645952 0.65569723 0.33636054 4276001
1.4662702 0.65805578 0.33563143 2698010
1.4674635 0.65902764 0.33456114 3749913
1.4628632 0.65543246 0.33469278 4276006
1.4641154 0.65823221 0.33327678 3158548
1.4651593 0.65875942 0.33278027 3749660
1.4608498 0.65548933 0.33304936 4342054
1.4620134 0.65795779 0.33146349 3355925
1.4581387 0.65593433 0.33083239 3224601
1.4596251 0.65774763 0.32997409 3684373
1.4538349 0.65516412 0.32971853 4275752
1.4557859 0.65565175 0.32894582 3355673
1.4573796 0.65768385 0.32784367 3881238
1.4528168 0.65439421 0.32781044 3355678
1.4538814 0.65595895 0.32644042 3618326
1.4550372 0.65747809 0.32600018 3749655
1.4504201 0.65404147 0.32622963 3224350
1.4517568 0.65652794 0.32465315 4144151
1.4529144 0.65735501 0.32403299 3749911
1.4481366 0.65414673 0.32416716 3553053
1.4496195 0.65620589 0.32277173 3815703
1.4446044 0.65314114 0.32295811 4341536
1.4461753 0.65459067 0.32153228 4341788
1.4469256 0.65609163 0.32125434 3618321
1.4421412 0.65226018 0.32127091 4276003
1.4435667 0.65540743 0.32010487 3881240
1.4448117 0.65543044 0.31852719 3684116
1.4377924 0.65230703 0.3196823 4341544
1.4396504 0.65245932 0.31920758 4275998
1.4414177 0.65492064 0.3181892 3881237
1.435674 0.65160859 0.31775287 4276256
1.4381329 0.6527409 0.31710228 4276249
1.4388467 0.65508687 0.31571397 3552277
1.433988 0.65115726 0.31601307 4210715
1.4357159 0.65349364 0.31532255 4012821
1.4365895 0.65436685 0.31379399 3552787
1.431694 0.65123373 0.31427893 4144672
1.4334619 0.65348184 0.31275958 3749653
1.4286187 0.65055984 0.31372991 4144927
1.4298784 0.65094042 0.31236577 4210460
1.431077 0.65359128 0.31090367 3552024
1.4265406 0.6500901 0.31141487 4144925
1.4280519 0.65184474 0.31027162 4078615
1.4288859 0.65308481 0.30877009 3421206
1.4244121 0.64996755 0.30960864 4210201
1.4252908 0.65200543 0.30798188 3749905
1.4275744 0.65256739 0.30697501 3552527
1.4190729 0.6476987 0.30863801 3486763
1.4217272 0.6498841 0.30727762 4144408
1.4230105 0.65178537 0.30643177 3486486
1.4180517 0.64808476 0.30688867 3749671
1.4195789 0.64957702 0.30501673 4144409
1.4202152 0.65155637 0.30483505 3355155
1.4157704 0.64773548 0.30461231 3749671
1.4172641 0.65056896 0.3033461 3618324
1.4119964 0.64731038 0.30319056 3421736
1.4133769 0.64815009 0.30271623 3815710
1.4151995 0.64994466 0.30174229 3618067
1.4099306 0.64705658 0.30150297 3553055
1.4118383 0.64809918 0.30063164 3750169
1.4129537 0.64989686 0.29959685 3289613
1.4083807 0.64636719 0.29969385 3618339
1.4097146 0.64895654 0.29829502 3552788
1.4107375 0.64919513 0.29699737 3289868
1.4054797 0.6464709 0.29792207 3749666
1.4074211 0.64894629 0.29645154 3289875
1.4019172 0.64602375 0.2965478 3750178
1.403721 0.64657462 0.29584685 3815707
1.4051625 0.64889181 0.29471287 3092239
1.4001675 0.64520305 0.29479644 3684382
1.4018691 0.64707452 0.29350585 3881234
1.4021926 0.64891857 0.29308724 3026449
1.3976165 0.64479417 0.29299238 3684127
1.3990395 0.64752752 0.29178691 3420944
1.4001573 0.6482693 0.29037255 3026451
1.3941402 0.64427018 0.29203954 3618340
1.3954937 0.64481926 0.29070255 3815454
1.3971565 0.64792556 0.28962246 2960145
1.391973 0.64349997 0.28992432 3618339
1.3938206 0.64502692 0.28907856 3880727
1.3947558 0.64732277 0.28783926 2828816
1.3895497 0.64302492 0.2883774 3618595
1.3914441 0.64565253 0.28694487 3420693
1.3929529 0.64669359 0.28600523 2829076
1.3864226 0.64220381 0.28738081 3553057
1.3875234 0.64355677 0.2861658 3815196
1.3890992 0.64584816 0.28479171 2960403
1.3842257 0.64225113 0.28495654 3683619
1.3855491 0.64378589 0.28363946 3749394
1.3868036 0.64561963 0.28296492 2697484
1.381799 0.64194518 0.28300953 3749407
1.3831666 0.64468187 0.28176573 3026698
1.3851273 0.64527053 0.28141633 2631688
1.3791735 0.6418193 0.28121811 3683874
1.381041 0.64434397 0.28035414 2960906
1.3756576 0.641348 0.28020123 3618084
1.3774178 0.64211321 0.27917364 3683610
1.3786137 0.64424992 0.27841148 2631952
1.3738892 0.64077497 0.27839354 3618332
1.3754064 0.64186472 0.27713767 3618073
1.3763731 0.64422661 0.27607885 2368523
1.3713999 0.64054465 0.27665636 3618074
1.3731201 0.64296114 0.27499065 3025934
1.37465 0.64374608 0.27456036 2434060
1.3679677 0.63938123 0.27468762 3552546
1.3693799 0.64016378 0.27481416 3618325
1.3708076 0.64272714 0.27310678 2565643
1.3660326 0.63893586 0.27350867 3618075
1.3671907 0.64168954 0.2718139 3486487
1.3683279 0.64255095 0.27145109 2302988
1.3633689 0.63840544 0.27182695 3618331
1.3648641 0.6419878 0.27015343 2566412
1.366323 0.64225209 0.26936251 1974026
1.3595375 0.63807845 0.27086413 3618340
1.3610009 0.63822567 0.27024022 3618334
1.3626806 0.64160758 0.26823968 2566153
1.3578594 0.63767624 0.26867887 3617822
1.3595123 0.63898718 0.26716027 3552275
1.360244 0.64140821 0.26649138 2368521
1.3553058 0.63719249 0.26691252 3617819
1.356644 0.64004505 0.26551062 3420940
1.3579222 0.64121419 0.2644906 2039304
1.3515131 0.63672489 0.26526779 3880743
1.3531179 0.63657391 0.26482135 3683611
1.3546978 0.64028281 0.26375222 2500103
1.3556882 0.64075214 0.26204947 1710342
1.3500236 0.63649255 0.26419094 3617817
1.3512061 0.63718456 0.26258287 3552279
1.3527762 0.63989437 0.2615169 2302728
1.3477483 0.6357317 0.26199675 3552024
1.3494158 0.63821614 0.26057303 3289103
1.350329 0.63988888 0.25948012 1447684
1.3448725 0.63541484 0.26006508 3552025
1.3465333 0.63829768 0.25879812 3092492
1.347863 0.63942289 0.25779116 1381381
1.3416497 0.63506711 0.25893882 3552028
1.3429129 0.63480628 0.25793758 3420693
1.3446937 0.63869309 0.25679588 2170888
1.3468698 0.63860798 0.2558879 1249800
1.3398349 0.63446259 0.25717843 3486235
1.340162 0.63745201 0.2554636 3091726
1.3425478 0.63858485 0.25467569 1907977
1.3372132 0.63398778 0.25533918 3486235
1.3386908 0.6368264 0.25346395 3026187
1.3399229 0.63891453 0.25283161 1118468
1.333788 0.63340151 0.25374493 3354647
1.3353844 0.63353103 0.25342435 3551770
1.3358041 0.63675511 0.2520248 2631436
1.337678 0.63839871 0.25113401 1052677
1.3317397 0.63313371 0.25214127 3420699
1.33338 0.63508272 0.25138295 3223063
1.3344378 0.63746619 0.24958822 1579270
1.335557 0.63810825 0.24921867 921604
1.3276131 0.63235414 0.25142944 3222804
1.3296224 0.6325931 0.25030053 3486233
1.331389 0.63519704 0.2488412 2959890
1.3325413 0.63758308 0.2475847 986884
1.3250215 0.63115942 0.24916431 3354387
1.3275913 0.63215756 0.24855047 3486746
1.3281195 0.63489294 0.2471604 2828813
1.330091 0.63709396 0.2458832 1052422
1.321714 0.62897789 0.24879268 3484684
1.3239355 0.63009679 0.24765167 3090959
1.3257684 0.63501847 0.2452623 2302984
1.3280402 0.63655257 0.24412075 986883
1.3166298 0.62563741 0.24927765 14472340
1.3183134 0.62643701 0.24792382 12038011
1.3208344 0.62807846 0.24702045 5720354
1.3197124 0.63164699 0.24525917 2960923
1.3225269 0.63328022 0.24389064 1908748
1.3243203 0.6356836 0.24310037 1250310
1.3148303 0.62486458 0.24668476 16577981
1.3168361 0.62595463 0.24621338 16446411
1.3168874 0.63004136 0.24403441 12698262
1.3187258 0.63163424 0.24317327 3751465
1.320617 0.63358331 0.24181762 527625
1.322471 0.63531387 0.24168193 921353
1.3129418 0.62464273 0.24532476 16446654
1.3144798 0.62786841 0.24263567 16381119
1.3154227 0.62940788 0.24262285 15000501
1.317071 0.63095838 0.24101645 6843984
1.3190157 0.63255167 0.24043441 529171
1.3108637 0.6244818 0.24316451 16315068
1.3118055 0.62763107 0.2419149 16315064
1.313365 0.62847781 0.24092928 16381376
1.3099728 0.62457061 0.24076229 16644040
1.3096021 0.62776512 0.23941523 16117688
1.311023 0.62871432 0.23886481 16184251
1.3079726 0.62878633 0.23751613 16117692
1.3076527 0.62849557 0.23561236 15920567
1.3053514 0.62860668 0.23512074 15920050
1.3033016 0.62859523 0.23357987 14670231
1.301069 0.62887228 0.23163357 12762244
1.2994561 0.62846291 0.22998965 12762766
1.5621587 0.66977519 0.40436125 15592659
1.5632278 0.67153001 0.40356287 14276809
1.559423 0.66795182 0.40362942 15922139
1.560756 0.67091537 0.40249714 14935003
1.5617962 0.6725902 0.40187526 15987432
1.5559423 0.66747117 0.40238425 15790547
1.5568066 0.66787076 0.40322116 15987929
1.5587001 0.67081833 0.40137106 15527397
1.5542023 0.66707802 0.40164766 15790550
1.5550501 0.66983521 0.39992228 15330018
1.5567113 0.67013144 0.400161 15527399
1.5516142 0.66652131 0.4001534 16053726
1.5529062 0.66942608 0.39836469 15724774
1.5482556 0.66600728 0.39894506 16185309
1.5493585 0.66668773 0.39763802 16448229
1.5504487 0.66886389 0.39682797 15790568
1.5457963 0.66536802 0.39689836 16382687
1.5474894 0.66794831 0.39516899 15922152
1.5493811 0.66811872 0.39522386 15263973
1.5418527 0.66481799 0.39587447 16514272
1.5429814 0.66472632 0.39484176 16645600
1.545032 0.66754532 0.39379853 15987947
1.5395119 0.66429806 0.39346793 16645601
1.541145 0.66632771 0.39297882 16250855
1.5427451 0.6671645 0.39206406 15987944
1.5376635 0.66351837 0.39170972 13355945
1.5395389 0.66671097 0.39072293 15198424
1.5405277 0.666628 0.38915315 12106926
1.5349002 0.66327024 0.39032316 7961690
1.5369613 0.66675025 0.38909012 11645856
1.5382695 0.66753626 0.38705176 4672304
1.5309201 0.66371679 0.38864949 2500887
1.5334147 0.66377145 0.38788179 2368785
1.5346125 0.66722751 0.38754001 6448981
1.5361692 0.66819847 0.3853147 3289881
1.5310588 0.66449761 0.3860825 2829085
1.5330296 0.66688311 0.38512319 2566681
1.5340942 0.66891634 0.38346332 3224093
1.5347939 0.67026615 0.38081419 3487009
1.5286417 0.66525924 0.38427949 3289631
1.5304347 0.66597593 0.38274848 3289631
1.5315266 0.66971493 0.38168499 3618592
1.5330867 0.67023629 0.38012302 3749920
1.5282415 0.66701627 0.38071206 3223584
1.529482 0.67001224 0.37921685 3487265
1.5312428 0.67024076 0.37834594 3947296
1.5261699 0.66693676 0.37898982 3289124
1.52732 0.66983527 0.37735376 3552800
1.5297132 0.66985953 0.37695017 3815458
1.522741 0.6668601 0.37806922 3289631
1.5237629 0.66737545 0.37628871 3092513
1.5253706 0.66966474 0.37573305 3684126
1.5206236 0.66644514 0.37523693 3289630
1.5214874 0.66834664 0.37460038 2895644
1.5228082 0.66922927 0.37386474 3881245
1.5179256 0.66592598 0.37389314 3289374
1.5195862 0.66861844 0.37251377 3421215
1.5206478 0.66895276 0.37153441 3946784
1.5141048 0.66497135 0.37270078 3420705
1.5155871 0.66511524 0.37226161 3355171
1.5171715 0.66827178 0.37077779 3355422
1.5122161 0.66436577 0.37034974 3486504
1.5134892 0.66744268 0.36918011 2501145
1.5148771 0.66766238 0.36893791 3486751
1.5091299 0.66380489 0.36892781 3486506
1.5113356 0.66716599 0.36755005 3223836
1.5130597 0.66728938 0.3665742 3947040
1.5076871 0.66350317 0.36720175 3617835
1.5091534 0.66672826 0.36550266 3486748
1.5043155 0.66396737 0.36646786 3552804
1.5054265 0.66458762 0.36473283 2960669
1.5067661 0.66644406 0.36372948 3552538
1.502176 0.66304243 0.36397299 3552546
1.5035105 0.66558498 0.36256808 3026968
1.5048828 0.66608119 0.3614403 3947288
1.4993539 0.66247094 0.36212447 3683874
1.5009656 0.66528475 0.36095181 2895126
1.5024134 0.66560292 0.35948777 4013082
1.4961406 0.66202021 0.36103734 3881248
1.4972911 0.6629473 0.3601414 3092253
1.4989148 0.66516048 0.35890636 3487000
1.5010111 0.66590095 0.35845336 3815703
1.4937888 0.66188848 0.35893491 3815198
1.4954889 0.66378784 0.35766906 2501139
1.4967196 0.66499913 0.35696688 3552539
1.4919884 0.66145897 0.35692766 3815461
1.4931262 0.66386819 0.35606596 2632470
1.4943968 0.66454017 0.35490867 4078875
1.4894352 0.66166389 0.35500637 3552547
1.491053 0.66343409 0.35396692 3289621
1.4846767 0.66070509 0.35377023 4012840
1.4872127 0.661677 0.35301119 3092508
1.4888136 0.66325086 0.35257176 3552536
1.4836217 0.66051924 0.3518236 4012586
1.4852865 0.66238719 0.35100281 2960919
1.4867175 0.66297489 0.35032251 4275742
1.4814343 0.66033864 0.34996352 3684131
1.4831004 0.66245294 0.34924629 3289878
1.4844123 0.66255307 0.34748313 4078618
1.4787906 0.66018844 0.34840041 3421215
1.4806304 0.66215241 0.34720811 3421206
1.4750613 0.65918398 0.34714055 4144416
1.477309 0.66051888 0.34637797 2698263
1.4781266 0.6623562 0.34524038 3947547
1.4737611 0.65867871 0.34516251 4144675
1.4751104 0.66124225 0.34423116 2698519
1.4761999 0.6615333 0.34323686 4144414
1.4709351 0.65869957 0.34367624 3618851
1.4727454 0.66108853 0.34213263 3290134
1.4682684 0.65768266 0.34278068 4276007
1.4695317 0.65879089 0.34148911 2895133
1.4704524 0.66070461 0.34040496 3750168
1.4658511 0.65720052 0.34053507 4276007
1.4672606 0.65894485 0.339353 2632730
1.4682165 0.66048825 0.33825281 3881242
1.4630561 0.6565764 0.33924153 4210213
1.4647021 0.65970325 0.33722055 3224085
1.4655704 0.6606766 0.33763298 3814929
1.4594456 0.65635383 0.33775407 4210470
1.4613075 0.65611494 0.3367241 4276264
1.4627473 0.65949315 0.33558246 3224345
1.465059 0.65977091 0.33468196 3881234
1.4577273 0.65616453 0.3352313 4210721
1.4588569 0.65739572 0.33448997 3684894
1.460456 0.65913343 0.33387747 3158551
1.4554826 0.65575105 0.33384112 4210215
1.4568522 0.65781862 0.33258304 3158805
1.4580244 0.65935963 0.33193067 3552790
1.4532003 0.6558755 0.33156362 3749665
1.4546568 0.65781039 0.33073211 3552533
1.4569246 0.65880764 0.3299152 3815188
1.4509172 0.65542662 0.32975927 3289116
1.4525583 0.6577754 0.32872808 3947031
1.4467897 0.6549021 0.32924786 4144170
1.4485742 0.65556085 0.32774982 3684126
1.4504349 0.65750188 0.32681987 3815451
1.444917 0.65435904 0.32655463 4144931
1.4463489 0.65661383 0.32591572 4144410
1.4478121 0.65737641 0.32496762 3486487
1.4427824 0.65370113 0.32472137 4210463
1.4441806 0.65651447 0.32370749 3815449
1.4390805 0.65341973 0.32329586 4275997
1.4407884 0.65433049 0.32344958 4210461
1.4421932 0.65616655 0.32194403 3617817
1.4377187 0.65317428 0.32178411 4276257
1.4385678 0.65510046 0.32102221 3946780
1.4402614 0.6563431 0.32037446 3355157
1.4353167 0.65269566 0.32033446 4210462
1.4364876 0.65500355 0.31888485 3815704
1.4325403 0.65296704 0.31829533 4144668
1.4343379 0.65450442 0.31712744 3683858
1.4295988 0.65165579 0.31708351 4144676
1.4306471 0.65347469 0.3163397 3881242
1.4322439 0.65407944 0.31525302 3552276
1.4270459 0.65118641 0.31514814 4144422
1.4286761 0.65344214 0.31436828 3815448
1.4300572 0.65391463 0.31272227 3420947
1.4242437 0.65117395 0.31315249 4078879
1.4264522 0.65313423 0.3121585 3749909
1.4196596 0.65075457 0.31205806 4078881
1.4223731 0.65126252 0.31118158 4078621
1.4241278 0.65331501 0.30986252 3289874
1.4185681 0.64943206 0.31023207 3815463
1.4201112 0.65179956 0.30922657 3815704
1.4216717 0.65296978 0.308893 3289623
1.4151827 0.64883876 0.30943009 3618346
1.4162962 0.64914644 0.30887595 3749925
1.4182652 0.65196621 0.30719432 3618068
1.4131775 0.64878464 0.30730703 3618853
1.4147742 0.64945877 0.30671123 3815709
1.4160762 0.65210146 0.3053827 3223823
1.4116039 0.64855957 0.30543599 3750173
1.4124337 0.64979684 0.30485275 3815449
1.4135964 0.6515044 0.30360419 3223566
1.4087335 0.64797968 0.3036679 3553057
1.4104249 0.65036964 0.3022728 3486991
1.4049809 0.64783025 0.30319884 3881503
1.406409 0.64793009 0.30176708 3684383
1.4083748 0.65027606 0.30001414 3355154
1.4026892 0.64724731 0.30073193 3880990
1.4042509 0.64773273 0.299743 3749406
1.4053358 0.65035254 0.29890695 2960912
1.4008881 0.64667213 0.2986663 3749917
1.4018068 0.64929396 0.2977933 3486740
1.4035161 0.64993012 0.2966139 3026707
1.396397 0.64551163 0.29757544 3486510
1.3984464 0.64584506 0.29717383 3552801
1.3997071 0.64868736 0.29555914 3355152
1.4018228 0.64974767 0.29531983 3158033
1.3950446 0.64526451 0.29580042 3552542
1.3965542 0.64668119 0.29471442 3749912
1.3975912 0.64876521 0.29354155 3092237
1.3928493 0.64500028 0.29403695 3618335
1.3936818 0.64728713 0.29251292 3420946
1.3959758 0.64844912 0.29148835 2894606
1.3885088 0.64380157 0.29171586 3683881
1.3901238 0.64447474 0.29239771 3683873
1.3918581 0.64721239 0.29029411 3091732
1.3864878 0.6437605 0.29088122 3618340
1.3881015 0.64490759 0.28996155 3749406
1.3895193 0.64705461 0.28885117 3025936
1.3848029 0.64350772 0.28892344 3683873
1.3860607 0.64622438 0.28778103 3223823
1.3874366 0.64698005 0.28719708 2697482
1.3810134 0.64240944 0.28783238 3618340
1.3827868 0.64319783 0.28727639 3749406
1.3838408 0.64603817 0.28583321 3026189
1.3789539 0.64240026 0.28636387 3683879
1.3804679 0.64322174 0.28541714 3814939
1.3817406 0.64566052 0.28376263 3026187
1.3770509 0.64258373 0.28415862 3617828
1.3781304 0.6440568 0.28295672 3420691
1.3792615 0.64522219 0.28223217 2369035
1.3748603 0.64211398 0.28238323 3683617
1.3758827 0.64474291 0.28086683 2960656
1.3769971 0.64498532 0.2794815 2303246
1.372058 0.64177382 0.28038585 3618331
1.3736705 0.64447612 0.27890012 2763280
1.375441 0.64485145 0.27819291 2368782
1.3688325 0.64100885 0.27924371 3552541
1.3699228 0.64197654 0.27814063 3618070
1.3715131 0.64425856 0.27695009 2433805
1.3663123 0.64039481 0.27712679 3552539
1.3680929 0.64283967 0.27607 3486737
1.3690107 0.64411229 0.27556953 2105355
1.363714 0.63981724 0.27562478 3617823
1.3656043 0.6431818 0.27412847 2697486
1.3675786 0.64355308 0.27383074 2105355
1.3607426 0.63940221 0.27449393 3617823
1.3618422 0.63909364 0.27366382 3683621
1.3634223 0.64264369 0.2721943 2631690
1.3585813 0.63863635 0.27280444 3552539
1.3595313 0.64193571 0.27081171 3486480
1.3611403 0.64274013 0.27070957 2236937
1.3560297 0.63844383 0.27106166 3552285
1.3575511 0.64168334 0.26930252 3354896
1.3587433 0.64267147 0.26870832 1974022
1.3528076 0.6379689 0.26962814 3486489
1.3541356 0.63780636 0.26886413 3486751
1.3554761 0.64192337 0.26713151 2302729
1.3572793 0.64229226 0.26678899 1645319
1.3506029 0.63739228 0.26760343 3552030
1.3521193 0.63889575 0.26708552 3486496
1.3533525 0.64154851 0.26542863 2170889
1.3482102 0.63706243 0.26590279 3552026
1.3501717 0.63991451 0.26462153 3223824
1.3512346 0.64155644 0.26351365 1447432
1.3446355 0.63678205 0.26509705 3617307
1.3458511 0.63654602 0.26391456 3552027
1.3476132 0.64009058 0.26223737 2500108
1.3495133 0.64080304 0.26170972 1316358
1.3423572 0.63648689 0.26295972 3552026
1.344022 0.63619089 0.26177672 3551770
1.3454965 0.64027655 0.26042923 1710854
1.3406445 0.63581729 0.26094991 3552026
1.3414624 0.6389004 0.26006314 3092238
1.3431249 0.63993114 0.25857511 1710342
1.3366878 0.63536167 0.26029581 3880996
1.3380198 0.63519901 0.25939181 3551771
1.3394507 0.63857722 0.25772354 2697231
1.3403372 0.6396957 0.25686947 1118469
1.3349241 0.63477218 0.25786963 3486236
1.336543 0.63551271 0.25692657 3354647
1.3375342 0.63866377 0.25571325 2039561
1.3381684 0.63949215 0.25387174 1118469
1.3323725 0.63426477 0.2559498 3420442
1.3338554 0.63663864 0.25441054 3091988
1.335235 0.63919401 0.25346014 987395
1.3296388 0.63393617 0.25430211 3420695
1.3313229 0.63667607 0.25285795 2959891
1.333069 0.63866878 0.25145486 987397
1.3261116 0.63287604 0.25340784 3420438
1.3283868 0.63364232 0.25237069 3749409
1.3292228 0.63665235 0.25096872 2499852
1.3305861 0.63811791 0.24956736 986883
1.3207413 0.62932652 0.25332254 2563332
1.3223587 0.63038611 0.25234142 3221767
1.3248253 0.63179076 0.25147894 3354644
1.3264142 0.63496864 0.25000724 3026196
1.3274513 0.63747221 0.24856198 1250053
1.3173935 0.62705457 0.25297678 12959359
1.3193009 0.6281895 0.25198665 9866587
1.3210446 0.62942803 0.25064477 6773806
1.32103 0.63355953 0.24930498 1710862
1.323859 0.63502622 0.24812219 2631698
1.3250215 0.63749385 0.24642146 987393
1.3155688 0.62621349 0.25107163 15985843
1.317337 0.6272099 0.24999243 15656634
1.3176836 0.63142216 0.24819851 10461049
1.3199973 0.63298607 0.24732521 2040337
1.3205706 0.63505673 0.24597737 593161
1.322633 0.63686228 0.24541879 987397
1.3133831 0.62604964 0.24898496 16644035
1.314378 0.62950069 0.24781159 16709832
1.3165414 0.63109446 0.2463291 12632986
1.3179517 0.63195395 0.24549899 3029276
1.3198712 0.63449025 0.24424398 396042
1.3109074 0.62574816 0.24706426 16315326
1.3131211 0.62886608 0.24516624 16512448
1.313833 0.63038999 0.24540517 16250308
1.3099859 0.62581402 0.24436525 16380855
1.3107181 0.6290921 0.2436578 16380858
1.3118416 0.62950748 0.24243078 16512705
1.3089039 0.62937808 0.24145308 16183999
1.3063293 0.62955475 0.23956624 16183485
1.3037637 0.62957168 0.23766556 15196323
1.3013135 0.62976515 0.23548371 12959621
1.299337 0.6303184 0.23353729 12631176
1.2985665 0.63045394 0.231334 12894357
1.5544459 0.66860884 0.40420923 15855831
1.5571324 0.67184639 0.40265188 15197916
1.5514452 0.6676631 0.40342429 15790555
1.5538929 0.67126602 0.40173355 15132640
1.5549386 0.67324257 0.40179035 16579567
1.5483721 0.66768616 0.40231574 15593427
1.5494685 0.66861749 0.40127185 16185316
1.5511791 0.6706664 0.40050149 15395812
1.546505 0.6670785 0.40080482 15987935
1.5480356 0.66937131 0.39915115 15987948
1.5491343 0.66991377 0.39895174 15066842
1.5437618 0.66663617 0.39904869 16316897
1.5456769 0.6691184 0.39755085 15790569
1.5406736 0.66619968 0.3979513 16382944
1.5419159 0.66748422 0.39676231 16382699
1.5434538 0.66857386 0.39578575 15856361
1.5388263 0.6654771 0.39604601 16580068
1.5401114 0.66810453 0.39454815 16053996
1.5361228 0.66478753 0.39443916 16645603
1.537478 0.66751993 0.39287177 16119530
1.533226 0.66403425 0.39284149 15921878
1.533884 0.66683191 0.39125711 15066578
1.5352898 0.66724968 0.39114213 16119528
1.5309141 0.66387999 0.39112645 11316621
1.5321007 0.66670537 0.390003 13553339
1.5326015 0.66738749 0.38852453 9935237
1.5287054 0.66404688 0.38889489 4408109
1.5296252 0.66733176 0.38816342 8685678
1.5315784 0.66805315 0.38628277 3948842
1.5258805 0.66456699 0.38751838 2499857
1.5273237 0.6665653 0.38578367 2960660
1.5289533 0.66872501 0.38479701 2830102
1.5299721 0.66952431 0.38297984 3487521
1.5234643 0.66545564 0.38509455 3355172
1.5253818 0.66593611 0.38374552 3355171
1.5267276 0.66937292 0.38295451 3158553
1.5278986 0.67031217 0.38092503 3881759
1.5218034 0.66587317 0.38339391 3420962
1.5235221 0.66696352 0.38103998 3355172
1.5247769 0.66991657 0.38055956 3355934
1.5257289 0.67069709 0.37910011 3815709
1.5208645 0.66696393 0.37975329 3355429
1.5222046 0.67000169 0.37824282 3224351
1.5236301 0.67066103 0.37797338 4078623
1.5165811 0.66684681 0.37822267 3486498
1.5189248 0.66682297 0.37749755 3355167
1.5201583 0.6698252 0.37636003 3552798
1.5145653 0.66654456 0.37681964 3421215
1.5164341 0.66742063 0.37588027 3092511
1.5176539 0.66942048 0.37431496 3552798
1.5133326 0.66593122 0.37471905 3420709
1.5142148 0.66844106 0.37328911 2829592
1.5155003 0.66908467 0.37265661 3618336
1.5108764 0.6655978 0.37274233 3486503
1.5119901 0.66836172 0.37151378 3289883
1.5139911 0.66883647 0.37111658 3881248
1.5078375 0.66537774 0.37144515 3552292
1.5098432 0.66799235 0.36955985 3224089
1.5053954 0.66481853 0.36988136 3618085
1.5056556 0.66657084 0.36817712 3158044
1.5077326 0.66773933 0.3681719 3421466
1.5026608 0.6645304 0.36781946 3618338
1.50409 0.6668185 0.36645895 3223834
1.505734 0.66722471 0.36620858 4210210
1.499954 0.66469198 0.36591849 3289632
1.5017209 0.66666806 0.36480817 3224086
1.4962472 0.66374755 0.36503986 3683877
1.4982988 0.6648488 0.36383316 2632216
1.4996779 0.66647494 0.36283186 3750167
1.4950293 0.66292411 0.36304596 3749664
1.4961199 0.66549438 0.3617377 2829590
1.4973885 0.66594315 0.3608568 3947291
1.4925472 0.66250205 0.36143109 3749919
1.493962 0.66528583 0.3598398 3092504
1.4949623 0.66573554 0.35869014 4341539
1.4901755 0.66319913 0.35934994 3092255
1.491539 0.66492736 0.35759953 3487000
1.4867417 0.66216207 0.35845605 3750181
1.4882774 0.66362882 0.3568733 2829847
1.4896345 0.66472685 0.35605505 4013082
1.4847937 0.66150272 0.35598302 3947303
1.4859269 0.66410816 0.35484684 3092247
1.487568 0.66441727 0.35452163 4012827
1.4824375 0.66111338 0.3544279 3947043
1.4837651 0.66380942 0.35312966 3355416
1.4857979 0.66421008 0.35268 4407325
1.4786592 0.66092384 0.35379735 3947299
1.4802418 0.66180694 0.35237363 2763799
1.4811187 0.66378355 0.35131693 4012572
1.4765999 0.66069162 0.35176086 4078630
1.4779826 0.66195315 0.35010234 2960920
1.4789398 0.66355944 0.34945133 3947030
1.4745538 0.66065574 0.34958562 3355679
1.4756701 0.66237146 0.34820354 3026711
1.4775201 0.66287959 0.34743398 4078616
1.4701405 0.65917957 0.34787628 4144673
1.4721608 0.66033095 0.34754765 2896153
1.4738574 0.66236055 0.34601191 3553048
1.4684122 0.65933049 0.34675822 4144422
1.470035 0.66008788 0.34526804 2567705
1.4711702 0.66223329 0.34421402 3618840
1.4663688 0.65848482 0.34424785 4210214
1.4676038 0.66068226 0.34318155 2501395
1.4687532 0.66197181 0.34237236 3881240
1.4637413 0.65795147 0.34268066 4209960
1.4654285 0.66083312 0.34100097 3158294
1.4676111 0.661358 0.34023508 3684118
1.4604211 0.65762413 0.3415021 4078891
1.4615211 0.65725791 0.34056652 4210473
1.4629326 0.66081184 0.33941847 2961428
1.45872 0.65731502 0.33935291 4144680
1.4600543 0.66044784 0.33894816 3815451
1.4607295 0.66039717 0.33752659 3092503
1.4558725 0.65675724 0.33759966 4210213
1.4577396 0.65964454 0.33620921 2895895
1.4583728 0.66048604 0.3356376 3487001
1.4532079 0.65650392 0.33568519 4210217
1.4552529 0.6593672 0.33417162 3224343
1.4513192 0.65784264 0.3332693 3421209
1.4530084 0.65916377 0.33277509 3158293
1.4481851 0.65615368 0.33276203 4078633
1.4498422 0.65788114 0.33141547 3618332
1.450783 0.6589638 0.33030489 3486487
1.4454601 0.65549016 0.33092555 4078887
1.4473143 0.6580348 0.32953289 3880985
1.4491591 0.65851808 0.32822567 3552026
1.4435186 0.65568697 0.32925546 4144419
1.4445932 0.65780854 0.32783023 3684118
1.4403803 0.6548357 0.32759711 4078884
1.4416221 0.65624332 0.32723525 4013084
1.4425707 0.65735739 0.32578966 3552531
1.4382299 0.65460378 0.32605276 4079137
1.4395019 0.65674913 0.32480451 3815702
1.4407423 0.65698361 0.32399154 3355410
1.4357393 0.65453315 0.32378748 4144412
1.4371969 0.65633976 0.32276025 3552534
1.4314821 0.65372509 0.32253006 4144676
1.433388 0.65474784 0.32201457 4012828
1.434775 0.6558255 0.32078889 3486743
1.429517 0.65299618 0.32048053 4144674
1.4314709 0.65490752 0.31964758 3815451
1.4322693 0.65545666 0.3180466 3288601
1.4276009 0.65235937 0.31873378 4144413
1.4286625 0.65464103 0.31760484 3618069
1.4251257 0.65288866 0.31768554 4078622
1.4263122 0.65472686 0.31589219 3289361
1.4214427 0.65184474 0.31606942 3947556
1.423686 0.65293658 0.31498241 4078620
1.4241382 0.65446961 0.31401166 3158290
1.4190266 0.65111005 0.31413355 3881252
1.421055 0.65379781 0.31321138 3618326
1.4228156 0.6540947 0.31185171 3092755
1.4148391 0.65061945 0.31326041 3552294
1.417282 0.65069097 0.31249526 3814949
1.4184128 0.65330994 0.31136343 3618327
1.4208299 0.65419662 0.31090751 3224339
1.4141036 0.64988947 0.31105736 3618346
1.4156619 0.65109938 0.31050971 3947288
1.4164768 0.65361309 0.30955875 3223826
1.4118819 0.64985204 0.30912784 3749923
1.4135007 0.65114629 0.30864087 3881242
1.4144422 0.65309119 0.30737504 3223567
1.4093791 0.64953721 0.3075783 3618852
1.4107549 0.65198618 0.30607018 3420945
1.4127247 0.65290022 0.30651233 3223567
1.4055387 0.64909005 0.30653575 3618595
1.4070826 0.64981055 0.30533895 3618585
1.4086773 0.65164107 0.30391189 3027217
1.4037945 0.64834547 0.30444255 3553052
1.4050258 0.65065342 0.30296859 3486991
1.4065154 0.65137213 0.30240515 2895370
1.4012091 0.6479457 0.30265462 3553055
1.4029603 0.65054601 0.30127341 3223824
1.405592 0.65087283 0.3006852 3026954
1.3973521 0.64699483 0.30078056 3355679
1.3988982 0.64810973 0.30083039 3684123
1.400623 0.65023804 0.29977417 3158286
1.3956022 0.64659333 0.29961398 3683619
1.3971806 0.64822829 0.29877418 3749655
1.3982352 0.65009773 0.29773426 2960914
1.3916234 0.64512932 0.29766458 3421212
1.3934886 0.64621663 0.29804337 3618077
1.3947457 0.64855909 0.29639789 3355409
1.3962816 0.6497578 0.29561982 2894607
1.3899248 0.64533806 0.29660723 3486749
1.3911113 0.64667928 0.29598364 3683862
1.3928812 0.64889503 0.29411998 2894605
1.3876939 0.64554095 0.29481995 3617827
1.3894632 0.64641893 0.29387498 3618072
1.3901975 0.64878201 0.29294416 2763022
1.3854947 0.64491677 0.29313409 3618338
1.3871412 0.64764106 0.29187611 3289363
1.3883024 0.6481424 0.29149383 2631690
1.3819109 0.6437434 0.29145077 3487266
1.3831584 0.64472497 0.29154903 3683869
1.384728 0.64747977 0.28971973 2960654
1.3796071 0.64349443 0.29006991 3552291
1.3812076 0.64538014 0.28909287 3618069
1.3824431 0.64751518 0.28789082 2500109
1.3771744 0.64356756 0.28802994 3552542
1.3790247 0.64559591 0.28702062 3420436
1.3801401 0.64680552 0.28630683 2565641
1.3748119 0.64325494 0.28609475 3618078
1.3771731 0.64592707 0.28494018 2960397
1.3714412 0.6426723 0.28476325 3552287
1.3726362 0.64322883 0.28407443 3552534
1.3744388 0.64587283 0.28273675 2500108
1.3695587 0.64241701 0.28296909 3487004
1.3711964 0.64408606 0.28209463 3355668
1.3718647 0.64578462 0.28105775 2105611
1.3672707 0.64225698 0.28134272 3552286
1.3688911 0.64490926 0.2800554 2894861
1.3701439 0.6453203 0.27909595 1973767
1.3631923 0.6408897 0.27943236 3618340
1.3649929 0.64137506 0.27988967 3552541
1.3667407 0.64442402 0.27810553 2697482
1.3617982 0.64075518 0.27850384 3552286
1.3628813 0.64339626 0.27685422 3420687
1.3641846 0.64437628 0.27646115 2105353
1.3593898 0.64003825 0.27656326 3552285
1.3606541 0.64308894 0.27443132 3091727
1.3619163 0.64418995 0.27437282 1776646
1.3557726 0.63900357 0.27496549 3486232
1.3566334 0.63975871 0.27498668 3552285
1.3582859 0.64322877 0.2730692 2631438
1.3598851 0.64339566 0.2722272 1842181
1.3535411 0.6391772 0.27324289 3486489
1.354809 0.6408332 0.27260563 3552280
1.3561608 0.6429702 0.27117798 2171145
1.3514328 0.63883615 0.27130783 3552029
1.3528184 0.64199185 0.27038914 3354644
1.3539021 0.64257264 0.26911542 2105099
1.3489379 0.63862813 0.27010134 3486748
1.3505427 0.64226931 0.26825294 2039563
1.3524561 0.64280379 0.26703778 1578760
1.345382 0.63814735 0.26891932 3420694
1.3467798 0.63795161 0.2676768 3552287
1.3483385 0.6417504 0.26639801 2302732
1.3500236 0.64205408 0.2652936 1447431
1.3434559 0.63760239 0.26652539 3552028
1.345884 0.64128363 0.26457834 2039563
1.3407 0.63715398 0.26534873 3552029
1.3422968 0.64034855 0.26334515 3091726
1.3435884 0.64100212 0.26299277 1644808
1.3370596 0.63663644 0.26368749 3486236
1.3388295 0.6365245 0.26297507 3486233
1.3407395 0.6403842 0.26132587 2039305
1.3422563 0.64091045 0.26084721 1250051
1.3351939 0.63585877 0.26152486 3485981
1.3365183 0.63782692 0.26106653 3223056
1.3380473 0.63996089 0.2597672 2039307
1.3304094 0.63517189 0.26070359 3288847
1.3329159 0.63549107 0.25998417 3486491
1.3348299 0.63891733 0.25839272 3091470
1.33593 0.63963532 0.25730971 1447686
1.3287588 0.63471031 0.25918284 3157773
1.3302218 0.6352312 0.25819236 3617821
1.3322858 0.63868141 0.25643632 2368012
1.3337376 0.63942915 0.25564632 1052932
1.327172 0.6342901 0.25700766 3420954
1.3284805 0.63682032 0.2560918 3223316
1.3299644 0.63869584 0.25455731 1513480
1.332618 0.63909137 0.25376394 1052933
1.3232453 0.63217127 0.25641915 2893322
1.3254914 0.63324875 0.25548744 3486228
1.3267462 0.63688034 0.25329599 2829068
1.328083 0.63858002 0.25263065 1250309
1.3187038 0.62863803 0.25736037 9669972
1.3197701 0.62975442 0.25571382 9406293
1.3222219 0.63115549 0.25454912 3616013
1.3222184 0.63492227 0.25290826 1645321
1.3247031 0.63630062 0.25182837 2697746
1.3249525 0.63868886 0.25103027 921603
1.3147891 0.6267544 0.25590089 16446134
1.3164026 0.62763786 0.25465122 15919799
1.3181937 0.62953788 0.25368685 12235905
1.3188747 0.63241863 0.25297347 7697753
1.3209481 0.63408822 0.25144938 1645325
1.321861 0.63747811 0.24953684 724742
1.3237087 0.6378997 0.24877286 1052931
1.3130213 0.6264863 0.25388986 16380598
1.3141291 0.62751389 0.25313058 16775887
1.3148198 0.63040757 0.25147799 16512711
1.3168519 0.63238811 0.25014439 11645835
1.318614 0.63494539 0.24942049 2172964
1.32075 0.63645101 0.24788344 461830
1.3115067 0.62639517 0.25154021 16183729
1.311651 0.62770522 0.25125697 16710091
1.3130398 0.63035238 0.24941692 16644290
1.3149798 0.63163459 0.24844861 15066810
1.3100123 0.62855846 0.24931315 16249275
1.3112935 0.63041496 0.24724323 16512704
1.3088917 0.63035738 0.24553204 16380862
1.3065478 0.63041621 0.24335283 16183999
1.3042846 0.63041675 0.24159333 15591598
1.3021878 0.63078219 0.23993883 13354378
1.3002791 0.63098562 0.23835728 12565130
1.2993739 0.63145751 0.2357488 12499852
1.551842 0.67215323 0.40279016 14737881
1.5527281 0.67495853 0.40157589 16119008
1.5478666 0.66882777 0.40336612 16119261
1.5481846 0.67142332 0.40207577 15527396
1.5499848 0.67237139 0.40196702 15395811
1.5516629 0.67484367 0.4018262 15987167
1.5448067 0.66819447 0.40250525 15922144
1.5463488 0.67077821 0.40117624 15592935
1.5412719 0.66736746 0.4010857 16053725
1.5429313 0.66939408 0.40053126 16119787
1.5438938 0.67031455 0.39968002 15395811
1.5392401 0.66675699 0.39981145 16316897
1.5406357 0.66942871 0.39831564 15922153
1.542679 0.66983509 0.39793962 15264478
1.5344713 0.66647661 0.39843079 16513762
1.5366427 0.66695631 0.39784119 16382437
1.5381722 0.6689738 0.39677513 15922411
1.5336186 0.66554546 0.39647275 16645347
1.5344446 0.66856259 0.3951048 16053996
1.5360305 0.66848046 0.39513931 16053741
1.5314133 0.66533154 0.39492318 16711142
1.5328832 0.66806293 0.39345595 16251118
1.5345308 0.6678353 0.39291719 15922151
1.5273168 0.66468108 0.39383587 16711142
1.5295354 0.66498113 0.39344466 16645604
1.5304356 0.66742617 0.39160115 16119527
1.5256336 0.66425627 0.39230555 14671811
1.5267334 0.6654377 0.39112273 13487801
1.5279211 0.66733456 0.39006543 14014146
1.5234649 0.66416657 0.39062557 8751207
1.5246836 0.66678083 0.38904384 10988185
1.5261875 0.66796309 0.38750556 6252112
1.5204893 0.66484517 0.38845599 2303757
1.5225735 0.66555095 0.38692424 3422247
1.5235254 0.66870224 0.38550791 2830356
1.5254211 0.66966861 0.38410893 3487514
1.5188847 0.66563165 0.38666457 2698260
1.5200921 0.66601282 0.38492614 3223841
1.5215912 0.66950715 0.38363236 2829851
1.5227698 0.67019236 0.38219842 3684382
1.5177602 0.66577232 0.38494235 3355171
1.5178008 0.66661936 0.38226783 3486503
1.5192882 0.66997331 0.38193062 3487007
1.5205951 0.6707502 0.38039014 3684386
1.515247 0.66647637 0.38316265 3617836
1.5153406 0.66693425 0.38060585 3486502
1.5173388 0.66983771 0.37954944 3224097
1.5182261 0.67074192 0.37817809 3815712
1.5136149 0.66706872 0.37860945 3420960
1.5149781 0.6698426 0.37714115 3158558
1.5161211 0.67039323 0.3761377 3881505
1.5107929 0.66732514 0.37672856 3355174
1.5128223 0.66978019 0.37546816 3355679
1.5144193 0.67004466 0.37429175 4079138
1.5077448 0.66641963 0.37531063 3552547
1.5088582 0.66823804 0.37457705 3158304
1.5105226 0.66939592 0.37357476 3552799
1.5053726 0.66629392 0.37378207 3486756
1.5070503 0.66820025 0.37252709 2961181
1.5081272 0.66925895 0.37169096 4013341
1.5031157 0.66577601 0.37152147 3618086
1.5051179 0.66827154 0.37030289 3158299
1.4994175 0.6654278 0.37074873 3618088
1.5005864 0.66535914 0.36972448 3552551
1.5024182 0.66816956 0.36878315 3158299
1.4972399 0.66496086 0.3688612 3618344
1.4993333 0.66665584 0.36753407 2764059
1.5002 0.66795862 0.36725101 3881498
1.4955373 0.66442895 0.36673626 3683881
1.4970658 0.66695195 0.36554125 3224089
1.4990971 0.66711223 0.36516708 3947292
1.4911423 0.66371441 0.36515892 3880998
1.4930027 0.66380227 0.36504331 3749668
1.4947205 0.6665957 0.363704 3224086
1.4906359 0.6647408 0.3627058 2829083
1.4919821 0.66625786 0.36205858 3421207
1.4879467 0.66325492 0.36185175 3684137
1.4886081 0.66581041 0.36071232 3092502
1.4901153 0.66590369 0.35967264 3947290
1.4849935 0.66303408 0.3603487 3815719
1.4864835 0.66539901 0.3588604 2961177
1.4884229 0.66558373 0.35768619 3618339
1.4824576 0.6627636 0.3583301 3552802
1.4842694 0.66503751 0.35701278 3158297
1.4795341 0.66196549 0.35701185 3947306
1.4809492 0.66324377 0.35564977 2632218
1.4817727 0.66479027 0.3552312 3815707
1.4770898 0.66124833 0.35523513 3947049
1.4784245 0.66406298 0.35410511 3092500
1.4804535 0.66454434 0.35351962 3881241
1.4745175 0.6615572 0.35298011 3355680
1.4762515 0.66372383 0.35198185 3421205
1.478465 0.66460598 0.35178617 3618327
1.4705169 0.66078234 0.35231075 4013349
1.4728234 0.66181153 0.35116053 2764056
1.4740994 0.66390502 0.34996974 3947036
1.4694593 0.66012108 0.34990469 4144423
1.4705549 0.66244084 0.34901524 2632722
1.4723666 0.66352671 0.34835061 3815706
1.466826 0.66049206 0.3484858 3421211
1.4688565 0.6621806 0.34694868 3158551
1.470041 0.6630162 0.34578088 3553048
1.4650459 0.66016555 0.34634149 2698518
