# .PCD v0.7 - Point Cloud Data file format
VERSION 0.7
FIELDS x y z rgba
SIZE 4 4 4 4
TYPE F F F U
COUNT 1 1 1 1
WIDTH 1202
HEIGHT 1
VIEWPOINT 0 0 0 1 0 0 0
POINTS 1202
DATA ascii
1.5200533 0.57198834 0.20393419 3424111
1.5220146 0.57246727 0.20440739 4016255
1.5118663 0.5636161 0.20395961 3023926
1.5131228 0.56553715 0.20374498 2826799
1.5147038 0.5670439 0.20371848 2826538
1.5162399 0.57004261 0.20299649 2435404
1.5173818 0.57197785 0.20250374 4017026
1.5091839 0.5637843 0.20289198 2958382
1.5104094 0.566396 0.20178664 2892074
1.5125411 0.56965017 0.2015636 2501198
1.5139427 0.57125229 0.2012262 3950459
1.505476 0.56289202 0.20149642 2761780
1.5070617 0.56538951 0.20068789 2827051
1.5085733 0.56805009 0.19969785 2697540
1.5100763 0.57037467 0.19998014 3556212
1.5121331 0.57085454 0.19927305 4214147
1.501236 0.5622986 0.20002317 2894128
1.5027287 0.5624631 0.19993651 2958646
1.5041225 0.56598836 0.19881302 3023915
1.5065842 0.56936926 0.19875479 3160680
1.5080512 0.5704242 0.19838679 4017799
1.4969944 0.56214905 0.19911873 3025462
1.499313 0.56208301 0.19826841 2959667
1.5008855 0.56512916 0.19775453 3089965
1.5032053 0.56815463 0.19729164 2829397
1.5040367 0.56991345 0.19720691 3885186
1.4954089 0.56174523 0.19695175 2893366
1.4972377 0.56359297 0.19665745 3155761
1.4985604 0.56564587 0.19594777 2959936
1.5001673 0.56855118 0.19597435 3423084
1.5020294 0.5696463 0.19578481 4214152
1.4916506 0.56115115 0.19516373 2892594
1.4934645 0.56231612 0.19585639 3024688
1.4949001 0.56346285 0.19551376 3221037
1.4960667 0.5670197 0.19491261 2896211
1.4979843 0.56942123 0.19427961 4214153
1.4890472 0.56091559 0.1944218 3024435
1.4908347 0.56285286 0.19438028 3549488
1.4930162 0.56611621 0.19328761 2896470
1.4942431 0.56886518 0.19299158 4148363
1.4964409 0.56874734 0.1927627 4148360
1.4855871 0.56054211 0.19359952 2958900
1.4871516 0.56147343 0.19322836 3352885
1.4900422 0.56691837 0.19179744 3489393
1.4921422 0.56812215 0.19170621 4148108
1.481297 0.55980498 0.191378 2893361
1.4837325 0.5607388 0.19186443 3287348
1.486366 0.56611753 0.19080293 3357547
1.4877322 0.56719553 0.19017729 3885186
1.479544 0.55986238 0.18994707 3221553
1.4814186 0.56057143 0.1903494 3418929
1.482399 0.56541735 0.18916297 3159125
1.4842451 0.56616735 0.18899563 3358322
1.475642 0.55894905 0.18928254 2695469
1.4771758 0.55976158 0.18894491 3418933
1.480473 0.56549317 0.18780926 3226215
1.4819398 0.56661224 0.18850809 3490685
1.4712458 0.55763972 0.18717974 2629682
1.4736109 0.55890763 0.18767649 3352628
1.4762588 0.56390011 0.18655479 3225182
1.4782982 0.56567132 0.18636239 3030132
1.4690721 0.55764401 0.18605986 3089714
1.4708611 0.55944026 0.18668023 4206647
1.4730051 0.5631206 0.18543702 3224926
1.4744453 0.5649336 0.18517405 2635372
1.4660263 0.55699396 0.18482256 2761515
1.4672936 0.5586189 0.18497986 4206901
1.4685355 0.56294358 0.18373963 3225186
1.4709299 0.56372058 0.18383652 2502750
1.4630942 0.55730081 0.18317455 3352629
1.4649414 0.55850089 0.18431336 4338489
1.466614 0.56225586 0.18275517 3356259
1.4678919 0.56404746 0.18231714 1911120
1.4601643 0.55661279 0.18206275 3089712
1.4611149 0.55802834 0.18281791 4470077
1.462853 0.56188995 0.18115947 3487847
1.46428 0.56327176 0.18104112 2106965
1.4555819 0.55558348 0.18102515 2826033
1.4575456 0.55682588 0.18144074 3747382
1.4585078 0.56170756 0.18067086 3553893
1.4606957 0.56193459 0.17965192 2567517
1.4622948 0.56306207 0.17975223 1778008
1.4522069 0.55437976 0.17789811 2892588
1.453476 0.55562913 0.17943487 3287344
1.4550656 0.55702579 0.18052199 4667711
1.4567283 0.56085491 0.17844599 3225447
1.4582138 0.56240118 0.1781832 1515348
1.4498587 0.55471838 0.17865545 2761260
1.4505298 0.55610895 0.17769945 4668220
1.4526424 0.56025761 0.17669129 3619942
1.4545621 0.56158769 0.17723301 1712726
1.4462087 0.553666 0.17694092 2892330
1.4475288 0.555704 0.1769799 4404539
1.4481999 0.56006527 0.1764462 3882096
1.4506894 0.56050348 0.17580953 2436189
1.4529005 0.5609858 0.1750952 1318211
1.4419367 0.55317688 0.17481583 2892335
1.4436466 0.55419672 0.17534789 3878452
1.4471865 0.55976367 0.17389464 3225185
1.4484414 0.56082386 0.17458093 1318474
1.4397631 0.55299211 0.17396483 3286576
1.4409627 0.55431473 0.17412129 4995135
1.4428487 0.55910391 0.172346 3882607
1.4447443 0.56003058 0.17301708 2107471
1.4358387 0.55204368 0.17276752 2892327
1.4373164 0.55322015 0.17296398 4666938
1.4405599 0.5595811 0.1715368 2567772
1.4425318 0.55988801 0.17145061 1121088
1.4320858 0.55115867 0.1718266 2892593
1.4340799 0.55212522 0.17163622 4338742
1.4363236 0.55889094 0.17004502 2501211
1.4385133 0.55909854 0.17014742 2238549
1.4278138 0.54998761 0.17042947 2892336
1.4298913 0.55084074 0.17024636 3352882
1.4312391 0.55233258 0.17029691 4930872
1.4329146 0.55790913 0.16917953 3751788
1.4347919 0.55863094 0.16879159 2238803
1.4372678 0.5589149 0.16834998 1251646
1.4256744 0.5493148 0.16901758 3023406
1.427685 0.55143332 0.16838554 4996668
1.4309666 0.5579167 0.16744685 2567255
1.4326106 0.55836272 0.16761154 1054266
1.42219 0.54853553 0.1678578 3154737
1.4241042 0.55123347 0.16761911 5127993
1.4283764 0.55792165 0.16603747 1975630
1.4182584 0.5481776 0.165986 3089456
1.4197018 0.54907119 0.16648257 3812405
1.4218516 0.55074561 0.16610777 5127481
1.4246762 0.55689359 0.16484767 1975362
1.4267199 0.55793947 0.16489196 1054774
1.4160504 0.54793692 0.16526943 3154989
1.417964 0.55021721 0.16464153 5127227
1.4211745 0.55598199 0.16351369 2501459
1.412273 0.54731721 0.16369978 3220532
1.4141772 0.54915589 0.16350845 4601148
1.4163138 0.54952586 0.16274357 5061945
1.4169683 0.55523193 0.16199833 2172747
1.4189992 0.55563819 0.16252255 1448764
1.4094766 0.54744375 0.16235206 3680565
1.4118178 0.54915595 0.16203162 4864825
1.41468 0.5548408 0.16083902 1843525
1.4062519 0.54665041 0.16105133 3351345
1.407984 0.54855317 0.16077322 4799035
1.4114639 0.55430239 0.1596126 1975361
1.4020542 0.54631138 0.15963185 3154480
1.4042249 0.5473721 0.15927264 4272949
1.4070907 0.55403519 0.1581859 1645887
1.4088075 0.55408549 0.15815127 1909310
1.3999127 0.54635173 0.15795678 3812911
1.4013755 0.54793644 0.15952766 4734259
1.405138 0.55363739 0.15674728 1711932
1.3965772 0.54536009 0.15677321 3549745
1.3978517 0.54669648 0.15675488 4601907
1.4013466 0.55284476 0.15534788 1777215
1.4033009 0.55332965 0.15582615 2172746
1.3921895 0.54421079 0.15483791 3417390
1.394357 0.54534656 0.15551353 3944240
1.3971853 0.55237103 0.1538431 1777471
1.3989806 0.55250251 0.15432525 1382706
1.3900481 0.54478097 0.15406519 3812655
1.3927522 0.54545438 0.15410846 4338988
1.3950686 0.55203456 0.15276062 1645881
1.3864486 0.54421985 0.15271649 3418672
1.3875995 0.54452944 0.15270424 3944239
1.391618 0.55136067 0.15137941 1777468
1.3932357 0.55202258 0.151651 724774
1.3829815 0.54336494 0.15246272 3352623
1.3843606 0.54408109 0.15107322 3747628
1.3876396 0.55044222 0.14974767 1909312
1.3891606 0.55110455 0.15040791 1185328
1.3801041 0.54362166 0.14993501 3549232
1.3818145 0.54437578 0.14924413 4076076
1.383297 0.54953712 0.14834702 1382706
1.385277 0.55016631 0.14888862 1185326
1.3764385 0.54285657 0.14828032 3615274
1.3780296 0.54333103 0.14837736 3746606
1.3815284 0.5494712 0.14749396 1382963
1.3825651 0.54998147 0.14665526 790047
1.3745493 0.54277056 0.14753363 3549482
1.3772686 0.54903215 0.1460413 1251115
1.3792207 0.54920685 0.14582908 1053732
1.3706958 0.54196501 0.14609864 3417898
1.3725276 0.54247785 0.14606133 3812646
1.3733196 0.54819924 0.14523262 1842749
1.3753324 0.54853559 0.14443731 1185068
1.3660549 0.54164171 0.14486223 3352104
1.3681282 0.54158247 0.14441925 3417893
1.3713095 0.5478735 0.14322585 1251115
1.373107 0.54878974 0.14384386 725020
1.3639665 0.5411725 0.14316648 3286568
1.3678665 0.5469377 0.14172718 1447981
1.3692062 0.54766291 0.14159662 987678
1.3605325 0.54033136 0.14187917 3220772
1.362483 0.541098 0.14219949 3483939
1.3632419 0.54620069 0.14118129 1776692
1.3655305 0.54698241 0.14088306 1184805
1.3553183 0.53715926 0.14033005 1645103
1.3563249 0.53861421 0.14091671 2367020
1.3583939 0.53981769 0.14033496 3220769
1.3616408 0.5463165 0.13931659 1053477
1.3640168 0.5462774 0.13857871 593944
1.3529416 0.5377447 0.1393725 1841457
1.3546505 0.53920776 0.13907337 3220256
1.3579266 0.54555619 0.13820386 1185320
1.3591433 0.54602921 0.13773328 856354
1.3493441 0.53632629 0.13791254 1578808
1.351052 0.53831899 0.13797075 2892067
1.3524873 0.53923321 0.1384877 3286558
1.3555682 0.5453037 0.13670367 987685
1.346012 0.53517067 0.13579395 1513778
1.34672 0.53678823 0.13715219 2104109
1.3482835 0.53830612 0.13671279 3023647
1.3516066 0.54467779 0.13523412 1119012
1.3534977 0.54528683 0.13555145 724507
1.3431337 0.53533685 0.13576585 1644591
1.3446268 0.53763056 0.13515443 2957600
1.3472133 0.54404306 0.13391799 1250340
1.3494552 0.54466677 0.13361651 724766
1.3395088 0.53430367 0.13500464 1579307
1.3407172 0.53695923 0.13386822 3023134
1.3422928 0.53812587 0.1342895 3220511
1.3455106 0.5438078 0.13232768 1053218
1.3477883 0.54437149 0.13256013 659227
1.3348895 0.53393304 0.13310808 1710121
1.3371198 0.53511894 0.13258392 2300708
1.3380566 0.53670847 0.13293433 3023132
1.3417976 0.54317069 0.13119206 1053475
1.343302 0.54409242 0.13135648 724510
1.3326205 0.53364348 0.13134372 1578794
1.3344775 0.53631896 0.13108855 2956830
1.3372803 0.54260743 0.13013959 987424
1.3393426 0.54283839 0.12980813 856094
1.3286777 0.53267717 0.12990123 1513258
1.3312984 0.53484762 0.13038269 2497828
1.3318684 0.53670657 0.12973994 3022619
1.3336722 0.54145223 0.12834519 1250080
1.3359351 0.54232645 0.12857288 921630
1.325527 0.53174293 0.12797299 1578538
1.3268683 0.53239715 0.12958479 1578794
1.3285327 0.53595495 0.12828842 2826011
1.3318794 0.5415957 0.12708354 921884
1.3334839 0.54223502 0.12699237 658966
1.3231646 0.53151959 0.12796897 1644073
1.325069 0.5354774 0.12652707 2891292
1.3266523 0.53588414 0.12726033 2957080
1.3277574 0.54098958 0.12596107 1052698
1.3296691 0.54147923 0.12555736 855580
1.3195413 0.53110194 0.12619352 1644327
1.3222668 0.53532761 0.12580389 2891291
1.3242183 0.53929722 0.12308592 1249824
1.3259025 0.54063439 0.12438643 921113
1.3158431 0.53033638 0.12424076 1578790
1.3172491 0.53056455 0.12512153 1644074
1.3190029 0.53483099 0.12381014 2825754
1.3220757 0.53978062 0.12310332 986905
1.3235543 0.54075718 0.12342119 658961
1.3132458 0.53030771 0.12389868 1644584
1.31489 0.53419113 0.12197855 2825752
1.316067 0.53454417 0.12320405 2825754
1.3179111 0.53919864 0.12178409 921370
1.3198535 0.53979427 0.12178928 724500
1.3092982 0.52951336 0.12245768 1710118
1.3120348 0.52962184 0.12156993 1710119
1.3124559 0.53385639 0.12132171 2825750
1.3141918 0.53786302 0.1202423 1184027
1.3157315 0.53893745 0.12072384 855578
1.3053253 0.5288229 0.12101212 1710122
1.3071796 0.52989984 0.12051255 2103841
1.3090646 0.53295404 0.12014821 2891288
1.3122979 0.53786719 0.11943167 1052698
1.313735 0.53935754 0.11855572 658453
1.3017045 0.52790076 0.11903071 1841191
1.3036661 0.5282802 0.11933005 1710119
1.3050954 0.5318526 0.11867008 2891288
1.306417 0.53292489 0.11834025 2891540
1.3088506 0.53714633 0.11804557 1183771
1.3099048 0.53846204 0.11756158 790035
1.3119948 0.5395124 0.11708921 659217
1.2994869 0.52757907 0.11822814 1840933
1.3011166 0.53053606 0.11775762 2825752
1.3024449 0.5324434 0.11745253 2891282
1.3044144 0.53606546 0.11574447 1118485
1.3061492 0.53725636 0.11659974 921367
1.3075367 0.53860593 0.11560804 724500
1.2960194 0.52733374 0.11707884 1775651
1.2973421 0.52854782 0.11670744 2366240
1.2989316 0.53116584 0.11612725 2891028
1.3011904 0.53215051 0.11653614 2956819
1.3020661 0.53647166 0.11537844 921113
1.3040996 0.53730536 0.1150763 789783
1.2931106 0.52750337 0.1151588 2103839
1.2948214 0.52926022 0.11556286 2956824
1.2961812 0.53137732 0.11453182 2956308
1.2988758 0.53522396 0.11431226 986900
1.2995367 0.53636175 0.1134707 855315
1.2892556 0.52673149 0.11384803 2103584
1.2911916 0.52799177 0.11363181 2957079
1.293452 0.53121871 0.11312836 2956307
1.294645 0.53412437 0.11197871 1184021
1.2962947 0.53554308 0.11262071 855572
1.2860963 0.5257954 0.11249927 1906725
1.2873905 0.52698684 0.11258548 2628636
1.288972 0.53065896 0.11190838 2956306
1.2903628 0.53197366 0.11191761 2168340
1.2921315 0.53449172 0.11116803 987156
1.2933983 0.535797 0.11095744 855826
1.2835932 0.52531087 0.11149281 1840935
1.285004 0.52698958 0.11098158 3087898
1.2861865 0.5302524 0.11059427 2956306
1.2876683 0.53304619 0.10960108 1184021
1.2894825 0.53484964 0.10964125 855825
1.2798851 0.52489483 0.10972393 1906723
1.2818925 0.52680206 0.11006963 3088153
1.2827859 0.52964497 0.10920346 3087632
1.2847311 0.53225499 0.10851401 1249816
1.2861762 0.53445083 0.10814691 856078
1.2761004 0.52409613 0.10808921 1906467
1.277529 0.52549285 0.10878628 2694427
1.2794111 0.52691859 0.10785973 3088148
1.280479 0.53020751 0.10743326 2497041
1.2819208 0.53201604 0.1072551 1315348
1.2834356 0.53482044 0.10680634 921353
1.2738562 0.52440631 0.10765475 2300449
1.2746656 0.52542818 0.10676175 3219480
1.2766454 0.52874696 0.1068297 3022608
1.2784848 0.53189826 0.10582268 1183768
1.2800438 0.53353238 0.10592246 789524
1.2703974 0.52362585 0.1059562 1906724
1.2717428 0.52472967 0.10586733 2759964
1.2729046 0.52763045 0.10510355 3153938
1.2746391 0.53046602 0.10478967 1381141
1.2771994 0.53153235 0.10377151 1183767
1.2673633 0.52370286 0.10420603 2365985
1.2694123 0.52645552 0.10359085 3285009
1.2711728 0.52885377 0.10347122 1906452
1.2726424 0.52978528 0.10383832 1512214
1.2637272 0.52276456 0.10325402 2234913
1.2653501 0.52512425 0.10291481 3350551
1.2668188 0.52756679 0.10177636 2365973
1.268481 0.52893317 0.10253656 1512473
1.2602301 0.52145267 0.10184801 2037796
1.261668 0.52327764 0.10178214 3153691
1.2627479 0.52617311 0.10140002 3350543
1.2643964 0.52833962 0.10049576 1512470
1.2557416 0.52105403 0.10080701 2103587
1.2578008 0.52200258 0.10063744 2759965
1.2593752 0.52552068 0.10007674 3351053
1.2607861 0.52735424 0.09971714 1972242
1.2627326 0.52779055 0.099744856 1512467
1.2535522 0.52117425 0.098994374 2694430
1.255753 0.52233315 0.098950088 3547928
1.2569759 0.52548873 0.097942472 3022607
1.2583841 0.52733362 0.098148286 1644054
1.2499919 0.52021348 0.097859681 2235171
1.2512934 0.52114129 0.098268867 2891550
1.2536385 0.52452612 0.096949041 3482637
1.2545705 0.5265919 0.096617281 1709844
1.2478913 0.52037919 0.096619427 2957086
1.2499352 0.52296817 0.095866501 3679249
1.2510272 0.52557886 0.095640481 2169367
1.2435703 0.51940399 0.094823837 2826014
1.2454207 0.52027786 0.095620394 3219995
1.2470169 0.52365923 0.094285905 3351054
1.2487655 0.52532458 0.094225585 1972506
1.2402117 0.51895154 0.093004107 2826016
1.2417648 0.51941639 0.094224274 3154461
1.2434942 0.52302635 0.092915654 3744780
1.2451954 0.52513069 0.092948318 1841429
1.2378933 0.51898193 0.092436671 3088669
1.2390916 0.52260721 0.091641188 3810830
1.2411476 0.52386093 0.091170371 2629141
1.2427791 0.52524745 0.092344642 1907480
1.2342749 0.51839828 0.091217995 2760479
1.2357142 0.51859581 0.090505481 3154461
1.2367874 0.52276564 0.090164244 3088914
1.2391825 0.52414107 0.090837479 2104347
1.2300873 0.51755929 0.090049922 2498081
1.2322686 0.51833349 0.089848757 3286042
1.2334347 0.52187377 0.088623166 3220242
1.2351048 0.52290815 0.088944137 2235674
1.2286785 0.51780468 0.08829087 3220507
1.2293789 0.52070045 0.087313116 3942414
1.2311738 0.52176595 0.087485254 2826775
1.2237036 0.51667809 0.086897612 3548957
1.2258892 0.51738465 0.086750865 3154973
1.2268025 0.52108049 0.086172819 3155223
1.2293515 0.5217458 0.08619082 2367772
1.2171668 0.51005256 0.086384177 4072195
1.2188599 0.51149642 0.087334454 4071940
1.2201375 0.51433504 0.08586216 3088930
1.221729 0.51692098 0.085311592 3876882
1.223345 0.51971591 0.085158706 3352597
1.225006 0.52077591 0.084756672 2630173
1.2129825 0.50880349 0.08580637 9270095
1.2145276 0.51074731 0.085221052 6639406
1.2165567 0.51261318 0.085015833 5520673
1.2183305 0.51561177 0.084410727 4470567
1.2203755 0.51782417 0.084280968 2629142
1.2214923 0.51914036 0.084522724 2499101
1.2093016 0.50755644 0.084227681 10584409
1.2112747 0.50897723 0.084296942 9402202
1.2124722 0.51159495 0.083530307 10978897
1.21434 0.51351535 0.083451033 9141871
1.2070944 0.50777566 0.083398163 9665637
1.2095314 0.51092249 0.082245648 11569219
1.2104864 0.51287365 0.081959426 9404269
1.2033938 0.50763106 0.081683874 9666396
1.2050381 0.50780177 0.081668496 10058838
1.2067735 0.51136637 0.080743968 10388305
1.2087369 0.51238382 0.081228018 9470059
1.1990941 0.50632787 0.080085516 10786682
1.2009361 0.50733352 0.080004692 10920078
1.2036204 0.51087141 0.079202533 11118223
1.2038875 0.51273096 0.07931 10657693
1.1977315 0.5066371 0.079011559 11512992
1.2004204 0.51080328 0.077889323 11908532
1.2014443 0.51280081 0.077347279 12434877
1.1955783 0.50650835 0.077712417 11974326
1.1978506 0.51076698 0.077073932 11776946
1.1988816 0.51170075 0.075690985 12040119
1.6023843 0.57486886 0.24703935 11510436
1.5978053 0.5743525 0.24499187 10193026
1.6002717 0.57483554 0.24543518 9865597
1.6015216 0.57837194 0.24451125 6975116
1.5967224 0.57417107 0.24398011 10390405
1.5988634 0.57882476 0.2429722 7698063
1.5937927 0.57417256 0.24268216 10653317
1.5971867 0.5803141 0.2405988 6910355
1.5978773 0.58208126 0.2415528 6779533
1.5907786 0.57438123 0.24118561 11639181
1.5939519 0.5794481 0.23958373 8092311
1.5949244 0.58114874 0.23972091 7830168
1.5881933 0.5748412 0.23946396 13743789
1.5910165 0.58022863 0.2383945 9867941
1.5923133 0.58195084 0.23802572 9341333
1.5857399 0.5766905 0.23720676 3549481
1.5890532 0.58108747 0.23649806 3553105
1.5899595 0.58292902 0.2364434 2565181
1.5836056 0.57806486 0.2359432 1051409
1.586587 0.5823127 0.23563844 461863
1.5875459 0.58381718 0.2349835 1975875
1.5810477 0.57886213 0.23444039 1840667
1.5827826 0.58161443 0.23306328 1711158
1.5845315 0.58328855 0.23356652 1908798
1.5855591 0.58447951 0.23309258 2502731
1.5766009 0.5781287 0.23305994 1709336
1.5789874 0.57857025 0.23292297 1709593
1.5800664 0.5815835 0.23235726 1580085
1.582015 0.58409077 0.2320289 2502475
1.574472 0.57747346 0.23151127 1709335
1.5764626 0.58068883 0.23088112 1645623
1.5786736 0.58321959 0.2305837 2502732
1.5803704 0.58343649 0.23049292 2568784
1.5714558 0.57692057 0.23035321 1774617
1.5727122 0.58016336 0.22936839 1579832
1.5745072 0.58186841 0.2290343 2238792
1.5760208 0.58314687 0.22957149 2634575
1.5674639 0.57594568 0.2287069 1643547
1.5692178 0.57629669 0.22920501 1709084
1.570168 0.57973629 0.22827539 1645626
1.5722697 0.58255368 0.2278966 2700372
1.5651852 0.57586837 0.22756499 1709338
1.5667737 0.57906562 0.22695082 1645627
1.5684146 0.5819912 0.22635472 2831957
1.5701742 0.582147 0.22648966 2898519
1.5618514 0.57533145 0.22644687 1709339
1.5618839 0.57896549 0.22631598 1711422
1.5642051 0.58012533 0.22519699 2370635
1.5659685 0.58123451 0.22540143 2964313
1.5574312 0.57430738 0.22510606 1840665
1.5593666 0.57478702 0.22562742 1774877
1.5607113 0.5791443 0.22379011 2436683
1.5623519 0.58029479 0.22388232 2964057
1.5532749 0.57305443 0.22254038 1906713
1.555209 0.5741033 0.22411838 1906456
1.5565932 0.57837719 0.22234851 3227740
1.5584366 0.57939637 0.22272736 2700114
1.5507194 0.57302326 0.22215879 1840922
1.5542371 0.57839078 0.22116688 3029593
1.5563247 0.57967746 0.22082567 2634071
1.5479686 0.57277966 0.2211768 1971998
1.5486741 0.57329088 0.22273347 1840926
1.5511711 0.57762271 0.22022545 3161689
1.5520873 0.57885569 0.21951991 2633816
1.545599 0.5727917 0.22003639 2037533
1.5464884 0.57662439 0.21835393 1908799
1.5485241 0.57761526 0.21870321 3161182
1.5510027 0.57829475 0.21775335 2897504
1.5397464 0.57045585 0.21820438 2695972
1.5417743 0.57210845 0.21818167 2169376
1.5435359 0.57412136 0.21738929 1973295
1.5447767 0.5770936 0.21714914 3293280
1.5463772 0.57769001 0.21705735 3358824
1.5372958 0.56975198 0.2169928 2760746
1.5388042 0.57223922 0.21655631 2103584
1.5409887 0.57537359 0.21583197 1909311
1.5420634 0.57725066 0.21584791 3885679
1.5341742 0.5691942 0.21628422 2760757
1.5351367 0.5715726 0.21499729 2103840
1.5387003 0.57657534 0.21456414 3094880
1.5407616 0.57737505 0.21374279 4479352
1.5301728 0.56826389 0.21400928 2826284
1.5318468 0.57025194 0.21418029 2432294
1.5349879 0.57543325 0.2126981 2501716
1.5363387 0.57660306 0.21306863 3292782
1.5386497 0.57791585 0.2126112 4348536
1.5251604 0.5679028 0.21369332 2826796
1.5275136 0.56768763 0.21296704 2892082
1.5285883 0.5704397 0.21269679 2300962
1.5301273 0.57401055 0.21197906 2106440
1.5325291 0.57565266 0.21200779 3094885
1.5220125 0.56599241 0.21140844 3155750
1.5236554 0.56691927 0.21217 3023656
1.5255036 0.57030517 0.21106535 2432292
1.5276945 0.57305717 0.2105771 2172232
1.5290047 0.57511407 0.21041128 3358319
1.5309155 0.57575262 0.21053231 3621747
1.5200454 0.5660826 0.21045649 2892594
1.5210812 0.56946278 0.21002892 2564130
1.5229237 0.56945217 0.20989725 2563621
1.5247251 0.57343125 0.20913577 2962526
1.5266573 0.57507491 0.20923656 3622264
1.516778 0.56558579 0.20806253 3089208
1.5176737 0.56607246 0.20898908 2892595
1.5187613 0.56921452 0.20864779 2629926
1.5213952 0.57239896 0.20818618 2369355
1.5221339 0.57386082 0.20792192 4015998
1.5141027 0.56577331 0.20795143 2892596
1.5153987 0.5685935 0.20746678 2695210
1.516677 0.57143664 0.2061764 2435400
1.5190058 0.57288086 0.20658714 3489905
1.5101624 0.56476015 0.20587787 2958639
1.5121741 0.56699395 0.20621145 2826794
1.5138912 0.56913608 0.20494455 2631227
1.5147351 0.57176441 0.20554435 3028575
1.516291 0.57285899 0.20476627 4017540
1.5067718 0.56394643 0.20361653 3023157
1.5075443 0.56469065 0.20565903 3024435
1.5095422 0.56728005 0.20452559 2826793
1.510745 0.57088351 0.20409617 2830937
1.5128508 0.57208186 0.203486 4149125
1.5020797 0.5633294 0.20407999 3483700
1.5043306 0.56350464 0.20393121 3154997
1.5057917 0.56703031 0.20339254 2827307
1.5075214 0.56882715 0.20246226 2631746
1.5090106 0.57102525 0.20260987 3621749
1.5007579 0.56303221 0.20281589 3156019
1.5016577 0.5667221 0.20151848 3221039
1.5036387 0.56737107 0.20182216 2893621
1.5052853 0.57020146 0.20113504 3489904
1.5071797 0.5713079 0.2018804 4148870
1.4967589 0.56263685 0.20083821 3024948
1.4980216 0.56280589 0.20155632 3090483
1.4994391 0.56633335 0.20062733 3155503
1.5012467 0.56899977 0.19981492 3290975
1.5028335 0.57039058 0.19947839 4149385
1.4945779 0.56234622 0.20000723 3090741
1.4959228 0.56541353 0.19900259 3287087
1.4980234 0.56747425 0.19848728 2894664
1.4991869 0.56976181 0.19819236 4016514
1.4902006 0.56215465 0.199211 2958905
1.4920783 0.56297064 0.19767895 3089975
1.4935542 0.56519425 0.19838011 3483954
1.4952961 0.56840092 0.19733357 3225444
1.4964935 0.56997561 0.19706517 4214923
1.4881704 0.56209099 0.19648737 3155504
1.4895637 0.56423289 0.19713652 3484467
1.4916774 0.56725466 0.19604465 3027545
1.4932439 0.56946313 0.19560796 4345745
1.484375 0.56128025 0.19532359 2958903
1.4857372 0.56307918 0.19590458 3681077
1.4870012 0.56680924 0.19443226 3224670
1.4892066 0.56824881 0.19459677 3884672
1.4912802 0.5689553 0.19404459 4345998
1.4810467 0.56036639 0.19280702 2827571
1.481997 0.56183732 0.19431874 3353140
1.4833471 0.56353223 0.19562578 3878456
1.4850752 0.56700236 0.19305938 3620203
1.487011 0.56807119 0.19268566 4083082
1.4782135 0.56081647 0.19291604 3090994
1.4797397 0.56188583 0.19224358 3943988
1.4818718 0.56632388 0.19159749 3224919
1.4831226 0.56761032 0.19146043 3753862
1.4744813 0.55978858 0.19144002 2827307
1.4757499 0.56095302 0.19125158 3747381
1.4774387 0.56541628 0.19003728 3356257
1.4793283 0.56678617 0.19050866 3358321
1.4702358 0.55856454 0.18980718 2761524
1.4721993 0.56034911 0.19020444 3747380
1.4754823 0.56551045 0.18908858 3160169
1.4770923 0.56689286 0.18879044 3030652
1.4662013 0.55798626 0.18893838 2828077
1.4681656 0.55902171 0.18912739 3483957
1.4697037 0.56006277 0.1886133 4272694
1.4718075 0.56436026 0.1876145 3356769
1.4729328 0.56582242 0.18726325 2701166
1.4649003 0.55756903 0.18774608 2761007
1.4656408 0.55944639 0.18760705 4404280
1.4679024 0.56382638 0.18616498 3553383
1.469346 0.56514406 0.18632135 2503522
1.4604692 0.55756408 0.18633711 2827306
1.4625413 0.55830193 0.1862061 3812663
1.4653583 0.56367379 0.18478799 2962014
1.4670768 0.56510615 0.18488777 2043470
1.4583201 0.55769652 0.18474242 3418420
1.4602435 0.55881912 0.18460095 4536125
1.4620383 0.56269157 0.18380302 3488103
1.462924 0.56438673 0.18357319 1844310
1.4541113 0.55669475 0.183494 2695473
1.4561875 0.55819374 0.18326515 4141883
1.4570016 0.5623256 0.18255752 3750767
1.4594953 0.56335092 0.18255639 2501725
1.4614055 0.56381094 0.1812616 1712476
1.4509346 0.55563414 0.18196541 2892590
1.4525526 0.55698967 0.18227389 4010040
1.4553407 0.56213057 0.18090063 2962274
1.4574838 0.56343561 0.18072239 1515349
1.4484813 0.55565345 0.18049192 3221047
1.4504889 0.5570389 0.18047357 4733761
1.4526958 0.56103826 0.17962924 3685991
1.4529052 0.56268746 0.17949936 1449555
1.4450861 0.55451334 0.17972672 2957873
1.4459002 0.55679274 0.17926407 4931139
1.4493201 0.56154186 0.17820203 2370396
1.4511006 0.56288701 0.17949122 1450068
1.4399661 0.55402505 0.17819625 3023410
1.4426284 0.55531538 0.17816836 3944501
1.4447806 0.55589688 0.1771493 4799548
1.4457383 0.56077594 0.176727 2896478
1.4471437 0.56166595 0.17712989 1318219
1.4385402 0.55406827 0.17678618 3352628
1.4405098 0.55553877 0.17662376 4996414
1.4417136 0.56056619 0.17484063 1317700
1.4431908 0.56100243 0.17578775 2239065
1.4349256 0.55374861 0.17554128 3287344
1.436693 0.55422997 0.17508358 4732990
1.4399331 0.56027025 0.17428899 2238804
1.4309176 0.55255336 0.17438042 2827060
1.4324272 0.5533818 0.17414555 4404795
1.4357618 0.55955184 0.17249656 2436188
1.4373217 0.56012404 0.17307204 2501722
1.4275572 0.55073702 0.17280167 3089204
1.4287748 0.55226189 0.17281073 4338746
1.4316037 0.55861509 0.17185307 3817840
1.4335816 0.55941463 0.17150396 2238806
1.4230177 0.55011255 0.17125848 3089208
1.4252257 0.55120885 0.17161795 3878196
1.4263477 0.55240691 0.17085969 5324863
1.4294879 0.55869228 0.16996723 2633560
1.4314933 0.55971408 0.1700083 989244
1.4213225 0.54965788 0.17048669 3154738
1.4221137 0.55160141 0.16986611 5324862
1.4260032 0.55801594 0.1685977 3225699
1.4274926 0.55857331 0.16868821 1647429
1.4177339 0.54891789 0.16906959 3286066
1.4188309 0.55104059 0.16869962 4798783
1.4214478 0.55749893 0.16804656 3882865
1.4237415 0.55793929 0.16745153 1844034
1.4149117 0.54940486 0.16747314 3747378
1.4164852 0.55084836 0.16699493 5193532
1.4200698 0.55688798 0.16599584 1975367
1.4216348 0.55791187 0.16645455 988719
1.4111145 0.5483247 0.16641617 3155758
1.41225 0.55037844 0.16555268 5128248
1.4160573 0.55628139 0.16444409 2501457
1.417779 0.55664587 0.1651268 1843780
1.4074731 0.54761428 0.16446927 3417402
1.4088959 0.54908442 0.16465974 4404792
1.4117483 0.55560523 0.16290057 2633301
1.413609 0.55601645 0.1632362 1909575
1.4050092 0.54808068 0.16339892 4009782
1.4063541 0.54897475 0.16309845 4995898
1.409794 0.55530918 0.16181564 2172485
1.4120874 0.55575818 0.16213006 988203
1.4017379 0.54713809 0.16240534 3417395
1.4025809 0.54836613 0.16176438 4536117
1.4057984 0.5549407 0.1603983 2106698
1.4077773 0.55511957 0.16102594 1317428
1.3987687 0.5474472 0.16075131 4075570
1.4019198 0.55415374 0.15918162 921905
1.4036062 0.55436122 0.15930438 1909060
1.3950905 0.54619783 0.15927231 3615280
1.3963259 0.54769647 0.15919262 4733498
1.4003528 0.55387115 0.15797019 1777985
1.3913715 0.5455758 0.15819252 3352113
1.3929586 0.54677689 0.1575489 4667699
1.3961027 0.55337191 0.15672311 1579833
1.3979511 0.55332923 0.15665179 1909059
1.3892071 0.54553616 0.15654066 3878450
1.3940043 0.55317283 0.1552048 1580092
1.3854167 0.54528826 0.15542105 3681841
1.3871517 0.545524 0.15528604 4010290
1.3902266 0.55244291 0.15372831 1711673
1.3924477 0.55261052 0.15390623 1645885
1.3813655 0.54386413 0.15306827 3352882
1.3830781 0.54483354 0.15403497 3878959
1.3862766 0.55158812 0.15258706 1711677
1.3879904 0.55220342 0.15302789 1053491
1.3790748 0.54431766 0.15295663 3746863
1.3811437 0.54520464 0.15147412 4273198
1.3821018 0.55069673 0.15104926 1580346
1.3842149 0.55107331 0.15125418 1251120
1.3755758 0.54386413 0.15130571 3221295
1.3768777 0.5444243 0.15115124 4009519
1.3802323 0.55022585 0.15000796 1317171
1.3702464 0.54301894 0.15055057 3286827
1.3731745 0.54383457 0.14985418 3746605
1.376421 0.54968905 0.14891669 1514547
1.378202 0.55036056 0.14836416 790561
1.3689585 0.5429014 0.14856702 3483435
1.3712044 0.54374927 0.14850008 3812906
1.3720765 0.54866409 0.14720464 1843259
1.3743536 0.54950702 0.1471827 1119531
1.3652862 0.54218328 0.14715064 3417898
1.3671454 0.54280686 0.14754027 3615273
1.3704311 0.54892218 0.14609981 1185323
1.3612672 0.5414812 0.14569876 3155241
1.3635482 0.54223454 0.14588147 3483686
1.3663888 0.54812789 0.14441383 1316653
1.3681934 0.54856801 0.14456809 1053733
1.3595905 0.54110634 0.14440739 3221030
1.3609555 0.5421195 0.14546341 3549729
1.3624299 0.54726255 0.14207739 658978
1.3640182 0.54778975 0.14323801 1119273
1.3534312 0.53868961 0.14315608 1579060
1.3556508 0.5399574 0.14333922 2629677
1.3576807 0.5415765 0.14327332 3483687
1.3606321 0.54723543 0.14198041 1119531
1.3520726 0.53878939 0.14174193 1776435
1.3530624 0.5401696 0.14158177 3154981
1.3563282 0.54650044 0.14039761 1184810
1.3582444 0.54683346 0.14073074 791074
1.347641 0.53819829 0.14031643 1447734
1.349718 0.53931832 0.14031672 2629672
1.3525267 0.54567969 0.13887987 1644846
1.3542571 0.54632068 0.13903368 1053221
1.3442243 0.53669566 0.13830367 1906733
1.3455354 0.53828156 0.1388706 2235691
1.3470919 0.53965735 0.13932863 3089439
1.3505032 0.54570317 0.13755408 1119013
1.3523057 0.54638219 0.13865614 856349
1.3397508 0.53563106 0.13781613 1710636
1.3416584 0.53652561 0.13845438 1973033
1.3431878 0.5386644 0.1375376 3023391
1.3467333 0.54493725 0.13629013 1250343
1.3479517 0.54573184 0.13623607 724508
1.3377414 0.53537548 0.13695937 1644840
1.3397835 0.53806782 0.13670474 2957599
1.3427632 0.54395509 0.13480145 1381927
1.344341 0.54507232 0.13488707 790559
1.3343118 0.53511626 0.13601986 1579565
1.3358076 0.53649265 0.13566059 2498086
1.3376356 0.53758931 0.13543433 3088927
1.340391 0.54400426 0.13374913 921889
1.3429356 0.54495192 0.13367957 724769
1.3316976 0.53452432 0.13432282 1644589
1.3335576 0.53698361 0.13389367 3023134
1.3370607 0.54334104 0.13218224 987681
1.3381989 0.54384476 0.13225651 790558
1.3279159 0.53372431 0.13286605 1578798
1.3293868 0.53653932 0.13225526 2892060
1.331913 0.53682339 0.132186 3022880
1.3327099 0.54238975 0.13088736 1118754
1.3345482 0.54316652 0.13116762 921629
1.3243358 0.53301328 0.13099861 1644331
1.3258865 0.53493893 0.13100809 2366497
1.3274229 0.53667808 0.13078922 2891803
1.3302077 0.54242086 0.12945729 856094
1.3322794 0.54332852 0.1305621 593693
1.3208208 0.5318234 0.12856233 1709863
1.3217518 0.53283167 0.13062912 1644331
1.3235989 0.53631765 0.12905347 2891291
1.325453 0.53711557 0.12959653 2957081
1.3266975 0.54175681 0.12835276 987164
1.3285788 0.5420239 0.12759262 593433
1.318244 0.53189957 0.12907207 1579048
1.3194153 0.53550804 0.12733036 3022366
1.3212979 0.53629446 0.12807328 2891290
1.3234103 0.54046339 0.12638396 1183773
1.3243887 0.54131114 0.12696162 855835
1.3144838 0.53149867 0.12723911 1644329
1.3167508 0.53120589 0.12675574 1644329
1.3174996 0.53560793 0.12661785 2825757
1.3192762 0.53797996 0.12593251 1971994
1.3209019 0.54034299 0.12583959 921369
1.3114603 0.53079462 0.12587893 1644584
1.3138011 0.5348382 0.12496322 2825755
1.3155205 0.53551912 0.12541014 2826007
1.3165848 0.53953862 0.12438628 1052697
1.3187199 0.54075885 0.12426388 658708
1.3082182 0.530182 0.12477934 1775402
1.3098962 0.53392065 0.12352666 2825754
1.3116903 0.53491992 0.12428445 2825751
1.3132792 0.53842437 0.12318581 1117978
1.3148518 0.54001009 0.12300509 724499
1.3048882 0.52949762 0.12384519 1709868
1.3076073 0.53384483 0.12288719 2825753
1.3091211 0.5360415 0.12193483 2037528
1.310791 0.53893435 0.12188494 921113
1.3127623 0.53961623 0.12170684 724249
1.3003471 0.52827901 0.12172687 1775658
1.3021462 0.52899063 0.12267545 1840686
1.3038993 0.53288609 0.12167895 2825753
1.3058388 0.53369224 0.12097454 2825748
1.3066736 0.53732055 0.12050486 1118232
1.3083746 0.5395447 0.11979097 593178
1.2964513 0.52821898 0.12149864 1906729
1.2983012 0.52812958 0.12067509 1906727
1.2998067 0.53218973 0.12034416 2891289
1.3019679 0.53280389 0.12029409 2891287
1.3028641 0.5370841 0.1189169 1183511
1.3045497 0.53851497 0.11877978 790041
1.2947223 0.52797538 0.11885169 1775650
1.2962285 0.529616 0.11895484 2431779
1.2979059 0.53186619 0.11872727 2956822
1.3009245 0.53756785 0.1175341 986904
1.2922688 0.52842736 0.11783281 2038561
1.293829 0.53100634 0.11730731 2956823
1.2954822 0.53216147 0.11715931 2956563
1.2968938 0.53650743 0.11614943 986903
1.2987196 0.53805375 0.1163412 790036
1.288434 0.52726036 0.11661798 1906726
1.2896855 0.52968407 0.11648852 2957079
1.2919412 0.53140777 0.11527377 2891027
1.293242 0.53493357 0.11510202 1118230
1.2949212 0.53719497 0.1146937 658965
1.2848387 0.52637625 0.11501783 1906724
1.2864139 0.52847773 0.11508214 2956826
1.2881095 0.53091037 0.11466756 2956306
1.2894107 0.53433186 0.11383808 1249557
1.2912877 0.53611338 0.11331522 921617
1.2930864 0.53685886 0.11361247 724496
1.2811199 0.52573532 0.11425465 1906980
1.28272 0.52674937 0.11372358 2431776
1.2839717 0.52985835 0.1135003 3022099
1.2856433 0.53213739 0.11258042 2103059
1.2872431 0.53445184 0.11233705 1052691
1.2892216 0.53599739 0.11255533 790287
1.2785065 0.52573407 0.11301139 2103586
1.2798564 0.52791989 0.11214465 3088150
1.2821108 0.53016543 0.11148751 3022095
1.2831492 0.53317463 0.1108712 1315349
1.2848058 0.53521961 0.11063635 790538
1.2743835 0.52485716 0.11176163 1906723
1.27643 0.52619153 0.1104883 2825498
1.2778509 0.52969694 0.11012435 3087888
1.2794139 0.53174472 0.10971951 1774867
1.2815467 0.53446513 0.1093927 855823
1.2721214 0.52519941 0.1097905 2432030
1.2742782 0.52733827 0.10990536 3153687
1.2756072 0.5302844 0.10961962 2431761
1.2772864 0.53180611 0.10824341 1380884
1.2792532 0.5342977 0.10743105 658715
1.2690554 0.52396369 0.10865003 1972517
1.2701712 0.52567899 0.10841048 3219481
1.2723224 0.52864075 0.10804057 3153681
1.2740669 0.5314942 0.10692501 1249812
1.2638767 0.52335167 0.1067555 2038308
1.2665997 0.52460647 0.10701221 2563103
1.2683562 0.52759755 0.10702461 3219473
1.2697878 0.53003728 0.10605955 1775127
1.2715642 0.53100014 0.10618132 1512215
1.2620523 0.5236212 0.10559773 2497314
1.2639446 0.52597904 0.10560447 3416087
1.2658648 0.52876592 0.10481203 2365973
1.2674577 0.52992857 0.10501897 1446938
1.2587974 0.5226295 0.10428566 2300450
1.2604752 0.52394325 0.10408473 3481881
1.2618704 0.52716303 0.10402858 3350544
1.2633052 0.52919358 0.10310942 1512472
1.2552593 0.5219385 0.1031217 2103588
1.2570295 0.52293903 0.10344791 2759964
1.2575355 0.52628267 0.10262519 3351055
1.2601192 0.52854025 0.10197651 1840661
1.252501 0.52209282 0.10180914 2497314
1.2542036 0.52447593 0.10137451 3482133
1.255712 0.52697146 0.10057801 2497553
1.2572999 0.52838683 0.1005711 1643797
1.2489641 0.52122259 0.10008764 2103845
1.2506194 0.52244711 0.10025263 3613464
1.2516093 0.52607715 0.099007726 2760210
1.2539784 0.52755404 0.099058867 1644051
1.2454829 0.52027363 0.097452402 2300964
1.2464528 0.52173519 0.099111438 3088668
1.2484701 0.52459764 0.097970068 3613711
1.2499952 0.52627236 0.098310351 2103829
1.240541 0.51951885 0.097618341 2300959
1.2427835 0.52049506 0.097836554 2957341
1.2445756 0.52401638 0.096312821 3679246
1.2461424 0.52554816 0.096861541 2563346
1.2482433 0.52632809 0.09619379 1841176
1.2390349 0.51959676 0.096326828 2760477
1.240461 0.52034926 0.096662283 3679769
1.2422614 0.52397382 0.09626025 3679246
1.2432513 0.52601087 0.095190704 1906967
1.2363696 0.5195573 0.095127344 3154460
1.2389752 0.52360725 0.094832838 3745037
1.2399118 0.52534568 0.093859553 2432023
1.2414944 0.52595234 0.094173014 1907481
1.2333373 0.51914102 0.093815267 2957339
1.2343249 0.52289212 0.093077302 3810828
1.2365603 0.52346903 0.093082786 3351312
1.2376575 0.5251742 0.092726886 2038553
1.2291355 0.51834208 0.092762411 3023388
1.2305701 0.51874757 0.091967404 3351833
1.232375 0.52302015 0.09160316 3285778
1.2340879 0.52420223 0.091123223 2169882
1.2266017 0.51822174 0.09064281 3351835
1.2282863 0.52210683 0.091002345 3876880
1.2299864 0.52281642 0.089654386 2826775
1.2187864 0.51217616 0.089955032 4072196
1.2206488 0.51375651 0.089691758 4073489
1.2228523 0.51698983 0.089754045 3483163
1.2244165 0.51898819 0.089923024 3023388
1.226355 0.52205801 0.088991344 2892567
1.2133555 0.50989032 0.089930177 10386510
1.2159797 0.51053178 0.089234948 6440217
1.2170502 0.51329261 0.089305758 2429967
1.2189546 0.51609159 0.088212907 3811352
1.2206092 0.51814628 0.088094831 3088404
1.2223766 0.5204457 0.087424755 3154966
1.224436 0.52189732 0.087376952 2499101
1.2118317 0.50915468 0.087914646 10518356
1.2136698 0.51240122 0.087850034 8349252
1.2156723 0.51407945 0.087272406 8877144
1.2176409 0.51643503 0.086961567 5460037
1.2197021 0.51872754 0.086369336 2236192
1.2082343 0.50851023 0.08704102 10912339
1.2099299 0.50983828 0.086849749 9534312
1.2116383 0.51273656 0.08630693 10453849
1.2055347 0.5085519 0.085402191 10059096
1.2079806 0.51204962 0.084891915 11503165
1.2096285 0.51355594 0.084775865 9272940
1.2021703 0.50832283 0.084111214 9798762
1.2043718 0.50853145 0.084125519 8943213
1.2051269 0.51277041 0.082894325 9734254
1.20705 0.51370507 0.083646417 8943977
1.1985512 0.50711656 0.082327366 11512991
1.2003169 0.50803626 0.083459556 11381664
1.2025459 0.51195586 0.082022965 11710885
1.2030339 0.51358616 0.082101226 11842737
1.1961343 0.50748616 0.081368864 11776947
1.1995661 0.51300776 0.080325186 11974325
1.2004397 0.51406181 0.080581903 12369084
1.1979411 0.51190394 0.078252554 11842739
1.6037722 0.57675815 0.25049376 12497081
1.6006505 0.57549614 0.24914664 10128772
1.6029618 0.57619935 0.24958473 11642535
1.6027272 0.58006632 0.24852821 6777990
1.5976964 0.57508439 0.2465257 10324611
1.5985426 0.57565743 0.24793574 9930876
1.6017113 0.57927179 0.24665761 6974858
1.6011693 0.58045083 0.24781048 7303820
1.5952868 0.57543844 0.24638629 10587783
1.5993745 0.58005655 0.24571979 7566226
1.599017 0.58407217 0.24501714 6910095
1.5921017 0.57545817 0.24490237 10849410
1.595386 0.5815134 0.24399289 7303316
1.5972066 0.58322835 0.24345598 6779278
1.5888698 0.57610023 0.24227875 14204854
1.5905813 0.57625151 0.24377859 12494232
1.5924268 0.58111888 0.24267924 9604770
1.5938344 0.58245838 0.24200523 8881818
1.5867193 0.57686722 0.24202418 8679277
1.5908489 0.58161718 0.24062571 9144477
1.5911764 0.58358544 0.24018574 6248291
1.5850258 0.57793504 0.2398771 2103322
1.5880082 0.58259004 0.23913896 855853
1.5888257 0.58465356 0.23881948 1514040
1.5831926 0.57887524 0.23769617 1314579
1.5826955 0.57964927 0.23815882 1840154
1.5850222 0.58380175 0.23746651 1580086
1.5867867 0.58520454 0.23696548 2436168
1.5800557 0.57978475 0.23728216 1774871
1.5816488 0.58273977 0.23569059 1645622
1.5834117 0.5848096 0.23561788 2172997
1.5842373 0.58576536 0.23596281 2503501
1.575542 0.57884061 0.23567039 1709078
1.5774817 0.57967991 0.23588672 1643798
1.5791049 0.58303636 0.23455364 1777467
1.5810139 0.58511281 0.2345624 2437195
1.5734468 0.57832742 0.23367691 1709081
1.575743 0.58172393 0.23355383 1580086
1.5770653 0.58447802 0.23295814 2502733
1.5790548 0.58489293 0.23349464 2700880
1.5702331 0.57822204 0.23264182 1774618
1.5713348 0.58114368 0.23168457 1645370
1.573375 0.58312875 0.23145437 2304586
1.5749919 0.58437413 0.23180452 2701137
1.5660846 0.57714647 0.23111343 1709081
1.5679405 0.57929915 0.23139149 1644588
1.5689402 0.58147717 0.23090047 2041156
1.5707874 0.58329254 0.23025718 2766164
1.5615315 0.57665867 0.23063844 1709081
1.5637956 0.57642049 0.22991091 1709081
1.5661547 0.58007801 0.22962344 1645625
1.5672836 0.58249086 0.22906315 2766677
1.5600443 0.57620919 0.22881919 1643546
1.5615133 0.57974678 0.22847253 1711418
1.5634725 0.58135074 0.22782573 2766675
1.5652118 0.58226883 0.22792548 2633810
1.5559394 0.57541656 0.22739184 1709337
1.557752 0.577465 0.22750801 1644844
1.559289 0.57996291 0.22600055 2700113
1.5609586 0.58121246 0.2264607 2897753
1.5518379 0.57521284 0.22698289 1906457
1.5538578 0.57520312 0.2258954 1840921
1.555477 0.57943571 0.22469163 2832470
1.5572933 0.58028328 0.22518539 2963802
1.5503209 0.57459629 0.22467238 1906459
1.5518003 0.57845926 0.22309065 3689830
1.5532241 0.57946569 0.22401845 2963803
1.5552375 0.58038062 0.22391737 2699610
1.5465724 0.5738284 0.22326452 1841180
1.5496081 0.57864791 0.22221822 3095899
1.551082 0.57950741 0.22212619 2568279
1.5425134 0.57327855 0.22142863 2037792
1.543457 0.5735513 0.22244769 1906463
1.5458821 0.57748705 0.22153884 1909055
1.5468266 0.57876456 0.22104108 3490920
1.5388548 0.5713129 0.22149727 2696233
1.5400848 0.57341248 0.22071803 2038047
1.5413146 0.57712352 0.21984798 1843517
1.5439007 0.57797068 0.21986097 3490659
1.5454109 0.57865226 0.21899199 3094882
1.5349306 0.5699212 0.2196075 2629421
1.5367053 0.57124865 0.21992153 2564139
1.5371391 0.57324672 0.21953908 2169121
1.5399075 0.57711333 0.21841314 3028826
1.5415564 0.57806063 0.21844333 3687789
1.5325794 0.56954759 0.21866381 2695228
1.5341557 0.57233262 0.21780533 2169634
1.5357449 0.57618946 0.21701679 2040642
1.5376813 0.57753855 0.21694937 3094885
1.5288579 0.56913155 0.21739537 2892335
1.5304582 0.57124341 0.21666914 2497578
1.532523 0.57169801 0.21610156 2169380
1.5335878 0.57616842 0.21533036 2633815
1.5353892 0.57750857 0.2157971 3227758
1.5251316 0.56887859 0.21612263 2761520
1.5266578 0.56940365 0.21521318 2827305
1.5281886 0.57144463 0.21549112 2300964
1.5301764 0.57533801 0.21461397 2040644
1.5308049 0.57671809 0.2143375 3490673
1.522541 0.56805354 0.2145977 2630701
1.5244949 0.57108986 0.21406177 2563622
1.5253301 0.57417649 0.212807 2172490
1.5274371 0.57578874 0.21314994 3292267
1.5299741 0.57622051 0.21228299 3622264
1.5193564 0.56741315 0.21310312 3023662
1.5207229 0.57060957 0.21286285 2694947
1.5226266 0.57181275 0.21142304 2499385
1.5235043 0.57461733 0.21143201 3424112
1.5251851 0.57554317 0.21211642 3819643
1.5152193 0.56662184 0.21191704 2958127
1.5170155 0.56826895 0.21115756 2892329
1.5183723 0.5701775 0.21151993 2695460
1.5196723 0.57347614 0.21016011 2962528
1.5211823 0.57488412 0.21073204 4082563
1.5124941 0.5662148 0.21038735 3024177
1.5145836 0.5693683 0.20986831 2826794
1.5163023 0.57252949 0.20929575 2500937
1.5180806 0.57419056 0.20870435 4214406
1.5092816 0.56579828 0.2090525 2827570
1.5110588 0.56851798 0.20831624 2892330
1.5120614 0.57193106 0.20764059 2566991
1.5140114 0.57323122 0.20759928 3688057
1.5157131 0.57418406 0.20840257 4214407
1.5047317 0.56523383 0.2074734 2893373
1.5066657 0.56620252 0.20755923 2893109
1.5085349 0.56831551 0.20669889 2958124
1.5102034 0.57223439 0.20639634 3226214
1.5118575 0.57293397 0.2061263 4149384
1.500267 0.56482261 0.20696163 3483963
1.5025517 0.5644117 0.20624086 3352118
1.5046613 0.56772691 0.20563841 3023918
1.5058885 0.57110125 0.20478645 3159652
1.5080485 0.57202286 0.20508116 3688060
1.4990191 0.56400174 0.20511338 3353398
1.4998426 0.56720871 0.20417953 3221042
1.502285 0.56842721 0.20379817 2959423
1.5038238 0.57126695 0.20378458 3950462
1.4949156 0.56328028 0.20328218 3287608
1.4971907 0.5638532 0.20386139 3156537
1.4978313 0.56749135 0.20283103 3221561
1.5003228 0.57037866 0.20222837 3687030
1.5016868 0.57158732 0.20263517 4411278
1.4928331 0.56315398 0.20238459 3221815
1.4942656 0.56635851 0.20144463 3418160
1.4965135 0.56873626 0.20128894 3026768
1.4977449 0.57085872 0.2004782 4346513
1.489337 0.56282431 0.20117241 2959670
1.4907595 0.56504703 0.20057797 3484211
1.4916823 0.56760556 0.20051625 3222854
1.4939337 0.56964678 0.19947177 3686775
1.4954822 0.57083797 0.20029658 4477848
1.4853559 0.56241506 0.19902664 2827570
1.4869891 0.56354558 0.19947022 3221815
1.488456 0.56490028 0.19915286 3681592
1.4896858 0.56871045 0.1986368 3422567
1.4917462 0.57011282 0.19791192 4280725
1.4829352 0.56244141 0.19809902 2958900
1.4841466 0.56428087 0.19793487 3813432
1.4868923 0.56766421 0.19700712 3093600
1.4878149 0.5693199 0.19671038 4083082
1.479017 0.56159377 0.1966998 3024944
1.4807422 0.56319493 0.19660372 3550517
1.4826875 0.56677932 0.19400358 3290713
1.4839944 0.56833267 0.19585794 3687030
1.4859573 0.5691129 0.19514993 4346257
1.4745419 0.56124258 0.19615215 3221552
1.4766474 0.56168878 0.19521016 3222065
1.4788363 0.56312597 0.19508886 4010296
1.4803383 0.56729472 0.19417912 3357285
1.4817848 0.56828284 0.19376987 3951246
1.4732749 0.56053001 0.19417745 2893611
1.4747105 0.5624826 0.19378936 4141116
1.4763284 0.56632888 0.19258076 3422306
1.478086 0.56760335 0.19322902 3424634
1.4696882 0.55970383 0.19243944 2827821
1.471441 0.56149387 0.19273236 3944500
1.4742191 0.56656408 0.19166851 3291760
1.4763095 0.56757879 0.19119418 3227520
1.4653831 0.55903459 0.19139218 3024176
1.4669846 0.56013364 0.19202453 3550258
1.4687734 0.5613969 0.19143793 4469819
1.4700465 0.56581175 0.19035089 3159912
1.4718516 0.56697845 0.19016939 2766963
1.4611969 0.55829096 0.19061548 3024176
1.4634883 0.55878097 0.18958908 3352114
1.4649501 0.56077957 0.1901409 4666685
1.4660192 0.56471914 0.18882924 3684973
1.4682192 0.56567919 0.18866867 2700131
1.4591489 0.55792361 0.18906111 3024176
1.4610407 0.55976129 0.18860671 4470074
1.4624285 0.56377447 0.18724215 3619432
1.4644845 0.56488109 0.18739212 2699617
1.4659014 0.56622505 0.18873486 2042980
1.4568939 0.55828047 0.18708599 3418421
1.4583155 0.56011701 0.18795547 4864576
1.4597878 0.56329131 0.18622255 3751020
1.4619428 0.56535572 0.18616152 1713498
1.4538146 0.55753338 0.18618923 2892848
1.4543893 0.55904472 0.18553275 4864579
1.4565756 0.56279218 0.18523687 3751279
1.4584104 0.56508732 0.18467921 1647189
1.4606299 0.56476426 0.18419415 1844310
1.4493942 0.55680513 0.18471694 3089460
1.4513183 0.55805445 0.18438381 4076091
1.4529084 0.56060839 0.18400246 4406615
1.4543669 0.56330526 0.18326581 2567518
1.4561225 0.56427646 0.18314871 1581142
1.4472525 0.55667895 0.18284968 3681338
1.4493375 0.55817282 0.18319005 4930373
1.4505374 0.56218231 0.18204993 3488360
1.4518061 0.56385976 0.1821115 1515603
1.4433522 0.55550218 0.18198586 3023155
1.4452435 0.55784011 0.18214551 4996674
1.4465013 0.56110442 0.18108901 3883117
1.4485711 0.56276017 0.18086863 1844565
1.4403799 0.55466473 0.18067828 2957876
1.4411404 0.55706048 0.17991504 5062723
1.4433395 0.55720413 0.18030903 5062468
1.4445286 0.56175256 0.17921421 2633573
1.4462167 0.5627389 0.17986521 1384526
1.4352574 0.55437922 0.17987072 3155498
1.4374144 0.5552389 0.17905295 4272958
1.4399983 0.55670428 0.17904565 5127747
1.4407349 0.56119156 0.17764536 2896986
1.4420862 0.56187928 0.17834932 1844815
1.4335697 0.55454969 0.17799672 3878966
1.4350232 0.55535424 0.17759922 5325128
1.4380395 0.56105602 0.17661679 2239058
1.429049 0.55353808 0.17663684 3286072
1.4308937 0.55421084 0.17683053 4404794
1.4322079 0.55965602 0.17578703 4015230
1.4349946 0.56044358 0.17521942 2173266
1.4261492 0.55154812 0.17414689 3154992
1.4275229 0.55336273 0.17545092 4206907
1.4296031 0.55394423 0.17437005 5325376
1.4307742 0.55916893 0.17390096 3949679
1.4323015 0.56034613 0.17396593 1515846
1.4215214 0.55153537 0.1742093 3351611
1.423641 0.55202484 0.17396963 3615034
1.425274 0.55346167 0.17383897 5456195
1.4267633 0.55865383 0.17178452 3818358
1.4283103 0.55967516 0.17255777 2107730
1.4303699 0.56038052 0.17279428 1055290
1.4199374 0.55147767 0.17287132 3615290
1.4218415 0.55283892 0.17267543 5456193
1.4244691 0.5588944 0.17108536 3028320
1.4262903 0.55984044 0.17135209 989501
1.4158728 0.54983753 0.17091319 3286321
1.4179552 0.55170119 0.17159408 4667197
1.4208527 0.55791438 0.16974896 4014704
1.4224186 0.5588969 0.16994452 1975105
1.4124858 0.5492146 0.16917926 3352628
1.4136174 0.55048966 0.1702877 4009783
1.415264 0.55188155 0.17009676 5259581
1.4186175 0.5579471 0.16859245 2172749
1.4100649 0.54933333 0.16903239 3221296
1.4115944 0.55172133 0.16840565 5194299
