# .PCD v0.7 - Point Cloud Data file format
VERSION 0.7
FIELDS x y z rgba
SIZE 4 4 4 4
TYPE F F F U
COUNT 1 1 1 1
WIDTH 1144
HEIGHT 1
VIEWPOINT 0 0 0 1 0 0 0
POINTS 1144
DATA ascii
0.98236412 0.13194025 0.079707339 3092042
0.94834042 0.070064098 0.087188907 2366748
0.9497273 0.071321279 0.088740118 2169883
0.95829266 0.088305503 0.084132947 1908267
0.95944536 0.090601772 0.084767945 2039853
0.96080291 0.093385816 0.08392939 2105905
0.96207893 0.096179396 0.083261088 1777710
0.96354789 0.098507285 0.083864667 1580332
0.96519756 0.10153407 0.08408612 1514794
0.96602744 0.10394856 0.084159918 1449003
0.97736752 0.1257619 0.08053758 3426188
0.97873509 0.12796649 0.079547264 2504566
0.98011231 0.13038409 0.078734852 1977445
0.98121685 0.13312405 0.077921398 4869498
0.98205161 0.13433018 0.076017231 4605005
0.94693542 0.070421547 0.086498879 2564378
0.95421582 0.084045768 0.081817843 921622
0.95507449 0.086157829 0.082480989 1316381
0.95616877 0.088456929 0.083011821 1908262
0.95753205 0.091242552 0.081777379 2303026
0.95922732 0.093660206 0.082271963 2172216
0.9594475 0.095799506 0.082642719 2106930
0.98187387 0.13361016 0.075204767 1183766
0.98107368 0.13621715 0.076104812 8223410
0.98106897 0.13797259 0.074253313 6315387
0.95200795 0.084290683 0.080420144 1118747
0.95278025 0.086433858 0.080971062 1579036
0.9549346 0.089351058 0.080034986 1645861
0.95543224 0.091842085 0.080525085 1909547
0.98129529 0.13655177 0.072502673 1776169
0.94931138 0.08273986 0.07800284 1578010
0.94981784 0.084502965 0.078759752 2038812
0.95164078 0.087442726 0.077993751 1842472
0.95240015 0.089538932 0.078672767 1645873
0.98035496 0.14348209 0.070800491 594982
0.98123556 0.14404628 0.067928843 2501672
0.985452 0.15308359 0.066254511 8353130
0.98706985 0.15563312 0.066457562 10128253
0.98854971 0.15843084 0.06660834 10259324
0.98983753 0.16131097 0.066294082 10259066
0.94744444 0.082931876 0.076307237 2432541
0.94786543 0.084818631 0.077056035 2630170
0.94931561 0.087216228 0.076653168 2959628
0.95022106 0.090261847 0.077113077 1185846
0.98249555 0.15164632 0.064031295 5654334
0.98379529 0.15376967 0.065228693 7497310
0.98491508 0.15648201 0.064965703 9601909
0.98654002 0.15866864 0.064859204 10127480
0.98767978 0.16141406 0.064378135 10193273
0.94569016 0.08336854 0.074491642 1906456
0.94556582 0.084704548 0.075634897 1775128
0.98140049 0.15145466 0.063546427 3485485
0.98160112 0.15407628 0.063870579 5128507
0.98448223 0.15980098 0.063834585 10061687
0.94144583 0.079188108 0.072587714 3682342
0.94113386 0.080614984 0.071243666 3616802
0.94450116 0.085668713 0.071794398 1709591
0.94361234 0.086808413 0.069150798 1643802
0.94295484 0.089409381 0.069525264 1644053
0.94242537 0.089428335 0.065423727 1446682
0.94230616 0.092124552 0.065531291 1578262
0.94019842 0.088346362 0.063343331 1511450
0.94082642 0.090635955 0.063663617 1315348
0.94108868 0.093122751 0.063496411 1643796
0.94181806 0.095193416 0.063564315 1578261
0.93858856 0.088451594 0.062331483 1642268
0.93886369 0.091581374 0.062694348 1511193
0.93922287 0.093207419 0.06335678 1380631
0.94043529 0.095916063 0.062881865 1578521
0.97815704 0.17083266 0.044996679 4538699
0.97929257 0.17332658 0.044851784 8353909
0.9807772 0.17591777 0.044790667 9865599
0.9820689 0.17848533 0.044708181 9865601
0.9765842 0.17172033 0.044373572 1579305
0.9774726 0.17415538 0.04401942 7037270
0.97883922 0.17659578 0.043890443 9799278
0.97999436 0.17925754 0.043635361 9864558
0.97287798 0.16620547 0.042682908 4076091
0.9727459 0.16912076 0.042337559 6182980
0.9743616 0.17221129 0.042280264 5787208
0.97553891 0.17471668 0.042056426 9470050
0.97696507 0.17718351 0.04199313 9996392
0.97857511 0.17988813 0.041491449 10456942
0.97257459 0.17233154 0.041578729 8615256
0.97325522 0.17408293 0.041219171 9666414
0.93380898 0.10170072 0.047693081 5655347
0.93489218 0.10456213 0.047408879 4734241
0.93637228 0.1071302 0.047142968 3286293
0.93695664 0.11001405 0.046966687 3220505
0.93308616 0.10516462 0.04681816 6181432
0.93454218 0.1077655 0.046777979 4931620
0.9362638 0.11043718 0.046461046 2826514
0.93644595 0.11245465 0.046219096 2694678
0.93136442 0.10609701 0.045113683 7628631
0.9765687 0.09230265 0.10466275 7302002
0.97713906 0.094776362 0.10472734 5855069
0.97879553 0.097573608 0.10407659 4407879
0.98010051 0.099804252 0.10397422 3881277
0.9816286 0.10273433 0.10341725 3025967
0.98302305 0.10570636 0.10304571 1775641
0.9844982 0.1081866 0.1035625 1314577
0.98555738 0.11082092 0.10287235 1314573
0.98532635 0.11286238 0.10332623 1379595
0.97038811 0.085087866 0.10449253 9011328
0.97205156 0.087465227 0.10500897 8683392
0.97385067 0.090090036 0.1050303 9077899
0.97521001 0.092585057 0.10508034 8288640
0.97576118 0.095378995 0.10527036 6710121
0.97749048 0.097895741 0.1045609 4868432
0.97934842 0.10105112 0.10399377 3947072
0.98048043 0.10356599 0.10370615 3617849
0.9816336 0.10618484 0.10366423 2762791
0.96610332 0.080879629 0.10207867 3025706
0.96733844 0.082940012 0.1029636 4208430
0.96830863 0.085208952 0.10393812 9011077
0.96261972 0.078948706 0.10093057 2302239
0.96404743 0.080497146 0.10173054 2302240
0.96502805 0.082811207 0.10248542 1973275
0.95864791 0.074271858 0.098457754 1907479
0.96008277 0.076245874 0.099400148 2170397
0.96109116 0.078075916 0.10029385 2302241
0.95676005 0.074314564 0.09757629 1841433
0.95752633 0.076232016 0.098713934 1841685
0.95467192 0.072169274 0.095166057 2103835
0.95457333 0.074244559 0.095966108 1973019
0.95243382 0.072863311 0.09294802 2038551
0.95204127 0.074813843 0.093376324 2104344
0.96554548 0.0996117 0.087862968 2171455
0.96652204 0.10142046 0.087695576 2237758
0.96786851 0.10414889 0.087669373 2435659
0.96897495 0.10686871 0.087638617 2699093
0.97045565 0.10947013 0.087172516 2897246
0.97192162 0.11194894 0.086652443 3095400
0.97321558 0.11449504 0.085967831 3424624
0.97449183 0.1168355 0.085487373 3687796
0.97592843 0.11935836 0.084790185 3753591
0.97782946 0.1227687 0.083963513 3753591
0.94974697 0.073750585 0.090765446 2104343
0.95018429 0.075136125 0.092029251 2170134
0.96093559 0.094528675 0.086562388 1711403
0.96193284 0.096916497 0.086899713 1777199
0.96336663 0.099478722 0.08722534 1908787
0.96483004 0.10203749 0.087348364 2040378
0.96612298 0.10459429 0.087060332 2040638
0.96734989 0.10749078 0.086228579 1974845
0.9688381 0.11009881 0.085646391 2106951
0.97043711 0.11269069 0.085531756 2568282
0.97159266 0.1153354 0.085091941 2832229
0.97314316 0.1179041 0.084740087 3359092
0.97442615 0.12046117 0.084105156 3753597
0.97571129 0.12310153 0.083416745 3950717
0.97692871 0.12569734 0.082656205 4082048
0.97832757 0.12827274 0.081889063 4213122
0.97965884 0.1307345 0.081180364 3751796
0.98131055 0.13353163 0.080013834 1777478
0.94707501 0.071968973 0.08773724 2498079
0.94781148 0.073386252 0.089133486 2300955
0.95777911 0.092362911 0.085333318 1776686
0.95895749 0.094751596 0.085892119 1842734
0.96008819 0.097293705 0.085801542 1908527
0.96142864 0.10008678 0.084577911 1777199
0.96278358 0.10262921 0.084543951 1514282
0.96430194 0.10526317 0.084564589 1383209
0.96570551 0.10783631 0.08430098 1317418
0.96714056 0.11054656 0.084417567 1383209
0.96841067 0.11304846 0.084118113 1580856
0.9692167 0.11584625 0.083878279 2041932
0.97153229 0.11866531 0.082792312 2437989
0.97266704 0.12130493 0.081946038 2833526
0.97386092 0.12384266 0.081655703 3228551
0.97529322 0.12665221 0.081250593 3556746
0.97673798 0.12913874 0.080945984 3556487
0.97791249 0.13165763 0.080060668 3293055
0.97926259 0.13392884 0.079276897 2700133
0.98028952 0.13661361 0.078607276 2106691
0.94587207 0.072242498 0.087321103 2563863
0.94572324 0.074385524 0.088262953 2235416
0.94603986 0.076248199 0.087654673 2235676
0.95347118 0.087788433 0.08288385 1053470
0.95433414 0.090023696 0.083813973 1513763
0.955576 0.092595071 0.084353581 2039852
0.95722777 0.095284581 0.083471157 2171700
0.95828342 0.097959936 0.083250605 2040628
0.95949024 0.10008457 0.083861299 1843251
0.974545 0.1301522 0.07961528 3295121
0.97621238 0.13205802 0.078976728 3229324
0.97752815 0.13531503 0.078303039 3162500
0.97914153 0.13741791 0.077232592 3489403
0.97971189 0.14034101 0.076600187 1580863
0.98001015 0.14247078 0.076179251 1054253
0.95146811 0.088258684 0.081810474 1250075
0.95226407 0.090437829 0.082444057 1513499
0.95391488 0.093202174 0.081500068 1842982
0.95519823 0.095646262 0.081765518 2303029
0.95609379 0.097982585 0.082562082 2041148
0.97739822 0.1390264 0.075692341 2834044
0.97863418 0.14111164 0.074452452 3753095
0.97945875 0.14329442 0.073604308 2304868
0.94309127 0.078299254 0.081287503 2235158
0.9484818 0.086431354 0.079541937 1644058
0.9492057 0.088233203 0.080439277 1841438
0.95067769 0.091251671 0.07970088 1842218
0.95194155 0.093430936 0.079806015 1646121
0.95268261 0.095532894 0.080359146 1909287
0.97867674 0.14641511 0.071599424 1448256
0.9791708 0.14838889 0.070600502 1513519
0.94559783 0.083992958 0.076984935 2695961
0.94639558 0.086469501 0.078012273 2367001
0.9470579 0.088882655 0.078088321 3156768
0.94852811 0.091614097 0.077762358 2566435
0.98340786 0.15734041 0.06577976 6511179
0.98428226 0.15997294 0.065689266 9602415
0.98573685 0.1630255 0.065518685 10193529
0.98727816 0.16551942 0.065878518 10390909
0.94113624 0.080739617 0.074887097 3353376
0.94461906 0.087109327 0.076151326 1972502
0.98042905 0.15558293 0.064151853 3616556
0.98148954 0.15829942 0.064158678 5918271
0.9823668 0.16090605 0.064203784 8877671
0.98385924 0.16324744 0.063915633 10061430
0.98506141 0.16577667 0.063232735 10324344
0.98670965 0.16833282 0.063220046 10455929
0.94326371 0.087881297 0.074504949 1840916
0.94262159 0.089899749 0.07222867 1840918
0.97952151 0.15927154 0.062921569 4865332
0.98131931 0.16250247 0.063345 10127222
0.98210579 0.16432282 0.063048899 10192761
0.93922085 0.083209485 0.072723396 4603184
0.9389261 0.08523491 0.072512984 4273961
0.93758225 0.088649362 0.069393016 5062708
0.93911946 0.096343488 0.065560587 2563599
0.93870711 0.095240355 0.062771581 1446423
0.93986279 0.096611738 0.063239932 1578007
0.97439438 0.17199194 0.045371264 1251634
0.97527874 0.17518464 0.044366688 789792
0.97696024 0.1780977 0.044406205 9076587
0.97304511 0.17355433 0.043641727 1052450
0.97394508 0.17654443 0.043608174 5326909
0.97508889 0.17869931 0.043515209 8483672
0.97137004 0.17379588 0.041369312 6904120
0.97192168 0.17653298 0.041380234 9535841
0.93683147 0.11515024 0.048321627 2563354
0.93121773 0.10634449 0.047138974 6181179
0.93268597 0.10909504 0.046926931 5326131
0.93393523 0.11169714 0.046869636 4603169
0.93489504 0.11447629 0.046842232 3484690
0.93559897 0.1172483 0.046335414 2300181
0.9307602 0.10954979 0.046287984 6510149
0.93171388 0.11222333 0.046491988 5786935
0.93375731 0.11596304 0.046267606 4998425
0.93589503 0.12038338 0.044910014 1774869
0.98432082 0.11194256 0.10356147 1314062
0.985062 0.11384684 0.10364401 1248269
0.97002614 0.08905834 0.10524261 5855582
0.97118992 0.091620654 0.10559448 5526361
0.97310328 0.094051152 0.10582606 6841707
0.97440541 0.096869081 0.10520653 5789274
0.97580373 0.099492788 0.10531302 4736843
0.97738004 0.10208374 0.10477473 4078914
0.97874331 0.10462379 0.10432849 3683900
0.9798072 0.10708022 0.10392897 3420983
0.98122084 0.10984722 0.10356268 2828330
0.98283792 0.11244652 0.10344138 1906713
0.98381037 0.11533201 0.10317523 1577490
0.98379314 0.11822274 0.10221794 1183246
0.96604919 0.085124612 0.1035473 2564637
0.96698648 0.086908907 0.10422952 5526101
0.96824759 0.089263439 0.10502131 4934223
0.96914428 0.091339558 0.10549811 3487289
0.96265525 0.082497597 0.10219125 2302240
0.96372581 0.084526509 0.10308053 2104862
0.96482408 0.087479621 0.1039809 2039327
0.95878625 0.077989578 0.10009932 1973274
0.95940721 0.079889178 0.10098438 2236192
0.9604755 0.082151979 0.10183119 2367778
0.95609748 0.078185707 0.098999947 1775893
0.95692474 0.080539852 0.10004357 1841687
0.95396513 0.076291889 0.096596807 1973018
0.95341426 0.078306496 0.096852094 2038808
0.9512673 0.076990664 0.094195873 2235673
0.9516201 0.078617901 0.09570089 2169881
0.96708846 0.10696501 0.088332221 2501977
0.96814871 0.10931256 0.087951958 2831715
0.9491995 0.076807976 0.092456892 2367001
0.94901603 0.079029769 0.093376189 2629920
0.96146685 0.10099587 0.087706812 1645877
0.96292239 0.10336518 0.087715 1909054
0.96415645 0.10609245 0.087703943 2106695
0.96559411 0.10858691 0.087573737 2370386
0.96696377 0.11133268 0.087160192 2700127
0.96818322 0.11396655 0.086674154 2963819
0.96954834 0.11653328 0.086134955 3293047
0.97075093 0.11911294 0.085502483 3490941
0.97220945 0.12179989 0.084690042 3753601
0.9737488 0.12425256 0.084148772 3688067
0.97528237 0.1274696 0.083031796 3885707
0.94744432 0.077103078 0.090212695 2367000
0.94753766 0.079979956 0.090241775 2629911
0.95722532 0.096288919 0.086326785 1579820
0.95851231 0.098713577 0.086799853 1514029
0.95951217 0.10127923 0.087044455 1580078
0.96098161 0.10395607 0.086930275 1645874
0.96237969 0.10659194 0.085957751 1580080
0.96368945 0.10923082 0.085543081 1448492
0.96508479 0.11173829 0.085341819 1514548
0.96649683 0.11439565 0.084984951 1712446
0.96778673 0.11734518 0.084519893 2371161
0.96924639 0.11996534 0.084078707 2898802
0.97066879 0.12254816 0.083748832 3425152
0.97221565 0.12495437 0.083251245 3622534
0.9731608 0.12768897 0.08249601 3753865
0.97446871 0.13012642 0.081616037 3622021
0.97566301 0.13248637 0.08076527 3490428
0.9776969 0.13470453 0.079888307 3753857
0.94487029 0.075890929 0.087316357 2235161
0.94595045 0.07822153 0.087131575 2235420
0.94663298 0.080937982 0.087953575 2564119
0.95272982 0.092149556 0.08427085 1382433
0.95401502 0.09408772 0.084876738 1711145
0.95522094 0.096629232 0.085524864 1776941
0.95644659 0.099049628 0.085293524 1974320
0.9580369 0.10201815 0.084120385 1777458
0.95924407 0.10430127 0.084406547 1645873
0.96069509 0.10705778 0.084517434 1383212
0.9619472 0.10975903 0.084267959 1251879
0.96320713 0.11281013 0.084524266 1185573
0.96420723 0.11455169 0.084429607 1119783
0.96765858 0.12097752 0.082798012 2175580
0.96926916 0.12311265 0.082044549 2570607
0.97068393 0.12577021 0.081550106 3031686
0.97162449 0.12828115 0.081015527 3228555
0.97274405 0.13120589 0.080264747 3360141
0.97427487 0.1336188 0.079781137 3227521
0.9755109 0.13597786 0.078885145 3029365
0.9769547 0.13834748 0.077958547 2633573
0.9780786 0.14146823 0.076857448 1449022
0.97938728 0.14352602 0.076309621 1054253
0.94414294 0.078616142 0.08515048 2169630
0.94514298 0.081394672 0.085611142 2301466
0.94491422 0.084918618 0.084844679 2498330
0.95078778 0.092231542 0.083210342 1119003
0.95180655 0.094506949 0.083893381 1579298
0.95327979 0.097064018 0.08313667 2171438
0.95479941 0.099816769 0.082562342 2040634
0.95562923 0.10211921 0.08294256 1909302
0.95621276 0.10428724 0.083238304 1909559
0.97281092 0.13467428 0.078781158 2898817
0.97387826 0.13729924 0.07781776 2568558
0.97529089 0.13958824 0.077049285 2370402
0.97632396 0.14202714 0.075908303 1975127
0.97745442 0.14451715 0.075163722 1382464
0.97910178 0.14659628 0.074475594 724511
0.94296753 0.078784287 0.08356823 2103571
0.94295156 0.082208037 0.083579667 2169625
0.94776928 0.090105623 0.081080712 1381405
0.94864947 0.092337161 0.081728585 1644320
0.95024276 0.095161468 0.080791667 1842474
0.95134592 0.097902209 0.080750182 1777961
0.95258033 0.10038128 0.081315927 2106932
0.97453678 0.14297828 0.074391596 1778518
0.97651136 0.14518729 0.073620252 1580616
0.97699082 0.1479151 0.072948605 1119794
0.97862208 0.15010387 0.072738692 922137
0.94146138 0.080042779 0.081563734 3090208
0.94155103 0.0833413 0.082559712 2300692
0.94479752 0.08850503 0.079126164 2695450
0.94583428 0.090318322 0.079932891 2169882
0.9470185 0.093031108 0.079252973 2894369
0.9479354 0.095586956 0.078744844 1842978
0.94866514 0.09792462 0.079426438 1712430
0.97495413 0.14718658 0.072170496 1712454
0.97609115 0.1491926 0.071087398 1120308
0.97709846 0.15106216 0.070558161 922143
0.97783899 0.15357631 0.069396287 790551
0.98436284 0.16505837 0.065731138 10259323
0.98534971 0.16719988 0.065960065 10325116
0.98648578 0.1691412 0.065894663 10588031
0.94055074 0.083072603 0.078689948 3155737
0.93984956 0.085767001 0.077249281 3484697
0.94305968 0.089687645 0.078032427 2563861
0.94326049 0.090343654 0.077536389 1709595
0.94563156 0.094661623 0.077633969 5459781
0.94599235 0.095765471 0.07788147 4604983
0.98036563 0.16212386 0.065002136 5063229
0.9821654 0.16468343 0.065592088 9864818
0.98342389 0.16744119 0.065367587 10259065
0.98482573 0.16998887 0.064856298 10456443
0.98587263 0.17256007 0.064067759 10587516
0.94067848 0.089099646 0.075870305 2301203
0.9422304 0.09038049 0.075039491 1841179
0.97844046 0.16102371 0.063611642 4272952
0.97878546 0.16297257 0.064071067 5260092
0.98035938 0.16529217 0.063710608 9338215
0.98154485 0.16800773 0.063161485 10192499
0.98304015 0.17018649 0.063078806 10389623
0.98408204 0.1725108 0.063384891 10521208
0.93895262 0.088643819 0.072390802 3681821
0.93825662 0.090672225 0.071428515 4010532
0.93842977 0.092420518 0.069397897 3418653
0.93972117 0.094430685 0.068367563 2498321
0.9401933 0.097204775 0.068033583 2629662
0.93640554 0.092855036 0.067104705 5260086
0.93773603 0.095615268 0.066718191 3616285
0.93898422 0.098425776 0.066046625 2629652
0.93973845 0.10173708 0.066076182 2826783
0.93663543 0.096823364 0.066192925 4536877
0.93769383 0.099058926 0.06617409 3221528
0.93919778 0.10059807 0.065379322 2826529
0.9323281 0.11331326 0.047119476 4865072
0.93359083 0.11621633 0.047492087 4339992
0.93433744 0.11847901 0.047609769 2958866
0.93011993 0.11365548 0.046662107 5523514
0.93151182 0.11627731 0.046611421 5063728
0.93267643 0.11901575 0.046372235 3880477
0.93451858 0.12140921 0.045910552 1906453
0.93558735 0.12301701 0.04579448 1643289
0.92928445 0.11622584 0.046201319 6313026
0.93423486 0.12681049 0.043774478 1578264
0.96962398 0.093590796 0.10619205 4144451
0.97088873 0.094785422 0.10614484 4671050
0.97180617 0.097933531 0.10607179 4539208
0.97315609 0.10055113 0.10608514 4210243
0.97456503 0.10345909 0.10542605 3947074
0.97619963 0.10582882 0.10486637 3749440
0.97732711 0.10863021 0.10453526 3683904
0.97897184 0.1113207 0.10389652 3684417
0.98064739 0.1137208 0.10346951 3289144
0.98130172 0.11648557 0.10336454 3025715
0.96633154 0.09097904 0.10529557 2762796
0.96752948 0.093395203 0.10583914 3288886
0.96927696 0.096030772 0.10609142 3749694
0.97007823 0.099030524 0.10645985 3749440
0.97168934 0.10199943 0.10606078 3881280
0.97308075 0.10388291 0.10563165 3815488
0.97462916 0.1068832 0.10522473 3683904
0.9758575 0.1098772 0.10480718 3749956
0.97750437 0.11203119 0.10405166 3816007
0.9788599 0.11448008 0.10330478 3947850
0.97966671 0.11724761 0.10312784 4078926
0.981713 0.11960047 0.10213587 2565421
0.98241901 0.12223294 0.10083964 1775900
0.9830941 0.12502027 0.1002309 1248778
0.96209598 0.086238861 0.10323306 2368034
0.96317744 0.088797957 0.10407292 2368290
0.96418655 0.091063619 0.10493534 2565415
0.98235488 0.12634873 0.099733278 1380626
0.98287594 0.1279079 0.098719396 1840402
0.95869911 0.084106177 0.10192281 2368035
0.95958388 0.086248249 0.10266177 2368036
0.96071285 0.088098079 0.10339713 2368036
0.95603663 0.082396388 0.10035075 1841432
0.9566735 0.084124804 0.1011556 2039069
0.95343018 0.080471992 0.097520396 2038810
0.95365137 0.082111657 0.098837703 1841689
0.95075852 0.080470741 0.096309163 2235676
0.95132864 0.082469046 0.097494692 2104344
0.94873738 0.080153406 0.093093641 2695457
0.96386194 0.11003569 0.087810226 2370644
0.96498239 0.11246631 0.087575585 2700642
0.96637225 0.11485007 0.087162599 3161970
0.96732867 0.11698565 0.086660758 3359359
0.94828534 0.081782281 0.091133408 2695454
0.94724691 0.083827794 0.091065921 2629659
0.95669061 0.099969447 0.086973034 1251113
0.95793462 0.10255805 0.087172545 1316910
0.95912337 0.10501444 0.087216713 1514291
0.96048212 0.10777384 0.087276034 1711931
0.96182913 0.11050799 0.087144859 1909832
0.963112 0.11327001 0.086891755 2239575
0.96468037 0.11585936 0.086439684 2700646
0.96595079 0.11848271 0.085981891 3162232
0.96720499 0.12099501 0.085418619 3425409
0.96855074 0.1235812 0.084750742 3688328
0.96983224 0.12601155 0.083880514 3622536
0.97109717 0.12814888 0.083088525 3556741
0.94622827 0.084566057 0.088812768 2629659
0.9532873 0.097944289 0.085887767 1382187
0.95474803 0.10061023 0.086182289 1514027
0.95587206 0.10306954 0.086429201 1514027
0.95721602 0.10595647 0.086035982 1514286
0.95852941 0.10852814 0.085518658 1448748
0.96004301 0.11100677 0.084998056 1316903
0.96120256 0.11377031 0.084868222 1185316
0.96282738 0.11643383 0.084386222 1185579
0.96417779 0.11918584 0.083969444 1778761
0.96554053 0.12171277 0.083440036 2306141
0.966887 0.12435344 0.083192587 2899317
0.96820748 0.12702709 0.082746312 3294341
0.96971357 0.12961954 0.082075685 3359107
0.97093511 0.13196936 0.081129178 3095418
0.97217053 0.13428256 0.080152147 2765675
0.97386491 0.13762325 0.078940287 2435942
0.97627831 0.14041451 0.079680257 1646670
0.94539064 0.083100945 0.087126926 2498076
0.94517922 0.088152766 0.086720973 2629914
0.95025331 0.096019536 0.084160678 1250591
0.95130396 0.098421127 0.084835604 1645099
0.95260376 0.10108516 0.085050479 1908271
0.95416641 0.10397863 0.083644427 1908531
0.95520276 0.10616437 0.083915047 1777458
0.95634413 0.10906318 0.084072739 1580077
0.95780981 0.11174652 0.084013954 1383212
0.95953858 0.11497825 0.084039532 1185827
0.96382904 0.12242967 0.082650781 1976394
0.96576554 0.12636495 0.082234882 2637168
0.96644974 0.12768322 0.082024634 2966135
0.96746856 0.13024595 0.080717981 3163530
0.96923649 0.13283834 0.080212131 3030144
0.97056603 0.13555405 0.079232693 2568557
0.97187424 0.13800555 0.07838612 2238817
0.97328234 0.14035565 0.077503346 2041178
0.97454911 0.1425665 0.07641574 1909589
0.97571558 0.14494011 0.075546011 1843535
0.9432258 0.085437179 0.083885513 2301209
0.9435482 0.088556647 0.084088169 2498586
0.94728011 0.094150901 0.082315437 1184286
0.94811505 0.096296161 0.083017975 1381664
0.94946396 0.098902136 0.083002664 1645347
0.95080203 0.10176376 0.081877604 1909034
0.95205718 0.10403025 0.082431749 2040626
0.96766126 0.13437861 0.07871791 2636420
0.96859038 0.13664192 0.078096427 2241398
0.9700011 0.13877994 0.077032246 1976682
0.97139716 0.14127165 0.07643833 1843802
0.97284776 0.14375675 0.07549984 1712210
0.97426987 0.14607403 0.07456141 1580362
0.97558302 0.14873329 0.073450804 1448256
0.97653675 0.15105668 0.073047072 1119279
0.94151026 0.085790992 0.082803927 2235154
0.94215822 0.08912167 0.081823602 2367000
0.94370764 0.09178865 0.081065178 2301208
0.94509256 0.094259143 0.081182986 1841180
0.94609672 0.096716762 0.081402585 2301731
0.9478448 0.099508047 0.080219075 1645611
0.94867134 0.1016663 0.080789506 1581347
0.97004735 0.14286062 0.074739963 1778779
0.9709807 0.14509344 0.07414452 1646415
0.97231793 0.14736474 0.073269196 1711944
0.97350353 0.14977646 0.072272412 1645892
0.97478634 0.15180317 0.071376532 1579580
0.9760977 0.15345263 0.070231743 1119264
0.94072551 0.086351186 0.080195658 2498063
0.94247562 0.09002462 0.078957208 2629657
0.94225955 0.092254519 0.079036631 1972249
0.94324756 0.094694167 0.079176322 2630948
0.94489783 0.097568721 0.078115568 4670780
0.94560146 0.099608392 0.079062186 1908505
0.97169954 0.15065807 0.071037039 2238023
0.97302145 0.15315533 0.070290141 1908799
0.9745999 0.15554383 0.068797737 1908785
0.97515905 0.15726012 0.067505635 1317926
0.98152173 0.16852382 0.065608151 10325112
0.98291183 0.17107221 0.065467618 10456187
0.98442334 0.17375475 0.065231048 10653565
0.94155598 0.092041999 0.077198103 1906714
0.94222921 0.097879797 0.076037236 7760213
0.97254181 0.15650147 0.068024687 2171965
0.9729166 0.15951061 0.066231593 2566720
0.97778499 0.16444489 0.064378887 2103829
0.97867161 0.1665647 0.064264499 6903875
0.9793281 0.16943079 0.064542711 10126960
0.9810704 0.17194542 0.063950934 10455671
0.9824726 0.17439261 0.063969724 10521464
0.98358804 0.1772213 0.062986434 10586998
0.97584367 0.16507173 0.063204303 1774877
0.97654247 0.16727108 0.063270196 4863789
0.97812271 0.17033234 0.06279438 10455670
0.97951084 0.17266747 0.06304647 10455413
0.9808259 0.17605019 0.062850229 10520949
0.98188174 0.17701682 0.062716208 10586739
0.93930668 0.1037325 0.066836432 3023902
0.93571019 0.10030845 0.066750221 4800303
0.93701762 0.10286808 0.066571757 3681570
0.93814248 0.1051949 0.066509061 3024156
0.934017 0.12081563 0.04828614 2563344
0.92879146 0.11576977 0.046731904 5195068
0.92980301 0.11748067 0.046786875 5063481
0.93128026 0.12011218 0.047018111 4208423
0.93229985 0.12272131 0.046798229 3090708
0.93220162 0.1249406 0.046837047 2827020
0.92779869 0.11821482 0.046087131 5721666
0.92920303 0.12074947 0.0460812 4866354
0.93059504 0.12360379 0.046211965 3617313
0.93215394 0.12630525 0.045250148 2301204
0.96577317 0.095407397 0.10576338 2828591
0.96715778 0.097271323 0.10625989 3091764
0.96807486 0.099826336 0.10630631 3223095
0.96966857 0.10264838 0.10605092 3354937
0.97103953 0.10510454 0.10593472 3486525
0.97277856 0.1077103 0.10565651 3552577
0.97396082 0.11079478 0.10498153 3750473
0.97517419 0.11330521 0.10414992 4013389
0.97667617 0.1159676 0.10349155 4145235
0.97819549 0.11814117 0.10294352 4276821
0.97963864 0.12054744 0.10232247 4342358
0.98166144 0.12491417 0.10061081 1446944
0.96150571 0.090706319 0.10449395 2368037
0.96254516 0.092830807 0.10499129 2499622
0.96393567 0.095170647 0.10552302 2631210
0.96481967 0.097578764 0.10604791 2762798
0.96631366 0.10025078 0.10614076 2960177
0.96754509 0.10260734 0.10601673 3091762
0.97384119 0.11514321 0.10379399 4079954
0.97500652 0.11638683 0.10325521 4145492
0.97627771 0.11930397 0.10261335 4342874
0.97737575 0.12214714 0.10157911 4474462
0.97897452 0.12419662 0.10087558 4342615
0.98016351 0.12672836 0.1000271 3684424
0.98134989 0.12959749 0.099050574 3814459
0.98212969 0.13134134 0.09962488 5984585
0.95833522 0.088039249 0.10278182 2433830
0.95916343 0.090316236 0.1038433 2368294
0.96048093 0.09346652 0.1047307 2368294
0.97841191 0.12804011 0.099647038 4474464
0.97977996 0.13043663 0.098909907 4604247
0.98137999 0.13308692 0.097824581 6314336
0.98145723 0.13572955 0.096768901 5328229
0.95510155 0.085861266 0.10119572 1973276
0.95612943 0.088189453 0.10234216 2368034
0.95659858 0.090306401 0.10314047 2499622
0.98099518 0.13822109 0.09483403 3421496
0.95221663 0.084621459 0.099610686 1973021
0.95285445 0.086349905 0.10049608 1907227
0.94994289 0.084274352 0.09797252 2170139
0.95061374 0.086007982 0.099520437 2104605
0.94778693 0.084769666 0.095577426 2498589
0.95863628 0.10894766 0.087526344 1514556
0.96012944 0.11178523 0.087703355 1909324
0.96139389 0.11438239 0.087322034 2239321
0.96252686 0.11687902 0.086953767 2832492
0.96413302 0.11961511 0.086398385 3623043
0.96549326 0.1221374 0.085758418 4083347
0.95444715 0.10466498 0.086587302 1185318
0.95539892 0.10722718 0.08672592 1251116
0.95685935 0.1097261 0.086742848 1382964
0.95811826 0.11234817 0.086709037 1514811
0.95942575 0.1151323 0.086492598 1778504
0.96073431 0.11777407 0.086030267 2239837
0.96204627 0.1202713 0.085664093 2503018
0.96350533 0.12278819 0.08509931 2634606
0.96499157 0.12528574 0.084363662 3162239
0.96613467 0.12773705 0.08351694 3556742
0.96758902 0.13024297 0.082280248 2765933
0.96852767 0.13182497 0.081936359 2897525
0.94983917 0.10036886 0.085016727 1447720
0.95099866 0.10240278 0.085418291 1513515
0.95213377 0.10512248 0.085657351 1447977
0.95337903 0.10778299 0.08546219 1448234
0.95475465 0.1102868 0.085455492 1382701
0.95610207 0.1130732 0.084875509 1382958
0.95745504 0.11575207 0.084568083 1317162
0.95903939 0.11838385 0.084028475 1185833
0.96043169 0.12104133 0.083501339 1185586
0.9617331 0.12376001 0.08335042 1449027
0.96308696 0.12620309 0.083132744 1647186
0.96430075 0.12888926 0.082490802 2635118
0.96571422 0.13140145 0.081574485 3029879
0.96708864 0.13386485 0.080654591 2634347
0.96844667 0.13615188 0.07960064 2239328
0.96951717 0.1384322 0.078781046 2173020
0.94298065 0.091803312 0.083904997 2826783
0.94658107 0.098030925 0.083493583 1052956
0.94767141 0.10040382 0.083934098 1316386
0.94868064 0.10311601 0.08430022 1644840
0.95033157 0.10563055 0.08382982 1842736
0.95147073 0.10810098 0.083407976 1777199
0.9527626 0.11093304 0.08335685 1515050
0.95418119 0.11333069 0.083742671 1514533
0.95507091 0.11602923 0.083581127 1383212
0.9610635 0.12660924 0.082019784 922158
0.96276832 0.13038275 0.080905519 1646419
0.96366084 0.13240021 0.08054927 2766958
0.96532291 0.13507336 0.0796699 2635122
0.96676856 0.13755098 0.078675136 2173797
0.96806908 0.13992131 0.077774569 1975896
0.96967411 0.14221752 0.076831341 1843793
0.97105181 0.14387143 0.076141536 1843535
0.94205129 0.093081594 0.082295425 2432283
0.94342297 0.096074194 0.081341706 1972502
0.94440895 0.098322809 0.082230106 1775646
0.94536102 0.1010327 0.082386069 1513247
0.94725835 0.1035237 0.081716381 1711398
0.94835043 0.10618371 0.081908762 1843502
0.95008528 0.10953045 0.082258925 1778476
0.96459514 0.13823214 0.077918462 2110573
0.96664703 0.14089251 0.076519608 1845088
0.96751153 0.14348871 0.075636923 1712469
0.9691658 0.14561936 0.074802503 1646156
0.97055256 0.14825538 0.073544271 1514822
0.9714967 0.15023282 0.072704807 1514821
0.94122726 0.092786491 0.081509486 2563098
0.94162476 0.096267074 0.080532499 1709845
0.94218183 0.098790556 0.080880277 1907481
0.94395876 0.10121062 0.079589725 3815734
0.94497705 0.10390708 0.080370367 1514535
0.9458968 0.105959 0.080838725 1778224
0.96722293 0.14721155 0.073422141 1581133
0.96843219 0.14928359 0.072579786 1514566
0.96996629 0.1516057 0.071444444 1514307
0.97095156 0.15362513 0.070464939 1580093
0.97214431 0.15539202 0.069525793 1447984
0.93990445 0.09799239 0.079166695 1184274
0.94187391 0.10223961 0.07867232 4933453
0.96790785 0.15251869 0.070185825 1514819
0.96958065 0.15490434 0.069004223 1579834
0.97105265 0.15698802 0.068325639 1579573
0.97160256 0.1588797 0.066799402 2369855
0.97814226 0.17113921 0.064706706 10653304
0.97892189 0.17314297 0.065299951 10521975
0.98001021 0.17566964 0.065301307 10587771
0.98187149 0.17833543 0.065084137 10653820
0.96768808 0.15615377 0.067825772 1448506
0.96881402 0.15848193 0.067002222 1645623
0.97025138 0.16060436 0.065795466 1711667
0.97459608 0.16865411 0.063358694 2628378
0.97598267 0.1708765 0.064106382 8941648
0.9773584 0.17367613 0.06361454 10455413
0.97855616 0.17659861 0.06294512 10520947
0.9800055 0.17922944 0.062838234 10586997
0.96842986 0.16209149 0.064720981 1645364
0.96981174 0.1625044 0.06443423 1975095
0.97293383 0.16928792 0.062475212 2102814
0.97400475 0.17193606 0.062444218 8676938
0.97537255 0.17436188 0.062521338 10454901
0.97665191 0.17687172 0.0626233 10455413
0.97127271 0.17008778 0.061085969 1709604
0.97149324 0.17153314 0.061590806 1509907
0.93381608 0.1022011 0.066478208 5654843
0.93509215 0.10442525 0.066738814 4997168
0.93637902 0.10691306 0.066904821 4010789
0.93573493 0.10895756 0.067283221 4011046
0.93312705 0.10497779 0.066661879 5589050
0.93399972 0.10728908 0.066870779 5326132
0.92601633 0.11941528 0.046145424 5524553
0.92757076 0.12174466 0.046189018 4997690
0.92875707 0.12453303 0.046124585 4472110
0.92953062 0.12704113 0.045845717 3551773
0.93057799 0.13006374 0.045612156 1972497
0.93112177 0.13241649 0.045248069 1775643
0.92530847 0.12265393 0.04565841 5655881
0.92644918 0.12506229 0.045527279 4998203
0.92787772 0.12791753 0.045366406 4406316
0.92950082 0.12995705 0.045004897 3156756
0.93080801 0.13341877 0.044446871 1840922
0.96922004 0.10629043 0.1062592 3289146
0.97056293 0.10899404 0.10593959 3487300
0.97230303 0.11160767 0.10515933 3816268
0.96199733 0.097176015 0.10581315 2433832
0.96336257 0.099217147 0.10596595 2565421
0.96444046 0.10188627 0.10608957 2697005
0.96630287 0.1044921 0.10629994 2894384
0.96744603 0.10732922 0.1061912 3092025
0.96886557 0.10985392 0.10580682 3487044
0.97039855 0.11249495 0.1050342 3816268
0.97175407 0.11510965 0.10406884 4014163
0.97243023 0.11779982 0.10349205 4211544
0.97399414 0.12036937 0.1026187 4408666
0.97533381 0.1222111 0.1018829 4605789
0.97664213 0.12449843 0.10093317 4408928
0.97778243 0.12669539 0.1005827 4671580
0.95734727 0.091516107 0.10388635 2433832
0.95875061 0.09466359 0.10482236 2368038
0.96016288 0.096871912 0.10553455 2302502
0.96163028 0.099971086 0.10591196 2368295
0.9723947 0.12138245 0.10253208 4474460
0.97396159 0.12377611 0.10139557 4540254
0.97532409 0.1261588 0.10045404 4540255
0.97692674 0.12878689 0.099876449 4540254
0.97804421 0.13160545 0.099146314 4474461
0.97922665 0.13412669 0.098207332 4539738
0.98063922 0.13646373 0.097758025 3816002
0.95466763 0.090244234 0.10264989 2433569
0.95544434 0.092296481 0.10330031 2433574
0.95626503 0.094225764 0.1042737 2433831
0.97444075 0.12926963 0.099426515 4474722
0.97560334 0.13196373 0.098341338 4409449
0.97692561 0.13469458 0.097291335 4409450
0.97869176 0.13704878 0.096486554 3882844
0.98004967 0.13953385 0.095910363 2434616
0.9801178 0.14236715 0.095499747 2104868
0.95194972 0.088352561 0.10073205 1973020
0.9522233 0.090229869 0.10158104 1973019
0.95358396 0.092972964 0.1029141 2499362
0.9769454 0.13849813 0.095044188 4212073
0.97814786 0.14100233 0.093730807 3882333
0.97922593 0.14296612 0.093039781 2434359
0.97958755 0.14522862 0.092094868 1710110
0.94825459 0.086066484 0.098273993 2301467
0.94924754 0.087880284 0.099475399 2170139
0.94954157 0.090052575 0.10070026 2104605
0.97926468 0.14667282 0.091537848 1906719
0.94688451 0.086882681 0.097862758 2498846
0.94693637 0.088462293 0.098660901 2367260
0.94554371 0.087002099 0.096031621 2695709
0.95609629 0.11357903 0.086894758 1250621
0.95737672 0.11601233 0.086579189 1514044
0.95891243 0.118489 0.086354986 2107733
0.95975441 0.12080806 0.085858069 2108000
0.96150362 0.12379238 0.085054047 1777489
0.95196658 0.1094473 0.085630618 1185322
0.95313066 0.11163244 0.085888088 1185325
0.95440489 0.11423805 0.085929923 1251120
0.95557249 0.1168361 0.0857265 1383227
0.95708823 0.11948997 0.085404873 2173781
0.95841283 0.12223858 0.084772944 2173794
0.95982337 0.12466702 0.084177792 1910621
0.9614073 0.12717509 0.083491929 1778775
0.96263438 0.12990344 0.082650237 2041949
0.96350896 0.1320875 0.08199387 2633577
0.94631219 0.10250178 0.084058255 1184803
0.947312 0.10467997 0.084400825 1316389
0.94850725 0.10697833 0.084611155 1316392
0.94969839 0.10954797 0.084827982 1316392
0.95092428 0.11214429 0.084750272 1250858
0.95226467 0.11474833 0.084445417 1316649
0.95378447 0.11748919 0.084017582 1316906
0.95520496 0.12018752 0.083674073 1712444
0.95665413 0.12285632 0.083250545 1515329
0.9579308 0.12550554 0.082798176 1383748
0.95911843 0.12827885 0.082167283 1383491
0.96052462 0.13083595 0.081775717 1515339
0.96197045 0.13330859 0.081068143 1778000
0.96342593 0.13568369 0.080196433 2304603
0.96464026 0.13799632 0.079155296 2173016
0.9658891 0.14027557 0.078056216 2041170
0.94331115 0.10016951 0.082855582 1118487
0.94422388 0.10244808 0.082989357 1118747
0.94501126 0.10494134 0.083336666 1250592
0.94629002 0.10767168 0.083224744 1579301
0.94805562 0.11006549 0.082932264 1645611
0.94908851 0.11290985 0.082598291 1645866
0.95043367 0.11536539 0.082724385 1514536
0.95188153 0.11822915 0.082892574 1382439
0.95334458 0.12132722 0.082285315 1382697
0.95464504 0.12401983 0.081996098 1053992
0.95580089 0.12675238 0.081011653 1053738
0.95707983 0.1284025 0.080656044 1053739
0.95880699 0.13143188 0.08041805 922404
0.96025997 0.13446665 0.07974638 1053487
0.96161264 0.13678378 0.079150453 1712464
0.96298122 0.1391499 0.078355744 2107479
0.96438575 0.14161429 0.077300228 1975378
0.96556497 0.14397535 0.07609266 1777997
0.96678096 0.1457921 0.075355507 1777736
0.94007695 0.098063737 0.081244595 1906453
0.94082892 0.10057288 0.081111774 1512472
0.94187289 0.1027481 0.081562355 1118491
0.94317126 0.10552078 0.081237331 1447969
0.94453943 0.10811469 0.080763929 1645860
0.94573516 0.11078152 0.081296802 1777452
0.94675428 0.11321169 0.081300825 1777970
0.96134979 0.13998774 0.077175312 1909849
0.96247584 0.14272749 0.075987086 1910103
0.96379787 0.14518598 0.07507278 1712207
0.96512282 0.14743111 0.07394404 1580617
0.96692443 0.14968461 0.07258188 1580357
0.93902969 0.10097849 0.07993374 1775638
0.94005919 0.10354781 0.079493999 2433836
0.9412443 0.10604545 0.079319991 921889
0.94253898 0.10823163 0.079879485 1777180
0.96248281 0.14677361 0.073586114 1646935
0.96345919 0.14904848 0.072952323 1580358
0.96509069 0.15089989 0.071719855 1448773
0.96623623 0.15286043 0.07075718 1382977
0.96755558 0.15521899 0.06991642 1580098
0.97887814 0.1774126 0.065411083 10719356
0.9799664 0.17995119 0.065249339 10587768
0.9368121 0.10159406 0.078842476 1446682
0.9387939 0.10474238 0.077682123 5788762
0.93935907 0.10575572 0.078264698 2632000
0.96307707 0.15163961 0.070712745 1251912
0.96458137 0.15445915 0.069564566 1317182
0.96593237 0.15649855 0.068101071 1316665
0.96694469 0.15837461 0.06730897 1382453
0.97399431 0.17247733 0.064805351 8283972
0.9750883 0.17505345 0.065498605 10521465
0.97668862 0.17761087 0.065542154 10521975
0.96398425 0.15802631 0.067335032 1185078
0.96529508 0.16001442 0.066098936 1251122
0.96704489 0.16192716 0.064795576 1448498
0.96745145 0.16410804 0.063954107 1382450
0.97086871 0.17100614 0.063626647 2038305
0.97208536 0.17306477 0.06404978 7230517
0.97339684 0.17579356 0.062571131 10585969
0.97490919 0.17786554 0.062825575 10323823
0.96477562 0.16360059 0.06347993 1185323
0.96591955 0.1659376 0.062948897 987936
0.96924877 0.17159158 0.061965741 2038568
0.97054338 0.17363623 0.061554633 5979427
0.97168779 0.17613435 0.062178448 10454129
0.9683463 0.1735675 0.060538024 1641486
0.93115222 0.10628423 0.066428691 5918014
0.93274879 0.10865933 0.066824891 5457463
0.93333685 0.11150849 0.066625528 4800047
0.934991 0.11395463 0.067226894 3813405
0.9308356 0.10959846 0.066415086 5786172
0.93026304 0.13442868 0.046151467 1775388
0.92493451 0.1266852 0.04554189 5261380
0.92621857 0.12935981 0.045549922 4472115
0.92725658 0.13185555 0.045513891 3814436
0.92859882 0.13409531 0.045343652 2564373
0.92437989 0.12966222 0.045380615 5130302
0.92586356 0.13286105 0.045192547 4603440
0.96427292 0.10569629 0.10635237 2631214
0.96533412 0.10841998 0.10619266 2829109
0.96688652 0.11101133 0.10555328 3290179
0.96772313 0.11318302 0.10530413 3684939
0.96947426 0.11603716 0.10428374 3948372
0.97114903 0.11877236 0.10387477 4342617
0.95728338 0.095843166 0.1051244 2368036
0.95880556 0.098270983 0.10550138 2236709
0.95963788 0.10089892 0.10565317 2236709
0.9609139 0.10373944 0.10594657 2302503
0.96263146 0.10649893 0.10614929 2433834
0.96337646 0.10905379 0.10593623 2631473
0.9648779 0.11157402 0.10557727 3092287
0.96613568 0.11413297 0.10520247 3553611
0.96760035 0.11719346 0.10432892 3882837
0.96911824 0.11941269 0.10369842 4211545
0.97020388 0.12180984 0.10255314 4408925
0.97150606 0.12475005 0.10155681 4540254
0.97301018 0.12749714 0.10088157 4540251
0.97483468 0.12980446 0.10031575 4408665
0.97549182 0.13204294 0.099544972 4277336
0.95439285 0.094163746 0.10373739 2499367
0.9552204 0.096284181 0.10438646 2433574
0.95606053 0.09885329 0.10493279 2302247
0.95765305 0.10154238 0.10519898 2236453
0.96860027 0.12273747 0.10224773 4540762
0.9698655 0.12514612 0.10149035 4474720
0.97124577 0.12793571 0.10064206 4408670
0.97296739 0.13069144 0.099654816 4277597
0.97427177 0.13340846 0.098623045 4146012
0.97538829 0.13572928 0.097920366 4014424
0.97710866 0.13801399 0.096939355 3948633
0.97862399 0.14034015 0.096597537 3158600
0.9505707 0.091974795 0.10183228 2038556
0.95179534 0.094431251 0.10282817 2236192
0.95283568 0.096826017 0.10370862 2499367
0.97122216 0.13259032 0.098357156 4211294
0.97226977 0.1338757 0.097339556 4146016
0.97355527 0.13664123 0.096317954 4014428
0.97501355 0.13914257 0.095342644 3817306
0.97632074 0.14184698 0.094792783 3553876
0.97805297 0.14431012 0.094808154 2697790
0.97769082 0.14683139 0.094782315 2302778
0.94841301 0.089840412 0.099978216 2170141
0.94857639 0.092104852 0.10125376 2104349
0.94948757 0.094297588 0.10216889 1973277
0.97329974 0.1401971 0.094308555 3751001
0.97499388 0.14274633 0.092973903 3619927
0.97576201 0.14488766 0.09279643 3422034
0.97752815 0.14771643 0.091360219 2236983
0.97865826 0.14926541 0.090837546 2102564
0.94529629 0.088162333 0.097864009 2761502
0.94568938 0.090349138 0.098674014 2498589
0.94646746 0.092145443 0.10025065 2235931
0.97436351 0.1467171 0.090848051 3158607
0.97523487 0.14834034 0.090781853 3092556
0.97652894 0.15075523 0.090537168 2105139
0.94379634 0.089442194 0.097796515 2827038
0.9494462 0.11335376 0.084847622 1053479
0.95078766 0.11603528 0.084911667 1053481
0.95219755 0.11864948 0.084865481 1119278
0.95335221 0.12122121 0.084469765 1910603
0.95478988 0.12367088 0.083954006 2832495
0.9562425 0.12618753 0.083223842 2239846
0.95733017 0.128874 0.08250007 1582170
0.95887899 0.13168353 0.081856042 1712982
0.96012932 0.13394719 0.081466965 1712467
0.94489336 0.10868868 0.083450511 1184802
0.94623309 0.11131218 0.08370515 1184805
0.94724631 0.11406592 0.083866209 1184808
0.94854259 0.1167739 0.083592087 1185064
0.94995189 0.11925825 0.083513424 1184809
0.95143241 0.12191361 0.083153144 1316912
0.95279157 0.12469745 0.082624264 1844293
0.95398915 0.12742695 0.081981756 1976663
0.95569319 0.12976038 0.081343777 1581393
0.9570092 0.13235107 0.080867328 1317960
0.95837587 0.13513947 0.080244377 1449029
0.9598552 0.13749221 0.079595044 1449030
0.96084535 0.13996607 0.078671925 1711686
0.96228617 0.14266545 0.077510349 1908552
0.94033617 0.10483998 0.081410512 987155
0.94175971 0.10669497 0.082227625 987166
0.94296908 0.10939959 0.082489759 1250336
0.94404459 0.11217174 0.08234676 1316646
0.94540393 0.11472493 0.081919119 1448233
0.9466188 0.11747384 0.081586629 1448229
0.94799984 0.12026843 0.081303455 1382182
0.94936472 0.12305376 0.081189193 1316645
0.95068502 0.12563372 0.080892831 1250852
0.9520669 0.1282692 0.080748513 1317166
0.95376241 0.13099584 0.080174148 1317181
0.95496744 0.13353372 0.079555593 1054006
0.95643038 0.13606548 0.079106882 1054000
0.95790529 0.13853368 0.078385316 1185588
0.95912361 0.14112145 0.07745485 1317179
0.96037817 0.14343992 0.076691628 1645890
0.96174645 0.14561275 0.075683013 1777219
0.93792444 0.1021446 0.080563687 1578007
0.93859124 0.10475755 0.080413572 1118238
0.93946439 0.10741159 0.080600142 1052955
0.94089723 0.10984594 0.080322199 1513503
0.94233072 0.11238423 0.080266535 1580068
0.94322991 0.11536631 0.080248728 1580070
0.94410241 0.11742294 0.080524564 1381929
0.95519888 0.13788652 0.077278018 659482
0.9562785 0.13943511 0.07694523 988188
0.95700824 0.14190623 0.075856648 1251107
0.95861542 0.14454508 0.075343058 1448500
0.96019316 0.14694437 0.074482024 1514557
0.96158016 0.1489417 0.073516108 1580096
0.96276462 0.15132889 0.07202895 1645636
0.93584907 0.10279408 0.078772843 1906970
0.93635011 0.10517955 0.079536073 1512477
0.93790555 0.10775343 0.078967161 2170658
0.93865418 0.11083317 0.07845208 1447966
0.94007903 0.11321887 0.078885429 1777697
0.9559021 0.14323169 0.074553095 1119516
0.95697987 0.1462892 0.073687471 1251106
0.95847148 0.14796382 0.073107593 1317427
0.95995486 0.15029532 0.072100252 1448508
0.96130478 0.15250459 0.070975281 1316927
0.96249282 0.15451384 0.070067167 1382717
0.97389579 0.17754278 0.065709159 10324340
0.97515786 0.17900467 0.0659016 10324341
0.93387604 0.1041871 0.077697605 1643291
0.95870161 0.15186703 0.070742525 1383222
0.95946312 0.15390068 0.069846801 1251124
0.96062851 0.15607524 0.068795145 1250615
0.96218508 0.15815327 0.067412011 1184821
0.96295464 0.16029906 0.066104896 1053488
0.97010183 0.17425042 0.064926028 7953975
0.97186482 0.17683554 0.065455757 10257779
0.95921928 0.15732628 0.067415498 1119282
0.96041942 0.15952244 0.06613297 988207
0.96134305 0.1621348 0.064725116 1053744
0.96348691 0.16410318 0.06368462 1053993
0.96295863 0.16690925 0.06368579 1382444
0.96706122 0.1727201 0.063289717 2038302
0.96880573 0.17501792 0.063278787 7558959
0.9594202 0.16297102 0.063864045 921646
0.96136916 0.16511881 0.062768467 1053481
0.96322906 0.16612041 0.062830076 1251627
0.96540833 0.1736843 0.060841255 1971740
0.96679014 0.17537075 0.061309464 5453085
0.93201852 0.11339417 0.067488022 4734000
0.93335068 0.11578792 0.067817442 4207656
0.93448776 0.11783618 0.067624822 3287066
0.93458587 0.12059736 0.066961192 2563863
0.93022931 0.11307847 0.066760257 5326137
0.93132722 0.11586615 0.066368848 4997172
0.93130136 0.11861667 0.065613575 4866096
0.92819214 0.1141485 0.065650523 5983554
0.92437124 0.1310395 0.046038188 4208451
0.92571533 0.13289526 0.045875855 3814192
0.92701006 0.13527447 0.046015367 3222301
0.92771018 0.13734037 0.04575444 1971734
0.92236102 0.13095441 0.045333035 5787987
0.92379045 0.1336453 0.045503013 5130308
0.92499828 0.13672271 0.045327209 3551276
0.92643648 0.13766629 0.045793571 2695703
0.95945406 0.10603762 0.10618757 2170917
0.96058846 0.10756284 0.10606465 2236711
0.96172976 0.11024821 0.10574686 2433836
0.96316111 0.11318392 0.10587937 3027011
0.96443468 0.11562365 0.10497026 3356752
0.96577615 0.11791757 0.10431894 3619670
0.96713114 0.12032947 0.10353424 4014683
0.95501095 0.10063443 0.10458187 2302246
0.95623952 0.10289329 0.10497823 2170917
0.95711708 0.10537308 0.10529555 2105124
0.95805538 0.10817844 0.10547737 2104868
0.95950246 0.11072439 0.10558665 2170661
0.96117091 0.11349061 0.10535165 2697530
0.96239698 0.11648807 0.1047896 3225938
0.96371228 0.1191546 0.10375808 3027793
0.96534956 0.12139457 0.10308266 3422293
0.96661103 0.12397829 0.10243893 4080475
0.96784794 0.12665957 0.10170247 4474461
0.9691695 0.12925893 0.10083336 4408409
0.97084343 0.13138711 0.10013926 4211287
0.95184225 0.097851723 0.10339953 2368294
0.95268655 0.1004633 0.10363939 2368040
0.9534027 0.10350838 0.10406684 2236709
0.95489264 0.10500407 0.10484008 2236452
0.96771014 0.13033959 0.10028372 4277081
0.96910655 0.13268682 0.099053383 4079958
0.97019112 0.13495767 0.098032951 3882577
0.9716903 0.13746119 0.09688703 3685199
0.97286665 0.13944709 0.096043736 3619409
0.94777393 0.093890637 0.10153218 2104604
0.9483915 0.095982879 0.10203356 2038813
0.94901115 0.098729759 0.10231557 2170401
0.95047694 0.10130751 0.10272703 2433575
0.96854889 0.13614553 0.096726879 3816786
0.9699105 0.13864568 0.095732577 3619408
0.97137189 0.14121869 0.095074169 3421773
0.97302932 0.14284334 0.094221883 3356239
0.97444987 0.14585701 0.093889929 3158605
0.9761014 0.14821517 0.093411289 2828868
0.94416338 0.092193544 0.099475205 2761500
0.94495058 0.094005048 0.10004309 2367003
0.94548535 0.096614748 0.10081884 2038554
0.96955907 0.14186651 0.093790367 3356237
0.97068292 0.14453691 0.092708036 3158603
0.97234762 0.14708993 0.091778107 3092555
0.97397286 0.14928994 0.091201335 2895176
0.97492796 0.1517379 0.090346538 2697536
0.94322813 0.095221668 0.099008508 2630173
0.96933448 0.14638337 0.090939768 3092294
0.97011018 0.14778441 0.090119138 3026760
0.97145271 0.15005159 0.089915238 2894919
0.97297275 0.15298349 0.088770986 2763586
0.97414607 0.15490788 0.088271804 2565945
0.94147474 0.097173631 0.096979119 2629665
0.97020912 0.15175366 0.088216655 2829125
0.97103834 0.15348631 0.087865859 2763331
0.97168636 0.15632349 0.08653865 2631743
0.9733656 0.15739173 0.086750768 2368565
0.94699097 0.11801228 0.083453678 921896
0.94840974 0.12042773 0.083559543 987430
0.94976258 0.12294477 0.08330027 987693
0.95105088 0.12570956 0.082728855 1647436
0.95201796 0.12803277 0.082197659 2306153
0.95364845 0.13103509 0.081714191 1713764
0.94253671 0.11329466 0.082466982 1053219
0.94401258 0.1156725 0.082635 1053480
0.9451555 0.11842453 0.082531497 1053224
0.94640982 0.12116393 0.082578652 1052968
0.94771773 0.12386507 0.082168669 987430
0.94922709 0.12653872 0.081639245 1119276
0.95027566 0.12906587 0.081179246 1515074
0.95192844 0.13145152 0.080564231 1646926
0.95349228 0.13401911 0.079898268 1317706
0.9546262 0.13656548 0.079165034 1054525
0.9559654 0.13929778 0.078365795 1185598
0.95735919 0.14184907 0.077404477 1251382
0.93815374 0.10942554 0.080704361 1118486
0.93961412 0.11114082 0.081359595 1052697
0.94029921 0.11381814 0.081404448 1119005
0.94178295 0.11647776 0.081208371 1250598
