# .PCD v0.7 - Point Cloud Data file format
VERSION 0.7
FIELDS x y z rgba
SIZE 4 4 4 4
TYPE F F F U
COUNT 1 1 1 1
WIDTH 1173
HEIGHT 1
VIEWPOINT 0 0 0 1 0 0 0
POINTS 1173
DATA ascii
1.7263339 0.27867338 0.047595117 11514290
1.7287768 0.28245649 0.049468301 10857639
1.7301077 0.28527841 0.049541701 10659492
1.7319661 0.28747898 0.048884846 10856101
1.7333007 0.29076931 0.049009569 10132638
1.7346085 0.29401714 0.04913443 8092540
1.7243023 0.27922478 0.047568019 11646132
1.7246692 0.28029266 0.048425492 11580337
1.727017 0.28230813 0.047925387 11251372
1.7279001 0.28664291 0.04861629 11053479
1.7299032 0.28810874 0.048930984 10987686
1.7311068 0.2908912 0.048519712 10330014
1.7679279 0.30095822 0.075190417 858394
1.7691385 0.30177939 0.076604374 1052951
1.7704728 0.30526358 0.075317644 857108
1.7650658 0.29894364 0.073219225 1317148
1.7661622 0.30154589 0.073618643 1120541
1.7679114 0.30378592 0.072049417 1778473
1.7691183 0.30558869 0.073140405 1580584
1.7583749 0.29263204 0.069925971 1580077
1.7593645 0.29499552 0.071282685 1514797
1.7607598 0.29745123 0.072038017 1711651
1.7631015 0.299887 0.071904689 1448736
1.7655352 0.30266979 0.072497025 1120027
1.7713085 0.31520823 0.072757244 1120801
1.754743 0.29193816 0.069044083 1514523
1.7563483 0.29356822 0.069715083 1645861
1.7576194 0.29615685 0.069764659 1842723
1.7593236 0.29793689 0.070208736 1974306
1.7605865 0.30109411 0.069661081 1449253
1.7613208 0.30409774 0.070189826 1120029
1.7639158 0.30619532 0.069435373 856857
1.7508363 0.29039803 0.066996381 1382683
1.7528679 0.29224417 0.068022117 1645343
1.7544309 0.29377541 0.067834042 1579809
1.7564263 0.29762051 0.067540377 1777444
1.7572374 0.2998237 0.067838632 1449765
1.7591436 0.30132547 0.067821197 1317673
1.7459098 0.2857556 0.065070532 1317148
1.747676 0.28852233 0.065266095 1448985
1.7497271 0.29020604 0.065652125 1514520
1.7513558 0.29217765 0.066332214 1645599
1.7525241 0.29634297 0.065241054 1448739
1.7544084 0.29750302 0.066120051 1580840
1.7429504 0.28456599 0.063460641 1053983
1.7449487 0.28714231 0.063956164 1777189
1.7455664 0.28898069 0.063544698 1842716
1.7475985 0.29276237 0.062684119 1449246
1.7487413 0.29449946 0.063595928 1514532
1.7504351 0.29588959 0.064205825 1383205
1.751933 0.29825252 0.062255025 1909046
1.8000009 0.37469909 0.062609233 5858951
1.7400243 0.28507966 0.061363585 395789
1.7426852 0.28845033 0.061129812 2106403
1.7436185 0.29022536 0.061474092 1316894
1.7457459 0.29265961 0.06187569 1252131
1.7462143 0.2946184 0.062801972 1185821
1.7489201 0.29798183 0.061380845 1777960
1.7951041 0.37313926 0.060337991 5597316
1.7976106 0.37488151 0.060641155 5596550
1.7994417 0.3805683 0.060123313 5268102
1.8008001 0.38266817 0.060507264 5662083
1.7379625 0.28450876 0.058567826 6512470
1.7388587 0.28650287 0.059071478 3289905
1.7405142 0.28923404 0.059470806 1777442
1.7424194 0.29082778 0.059919782 1251881
1.7434772 0.29377979 0.060241964 1514538
1.7460494 0.29589099 0.059258509 1711653
1.7859339 0.36128867 0.058365662 2832961
1.7865098 0.36340228 0.058740895 4082520
1.7885599 0.36580324 0.059072107 4938080
1.7896876 0.36819854 0.059239712 4150363
1.7909629 0.36993676 0.058599282 4150373
1.7925664 0.37308416 0.058724053 4609906
1.7944297 0.37606207 0.058199931 5531526
1.7963743 0.37759677 0.059461415 5465734
1.7976187 0.3807869 0.058894869 5333630
1.7989454 0.38371989 0.0592173 5333375
1.8009986 0.38640052 0.059291847 5991302
1.8017863 0.38784266 0.059915993 7305103
1.730135 0.27539474 0.05681539 11185320
1.731262 0.27802911 0.056733921 11185574
1.7325435 0.27954939 0.056908909 10921890
1.7345821 0.28257999 0.056839872 10592923
1.7355242 0.28487942 0.057650641 7696997
1.7372932 0.28799078 0.05733496 5067074
1.7382035 0.2898193 0.058096256 1317395
1.7407893 0.29355747 0.057692215 1712167
1.7412101 0.2944136 0.057128426 1842981
1.7819674 0.3579779 0.05645382 1184775
1.7830338 0.36115998 0.05673885 1448984
1.7850665 0.36400002 0.057757325 2305582
1.7864176 0.36690798 0.058115847 2371891
1.7891442 0.37114879 0.057475097 3951451
1.7908063 0.37434408 0.05771083 4806756
1.7927276 0.37731084 0.05806911 5530747
1.7935561 0.37885654 0.058306966 5530238
1.7960833 0.38191345 0.05764401 4807024
1.7973553 0.38471276 0.057591695 5398904
1.798874 0.38794786 0.057765801 5793417
1.8010191 0.39064071 0.056585062 6450824
1.8015414 0.39186797 0.058077186 7042699
1.7273511 0.27613571 0.055820659 11119527
1.7292262 0.27845401 0.055595893 10856611
1.7307625 0.2809163 0.055543534 10987940
1.7319425 0.28348592 0.055605687 10527388
1.7337118 0.28621313 0.055370733 9605762
1.7352809 0.28815174 0.055999029 8224620
1.7365187 0.29178563 0.054688133 1580582
1.7384896 0.2937758 0.055524524 1515556
1.7829741 0.36629 0.05516528 1120029
1.7873157 0.37312695 0.053948209 593169
1.7888774 0.37433854 0.055334374 1911589
1.7904468 0.3776601 0.055628803 1981225
1.7920558 0.38054478 0.055418022 2571577
1.7939295 0.38346204 0.055399463 3163475
1.7955372 0.38493726 0.055739488 3424857
1.7959721 0.38823551 0.056107007 5398116
1.7985839 0.39144051 0.05574492 5859459
1.7994933 0.39381623 0.054857969 6254474
1.8021624 0.39628097 0.05500441 7636634
1.7264731 0.27783075 0.052952215 11448741
1.7274114 0.27998596 0.053864542 11316901
1.728605 0.28280485 0.054108761 11119521
1.7306069 0.28516018 0.053278111 10724509
1.7316495 0.28759724 0.053611316 9343366
1.7330378 0.28962433 0.052699633 6646118
1.7350209 0.29261404 0.05340679 2501676
1.7359031 0.29369599 0.055418037 529686
1.7859412 0.37385991 0.054008678 856599
1.7883568 0.37989208 0.054326981 2437676
1.7903458 0.38336515 0.054468658 594709
1.7950256 0.39017013 0.053805713 1844263
1.7969134 0.3938823 0.053955358 3951970
1.8001657 0.39692789 0.0547539 7306374
1.7236503 0.27824876 0.051278319 11186605
1.7259784 0.2812888 0.050535362 11055021
1.7264409 0.28299189 0.050647054 11055278
1.7283833 0.28599462 0.050977804 10462626
1.7303815 0.28805214 0.051673699 10001815
1.7310197 0.29059815 0.052409004 7237988
1.7328956 0.29353777 0.051836558 5921867
1.7346445 0.29487973 0.050989766 4672069
1.7931677 0.39031875 0.053021923 1842726
1.7203928 0.27658996 0.049594726 11252660
1.7214446 0.27846798 0.049914073 11317164
1.7231725 0.28176954 0.050002176 11186863
1.7245393 0.28416625 0.049123857 10988456
1.7259325 0.28655195 0.04997474 10660262
1.7279241 0.28874511 0.048903793 10856356
1.7298781 0.29182842 0.049003769 10066842
1.7311934 0.29511112 0.049117327 7830393
1.719147 0.27794737 0.048566028 11449009
1.7206296 0.28149825 0.048407879 11514542
1.725945 0.28938162 0.048876602 10790818
1.727585 0.29348135 0.048369873 10001045
1.7295486 0.29444188 0.048286926 9935509
1.7706525 0.30268776 0.078623094 593174
1.7672273 0.30198225 0.076955743 1385243
1.7681441 0.30351007 0.078157298 1382944
1.7689222 0.30622485 0.076626755 528408
1.77025 0.30834457 0.077590108 789527
1.7604321 0.29912958 0.07613869 1646642
1.7630415 0.3001352 0.075403035 1317415
1.764514 0.30226761 0.075625516 1252126
1.7668202 0.30474621 0.075917035 987932
1.7676722 0.30707639 0.07659097 921620
1.769127 0.30919495 0.076700896 725013
1.7706026 0.31159341 0.076213986 922136
1.7717419 0.31412205 0.076012276 987422
1.7570403 0.29440358 0.07318946 1449504
1.7583697 0.29649249 0.073998839 1515044
1.759935 0.29824409 0.074289598 1580326
1.7616822 0.3011983 0.07365983 1646115
1.762695 0.30327374 0.07439708 1514011
1.7648561 0.30662161 0.075143777 1513760
1.7681839 0.31490919 0.073988892 987682
1.7700375 0.3167797 0.073443733 922911
1.7712638 0.31782582 0.074578486 989717
1.7513506 0.29310071 0.071940608 1382700
1.7546109 0.294875 0.071458124 1514016
1.7562921 0.29672003 0.07198558 1711908
1.7578679 0.2996012 0.071907319 2040103
1.7593608 0.30241168 0.071379021 1514539
1.7601554 0.30446798 0.071545295 1185575
1.7491606 0.29141781 0.069377638 1513761
1.7511047 0.2927337 0.069704451 1579810
1.7531338 0.2950421 0.070101723 1776675
1.7547541 0.29809389 0.069700442 1646625
1.7555945 0.30098483 0.070067741 1318172
1.7576805 0.30199975 0.070531279 1185584
1.7451779 0.28726935 0.066799134 1382432
1.7457334 0.28948745 0.067334384 1645088
1.747823 0.29122433 0.067630284 1251610
1.7492417 0.29325414 0.068777017 1382937
1.7504954 0.29685587 0.06701763 1581096
1.7521125 0.29904401 0.068222627 1647142
1.754305 0.30026203 0.067839757 1186594
1.7425866 0.28791547 0.06553667 1382435
1.7442071 0.29030615 0.066015631 1447963
1.7459205 0.29221961 0.067011327 1053717
1.7471982 0.29591534 0.065872155 1448740
1.7490777 0.29726142 0.066011742 1777192
1.7392067 0.28684247 0.063184865 922406
1.7406762 0.2888855 0.064106338 1316892
1.7420684 0.29065901 0.064165331 1382432
1.7438676 0.29426283 0.063157119 1054767
1.7452333 0.29591292 0.06387423 1448489
1.7463648 0.2980538 0.063287884 1712675
1.7371064 0.2875348 0.061647456 1252387
1.738982 0.2899307 0.061610308 1382681
1.7405906 0.2927919 0.061165705 1054506
1.7420688 0.29462832 0.061698224 1317162
1.743597 0.29698893 0.061931029 2040108
1.7869899 0.36757597 0.060079098 3819841
1.7938399 0.37838936 0.059915926 5465730
1.7976497 0.38532385 0.061230794 5397076
1.7999129 0.38878334 0.060572777 6516873
1.8022445 0.39216238 0.060984146 9540768
1.7323793 0.28482702 0.058337312 9671824
1.7334393 0.28640711 0.059535123 7040362
1.7355078 0.28866488 0.059355862 2895917
1.7370778 0.29114938 0.05964582 1251866
1.7389367 0.29303157 0.060238868 1185828
1.7400324 0.29616567 0.060138676 1645871
1.7824146 0.36511406 0.059454396 1053973
1.7857732 0.36856392 0.060139202 2437420
1.7845931 0.36946946 0.059382692 726546
1.787825 0.37211359 0.058794241 3754308
1.7894893 0.37496391 0.058439374 4542560
1.7918139 0.37870032 0.058716413 6252927
1.792879 0.38109857 0.058656134 5597317
1.7939665 0.38360119 0.058880139 2700344
1.7957418 0.38495311 0.059094168 4478309
1.7973305 0.38801268 0.059899475 5333106
1.7978935 0.39086258 0.059850685 6910854
1.7999705 0.3932783 0.059616942 8422798
1.801832 0.39555091 0.059242532 9541788
1.8027196 0.39820138 0.059900746 10264997
1.7257996 0.27729246 0.056431923 10922403
1.7269804 0.27899212 0.056531139 11053734
1.7287046 0.28200281 0.056826096 10790047
1.7301289 0.28457192 0.0574647 10198679
1.7321752 0.28743225 0.057661198 7895657
1.7336 0.29014954 0.057664208 3817013
1.7354119 0.29222095 0.058272008 1448734
1.7368864 0.29536331 0.056785308 1909284
1.7375301 0.29675007 0.057863604 1712423
1.7811347 0.3651996 0.05881511 1119513
1.7834705 0.37033889 0.058552701 1252633
1.7855211 0.37330255 0.057833303 1056538
1.786689 0.37587231 0.057702113 1516831
1.7890624 0.37834308 0.057510678 3359812
1.790686 0.38113034 0.057120711 5003602
1.7918469 0.38436177 0.057432964 3885397
1.7937181 0.38650471 0.057713345 5859188
1.7954881 0.38957638 0.057705995 5793144
1.7963865 0.39231724 0.057251148 5462626
1.7978719 0.39425278 0.057953667 6844808
1.7998315 0.39699766 0.057427265 7700621
1.8007466 0.3985725 0.05795056 7963792
1.8025432 0.40106526 0.056829561 10791080
1.804162 0.40416032 0.057023484 11119530
1.7239752 0.27852815 0.055620838 11119783
1.7254918 0.28117365 0.055584453 11053988
1.7266518 0.28301677 0.056025475 10790561
1.7286553 0.28543025 0.055562954 10395805
1.7296321 0.28807479 0.055669069 9277318
1.7313596 0.29079616 0.055868797 5527883
1.733444 0.29364902 0.055051688 2041130
1.734176 0.29535377 0.056180514 3026991
1.783677 0.37608722 0.056250773 791565
1.7880952 0.38076031 0.055060171 923935
1.7890855 0.38379338 0.055085383 1253401
1.7899171 0.38504341 0.055594582 1910561
1.7909755 0.38779926 0.056160688 4213316
1.7933027 0.39026886 0.055740844 3556413
1.7938539 0.39213341 0.056218233 1844270
1.7967997 0.39530659 0.054942016 4675180
1.7985257 0.3983745 0.055120111 6253925
1.7996947 0.40151218 0.055212166 7964016
1.8046535 0.40767711 0.05657962 10922925
1.7202133 0.27631593 0.054242276 10922151
1.7217267 0.2794174 0.054295056 11382698
1.7234209 0.28170142 0.054545 11382953
1.7255305 0.28388405 0.054162342 11382441
1.7270263 0.28719091 0.053588558 10133144
1.7281657 0.28974971 0.053951103 7962235
1.7303926 0.29192778 0.053004261 5001820
1.7314053 0.29496458 0.053754095 2501669
1.7860693 0.38107103 0.053860657 1250067
1.7873538 0.38427371 0.053171605 791580
1.7875937 0.38636041 0.053840805 594713
1.7917385 0.39179349 0.05458457 2434863
1.7924542 0.39370209 0.05442049 1711654
1.7956983 0.40063193 0.05433901 793614
1.8000009 0.40420276 0.054617006 8553835
1.7184207 0.27792981 0.050819289 11449780
1.7205019 0.28052297 0.05102171 11054509
1.7216185 0.28324196 0.050814245 10923694
1.7230804 0.28584215 0.051239837 10792877
1.7247852 0.28809163 0.051894214 10133919
1.7269901 0.29101241 0.051491149 9606549
1.7273176 0.29257554 0.052666187 6974824
1.7299803 0.29553193 0.051477883 5198667
1.7857347 0.38739046 0.052012563 330268
1.716629 0.27888525 0.049573697 11383728
1.718347 0.28179565 0.04997649 11383727
1.7198408 0.28416356 0.049688887 11252401
1.7216244 0.28645191 0.050451487 10726827
1.7227623 0.28888196 0.049274832 10922408
1.7244724 0.29205796 0.049614821 9607061
1.7261238 0.29550233 0.048210405 9738392
1.7276483 0.29679555 0.049493209 7173491
1.712719 0.27777445 0.048248429 11449009
1.7143637 0.27937824 0.048648566 11119529
1.7167044 0.28239769 0.048062075 11514546
1.7180291 0.28645828 0.048166644 11514804
1.7197583 0.28909299 0.048513189 11119789
1.7218142 0.29064378 0.048827782 11054244
1.72297 0.29333842 0.048557915 9804949
1.7240633 0.29607177 0.048220027 9673369
1.7690178 0.3077032 0.082383998 723221
1.7647213 0.30330175 0.079518668 1318171
1.7666323 0.3043156 0.080299549 2040870
1.7687671 0.30856004 0.079861447 855057
1.767498 0.30946305 0.079921737 1053209
1.7705154 0.31241652 0.07955873 987926
1.7600524 0.29918969 0.077037148 1514029
1.7607828 0.30098742 0.077551462 1449254
1.7626518 0.30331805 0.077933274 1383200
1.7646674 0.30636448 0.078345329 1317153
1.7662375 0.30945671 0.078525081 1251355
1.7678546 0.31135482 0.077280752 790808
1.7686584 0.31297678 0.078983359 592412
1.7709366 0.31756335 0.078264147 922388
1.7719994 0.31940567 0.078847788 987663
1.756541 0.2972739 0.075756229 1843238
1.7578938 0.29929799 0.076328397 1514540
1.7592189 0.30185005 0.076037489 1778211
1.7609067 0.30424511 0.075832248 1449248
1.7627236 0.30688557 0.077107668 1579816
1.764725 0.31375948 0.075781539 987934
1.7656665 0.3155289 0.076067001 921884
1.7678353 0.31706712 0.075386815 725024
1.7701166 0.31924328 0.075812042 725017
1.7520303 0.29385766 0.07292299 1251876
1.7524339 0.2956523 0.073846325 1711141
1.7544258 0.2974807 0.07410118 1646112
1.7562968 0.30096197 0.073472604 1974823
1.7574604 0.30316406 0.073931918 1514787
1.7593623 0.30486551 0.074610807 1054749
1.7599972 0.30709973 0.075245894 923415
1.762921 0.31346294 0.074916534 1120801
1.7669295 0.31556764 0.074043863 1053219
1.7474233 0.29221371 0.071574382 1841959
1.7497261 0.2944797 0.071548685 1579552
1.750502 0.29626098 0.072674051 1645345
1.7527982 0.2986505 0.072904728 1777444
1.7542006 0.30187175 0.071990572 1383971
1.75509 0.30366582 0.073540248 1318424
1.7445103 0.29099867 0.069382273 1381928
1.7459291 0.29280677 0.070090115 1316639
1.748185 0.29488069 0.070524737 1119510
1.7494322 0.29867274 0.068621874 1580329
1.7508293 0.30040482 0.069792271 1384488
1.7520945 0.30201659 0.070831731 1384759
1.7415817 0.28978842 0.066898212 1447712
1.7423948 0.29131773 0.067907348 1250849
1.7435186 0.29315341 0.068404175 1185312
1.7460265 0.29697496 0.066851951 1317161
1.7471535 0.29886705 0.068265833 1514280
1.7482103 0.30044901 0.069428511 1647145
1.7382011 0.28852507 0.064652301 1513745
1.7391691 0.29044232 0.066138417 1185316
1.7407188 0.29258505 0.066370897 1250594
1.7417016 0.29614487 0.065757312 1448730
1.7439213 0.29746655 0.066330895 1120294
1.7359874 0.28878483 0.063680507 1251868
1.7369947 0.2905432 0.064230099 1645872
1.7380409 0.29342064 0.063690834 1317159
1.7402798 0.29597333 0.063917577 1383722
1.7413435 0.29833695 0.062471736 922134
1.8022912 0.39603716 0.063262999 10592935
1.7335356 0.2898151 0.061633676 2370611
1.7354902 0.29261419 0.061863355 1843497
1.7370152 0.29497668 0.06120792 1778996
1.7383394 0.29698101 0.062133811 1384240
1.7393645 0.29897332 0.062444463 1646115
1.793336 0.38607258 0.06140228 1713176
1.7948236 0.38918853 0.060869861 2700597
1.7964352 0.39201269 0.060622543 5989730
1.7991707 0.39449489 0.06047225 8619662
1.7997974 0.39651099 0.061713353 10527652
1.8014091 0.39925399 0.060488824 10527653
1.8033032 0.40213019 0.061176509 10790827
1.8047293 0.40528527 0.061130475 10922927
1.7284811 0.28600511 0.059057508 9145739
1.7305218 0.28886512 0.059327133 5592911
1.7315938 0.29072434 0.059815165 2502955
1.7333633 0.29316944 0.059781659 2634303
1.7345929 0.29598314 0.059743375 3159887
1.7363224 0.29795298 0.060982157 2896454
1.7913809 0.38543752 0.059993364 1711654
1.7926847 0.38874409 0.058315109 5134693
1.7937498 0.39114252 0.058254756 5267583
1.7947197 0.39248437 0.059486408 6121320
1.7966883 0.39545453 0.059717324 7370366
1.7979739 0.3981148 0.059467949 8883600
1.7993964 0.40011644 0.060047671 9804447
1.8013327 0.40307376 0.060211394 10922155
1.8022093 0.40531498 0.060579062 11119534
1.8045381 0.40805835 0.05946384 10264998
1.7227256 0.27950856 0.056884859 11185575
1.7240176 0.28274694 0.057092629 10922147
1.7250078 0.2850346 0.056891266 10659232
1.726734 0.28643781 0.058063243 9475215
1.7286699 0.28989092 0.057718817 5857627
1.7298468 0.29193988 0.058052838 2569263
1.7315552 0.29487321 0.057964787 3226439
1.7325515 0.29679263 0.05790228 4081486
1.7331777 0.29926786 0.058731019 3426121
1.7875782 0.38425726 0.056489728 1514276
1.7884257 0.38514584 0.05753978 1779502
1.7905906 0.3883042 0.057598665 3161396
1.791684 0.39204353 0.057662442 2964530
1.7934316 0.3938576 0.057185687 4014661
1.7944893 0.3964344 0.057589103 5199711
1.7961029 0.39919886 0.058323409 7568522
1.7968272 0.40076247 0.058160134 7765899
1.7992766 0.40378606 0.058256384 10593446
1.8017398 0.40548277 0.057130698 11317164
1.8023155 0.40924326 0.057962406 10790827
1.8043076 0.41243231 0.057829555 10791082
1.8055719 0.41538259 0.058537479 10791082
1.7186604 0.27752182 0.05585967 11316907
1.720058 0.28075108 0.055630613 10987944
1.7220708 0.28274786 0.055955246 10922406
1.7227787 0.28538582 0.055718597 10462368
1.7247933 0.28766704 0.055842832 9804182
1.7260559 0.29072317 0.055331811 7831165
1.7281313 0.29291087 0.05570497 3291704
1.7297463 0.29589161 0.055674195 2239789
1.7875102 0.38688529 0.055835105 528402
1.7877027 0.39017493 0.054653801 528145
1.7897292 0.39292032 0.05545247 134667
1.791391 0.39497873 0.055294655 2173228
1.7928261 0.39824805 0.055451076 1910576
1.7940235 0.40053472 0.056339573 3818058
1.7957741 0.40299776 0.05583287 4740952
1.798679 0.40502074 0.054677237 6711631
1.7998616 0.4104071 0.056793731 10988714
1.8020041 0.41296127 0.056346394 11119786
1.7163385 0.27854711 0.054342117 11316906
1.7184273 0.28118414 0.054254938 10790567
1.7199584 0.28309873 0.054547079 11448748
1.7210447 0.28540552 0.054366376 11448746
1.7231122 0.28888798 0.053974815 9082001
1.7246433 0.29155472 0.054710031 6384238
1.7259985 0.2941772 0.053708635 5199445
1.727909 0.29691547 0.054192565 1385001
1.7858077 0.38875809 0.053310353 331299
1.7875667 0.39190492 0.054656412 790045
1.7888794 0.39597195 0.053806264 1448748
1.7904986 0.39822391 0.054196261 1646886
1.7917043 0.40162152 0.054421861 1187625
1.7962283 0.40859371 0.053732075 1782329
1.7137625 0.27822334 0.049920332 11581880
1.7148461 0.27985957 0.051118419 11186095
1.7166266 0.28277364 0.051212031 10923180
1.7183483 0.28600031 0.050889209 10791593
1.7196659 0.2878215 0.051165078 10332071
1.7210994 0.29087842 0.051502872 9279133
1.7228965 0.29262462 0.051886566 7766670
1.723604 0.2946772 0.052808225 6187378
1.7267001 0.29803276 0.052061219 3227200
1.7881345 0.39825284 0.052141763 2632242
1.7891843 0.40101385 0.052301303 1580079
1.7941102 0.41160524 0.051278614 1057333
1.7114822 0.27900127 0.049348697 11383985
1.7128596 0.28152144 0.049603954 11120557
1.7146263 0.28388807 0.050131973 11186612
1.7160591 0.28684518 0.050080366 10988974
1.7177581 0.28911683 0.04933583 10659750
1.7195046 0.29119226 0.050048333 10133922
1.7211142 0.29451635 0.048908446 9541783
1.7225481 0.29646283 0.049835388 7241088
1.7237834 0.29904681 0.050254188 6252656
1.7870835 0.40054753 0.050876968 2566452
1.7927897 0.41089207 0.050247867 1778736
1.7953761 0.41446713 0.051149808 2109510
1.7093074 0.27930117 0.04800361 11711926
1.7106223 0.28198752 0.049055021 11515831
1.713057 0.28571206 0.047800642 11449524
1.7139859 0.2876077 0.048378073 11120563
1.7147145 0.28962627 0.04837485 11185844
1.7171524 0.29205793 0.048764393 10791078
1.7184627 0.29483408 0.048950769 9147802
1.7203519 0.29848665 0.049028508 7438984
1.7055254 0.27872863 0.046739977 10462112
1.7113216 0.28631479 0.047186803 11909305
1.7654431 0.30462575 0.084072463 1121053
1.7694169 0.30925214 0.084258042 986900
1.7732251 0.31933162 0.084377669 1053725
1.7632828 0.30439112 0.0818526 1250590
1.7646197 0.30454546 0.082919247 1317397
1.7659483 0.30905297 0.082218617 1382690
1.7671099 0.31082487 0.083039373 856089
1.7725359 0.3185803 0.083112635 1185306
1.7581239 0.29993534 0.079062529 1514795
1.7592226 0.30176547 0.079998516 1514026
1.7610456 0.30477968 0.08023715 1448744
1.7629296 0.30699906 0.080693021 1382688
1.7640281 0.30953258 0.080134191 1316136
1.7659607 0.31100202 0.080073856 921635
1.7711986 0.32101917 0.079542771 1317641
1.7545102 0.29838514 0.07681904 1580583
1.7562339 0.30083188 0.078420624 1711664
1.757875 0.30359605 0.078301273 1712423
1.7594135 0.30568209 0.078438193 1515308
1.7609397 0.30790487 0.079510845 1646119
1.7622184 0.3093183 0.079247512 1578027
1.766216 0.31648391 0.076986931 987677
1.7674247 0.31926367 0.076716922 987927
1.7689164 0.32040909 0.078245565 791053
1.7706368 0.32429582 0.078876041 1185541
1.7722423 0.32722217 0.078937501 1645336
1.7495638 0.29515311 0.076073892 2104621
1.7509066 0.29686958 0.075837761 1448483
1.7527182 0.29932833 0.076366872 1646373
1.7544497 0.30163634 0.076388486 1515553
1.7558932 0.3043097 0.076332651 1646366
1.7574179 0.3064509 0.076027773 988956
1.7586836 0.30897173 0.075786211 1187107
1.7604216 0.31242558 0.07706821 1252132
1.7634706 0.31441793 0.07583645 921884
1.7645414 0.31634405 0.076828249 856347
1.7661703 0.31992224 0.076771803 987927
1.7667725 0.32096225 0.0776916 660752
1.7685881 0.32466084 0.078268006 1118731
1.7459146 0.29387924 0.07355392 1316898
1.7475903 0.29515007 0.074251376 1316389
1.7490288 0.29771605 0.074457273 1448991
1.7510887 0.29991078 0.074610807 1646626
1.7524397 0.30273959 0.074519709 1252379
1.7542384 0.30522275 0.074342012 1843742
1.7553147 0.30705717 0.075331889 1712433
1.7567741 0.31021151 0.075485274 1711936
1.7423277 0.29256684 0.071101755 1383193
1.7445467 0.29434666 0.071887046 1316642
1.7459462 0.29635745 0.072710298 1251102
1.7476294 0.29898944 0.071931884 1186339
1.7490319 0.30188447 0.071843393 1383727
1.7507864 0.30397531 0.072594263 1646894
1.7525998 0.30538225 0.07319726 1778201
1.7384086 0.29157951 0.06972865 1057064
1.7411196 0.29290116 0.070002496 1120037
1.7424902 0.2948848 0.070585117 1250852
1.743621 0.29811755 0.071590073 1448483
1.7452087 0.30010673 0.070291206 1383454
1.7469255 0.30212754 0.070483051 1515051
1.735564 0.28886828 0.067861356 1514011
1.7373959 0.29182202 0.068405204 1646376
1.7387528 0.29346985 0.068048775 1646126
1.7402928 0.29643235 0.068188056 1383975
1.7421443 0.29856905 0.068361998 1383719
1.744664 0.30017227 0.068410322 1711654
1.7330611 0.29013905 0.065682136 2237738
1.7360257 0.29220825 0.06603004 2633788
1.7368476 0.29479003 0.065708533 2172727
1.7385769 0.29724395 0.066265911 1713196
1.730244 0.29003859 0.064878732 3092293
1.7320645 0.29135877 0.063832961 3093819
1.7337238 0.29347017 0.064214572 3685447
1.7350322 0.29589447 0.06421309 3160399
1.7367711 0.29881611 0.063820198 3160651
1.7286348 0.29040164 0.061165866 3948864
1.7301735 0.29171363 0.062172994 2437168
1.731625 0.2946867 0.061902754 3488579
1.7331614 0.29704884 0.062104665 3358806
1.7351652 0.2996892 0.061927438 3752027
1.789904 0.38670638 0.061482973 1777447
1.7967942 0.39965105 0.061265178 10658467
1.7998385 0.40407801 0.061089836 10790569
1.801262 0.40634927 0.061536752 11185585
1.8026779 0.40928957 0.061630815 10791086
1.8042727 0.41203544 0.061170164 10396583
1.8053282 0.41308978 0.06271182 10725291
1.720374 0.28049535 0.058233302 11185317
1.7244798 0.2863045 0.05849034 9475218
1.7250197 0.28793246 0.05980093 7829881
1.7266395 0.29012087 0.059906665 5001045
1.7283038 0.29314041 0.060121253 1647141
1.7301726 0.29645345 0.059308577 1976106
1.7308166 0.29793563 0.060123935 2503228
1.7330078 0.29973009 0.0615055 3556937
1.7917821 0.39524192 0.058930933 4738891
1.7931697 0.39726478 0.059171025 6844788
1.7946759 0.39988452 0.059213419 7435903
1.7961566 0.40290418 0.059509631 9278363
1.7977233 0.40560922 0.059905924 10725031
1.7991496 0.40800697 0.060238715 10856619
1.8001386 0.41103369 0.059839308 10593705
1.802175 0.4134964 0.060129691 10527914
1.8041447 0.41585925 0.060050413 10462374
1.8047131 0.41761115 0.059953891 9804707
1.8067663 0.4200812 0.060105484 10593960
1.7164943 0.27901345 0.057132218 11448747
1.7181996 0.28054655 0.057906471 11119783
1.7193614 0.28382534 0.057447188 10790305
1.7217119 0.28669307 0.05775952 9672854
1.723101 0.28892136 0.058445904 8817293
1.7249709 0.29237562 0.057852019 5791847
1.7261775 0.29428467 0.058056701 2567219
1.7284408 0.29664147 0.05816159 1713188
1.7286426 0.29942659 0.057949208 1712930
1.7895864 0.39692149 0.057339046 2897470
1.7915467 0.39912933 0.057893522 5199968
1.7928666 0.4013837 0.058073539 5463142
1.7937993 0.40387085 0.058463596 7765644
1.7949492 0.40557012 0.05849323 9541019
1.7969477 0.40821248 0.057344735 10462365
1.7983093 0.41125026 0.056933001 10791335
1.8011893 0.41440895 0.058064722 11185325
1.8015449 0.41677672 0.058369733 11448498
1.8030839 0.42041016 0.058329184 9870500
1.8046434 0.42050496 0.059304558 10528163
1.7137165 0.27737036 0.05578883 11448491
1.7146871 0.27989486 0.055826336 11382700
1.716913 0.28278288 0.055807851 10987944
1.718246 0.28541413 0.055734571 10593699
1.7195445 0.28733346 0.055916581 9870490
1.7209079 0.28977013 0.055665039 8949906
1.7224771 0.29248938 0.055904567 7108219
1.7242599 0.29498836 0.055616286 4081741
1.7259685 0.29807997 0.056129109 1317665
1.7870507 0.39704856 0.056577679 3160385
1.789451 0.40026721 0.056417514 4211270
1.7913854 0.40253833 0.055927515 3293513
1.7923864 0.40523192 0.05646177 6383217
1.7954433 0.40914324 0.057342626 10133419
1.7966944 0.41213179 0.057004388 11514290
1.7988008 0.41476688 0.056489032 11448495
1.7990155 0.4175157 0.056747235 11645617
1.7113954 0.27886069 0.054226018 11317162
1.7131652 0.28106925 0.054465298 10922408
1.7148665 0.28385064 0.054704711 10725029
1.7161834 0.28655183 0.05477627 9673374
1.7174808 0.28792551 0.055466764 9607575
1.7196231 0.29148519 0.054445263 8359058
1.7210199 0.29451421 0.054012515 6648966
1.7225471 0.29616627 0.054287832 4410463
1.7241713 0.29907125 0.05428933 2041911
1.7875313 0.40221417 0.05314086 2436401
1.7891194 0.40369052 0.053968586 2370618
1.7901915 0.40547976 0.054388158 4474698
1.7958003 0.41526905 0.055043068 11645876
1.7096899 0.28021461 0.050378989 11053992
1.7104754 0.28253376 0.051954132 10791336
1.7124301 0.2847521 0.050728191 11251371
1.7147813 0.28741309 0.050665047 10726314
1.7165611 0.28992838 0.051007606 9542559
1.7178735 0.29230988 0.051483553 8556441
1.7194328 0.29520851 0.051915091 7043982
1.7203666 0.29781637 0.052364595 5925505
1.7230214 0.30079749 0.051271334 4871261
1.7225754 0.30299529 0.052119035 2765111
1.7851199 0.40203783 0.051467225 2434865
1.7860537 0.40577281 0.052286316 2765122
1.7920436 0.41276637 0.051335201 2239028
1.7927033 0.41382936 0.052288871 2765124
1.706387 0.27863109 0.049622115 11384510
1.7084252 0.2815949 0.04917445 11515319
1.7089438 0.28337941 0.049474575 11516606
1.7111142 0.2864069 0.049294814 11186610
1.7125909 0.28884938 0.049754567 10331816
1.7141681 0.29071677 0.050103877 9739938
1.7156742 0.29353267 0.049709506 9082783
1.7172172 0.29595846 0.049568776 7899284
1.7187734 0.29916984 0.049395669 6913935
1.7204821 0.30180088 0.049927242 6517118
1.7214861 0.30307958 0.050812826 4609123
1.7043993 0.27992585 0.047313973 11843511
1.7056234 0.2823357 0.048304208 11712183
1.7092087 0.28750598 0.048333507 10923182
1.7109413 0.29078647 0.049338128 9344921
1.7122139 0.29179052 0.048111681 10331041
1.7137991 0.2955431 0.048378497 8885145
1.7154801 0.29840362 0.048554033 7768728
1.7168872 0.30021888 0.049001776 7242898
1.7183443 0.30114046 0.049288925 7439241
1.7028691 0.27954888 0.0467037 11843253
1.7049156 0.28522187 0.04745204 11449012
1.7073108 0.28750235 0.047132444 11449012
1.7118576 0.29562607 0.047560867 9674398
1.7684427 0.31159201 0.085892968 921360
1.7696123 0.31404361 0.086024694 1184274
1.7739193 0.31996247 0.085569464 987669
1.7633193 0.30732149 0.083948411 1579547
1.7645208 0.31013423 0.083384372 791062
1.7656854 0.31226659 0.084247321 1119263
1.7673191 0.31510764 0.084565677 724497
1.7699621 0.31764731 0.08495032 1118980
1.7708155 0.3195968 0.084767215 855825
1.7720945 0.3214443 0.085659578 658189
1.7732219 0.32621366 0.084900007 1053195
1.7754749 0.32758287 0.084709071 791827
1.7764823 0.3286083 0.086499445 1777181
1.7572548 0.3025139 0.080981381 1842228
1.7594298 0.30610973 0.082494043 1513767
1.7605187 0.30803579 0.082291409 1514788
1.7623121 0.31057313 0.082523711 1119776
1.7637391 0.31249881 0.083023928 1185313
1.7650975 0.31553951 0.08351659 1841953
1.7679201 0.31767404 0.083604321 593174
1.7546449 0.30243069 0.079884909 1908520
1.7557595 0.3045851 0.080532208 1777708
1.757762 0.306207 0.080730885 1646124
1.7595692 0.30911174 0.080788396 1711655
1.7616858 0.31106022 0.080431268 1711144
1.7677883 0.32574648 0.080061466 791316
1.769745 0.32653472 0.080034375 1316366
1.7717526 0.32940781 0.079597712 725012
1.7798783 0.34478474 0.081071913 5795200
1.7482022 0.29635012 0.077416606 1843240
1.7496101 0.29777321 0.078033589 1514803
1.7505944 0.3002688 0.078161865 1711653
1.7527449 0.30232143 0.078369759 1646119
1.7539904 0.30502412 0.078620687 1449256
1.7553115 0.30733827 0.078439243 1317409
1.7566192 0.31068197 0.078734472 1185572
1.7585527 0.31311342 0.078146905 1448492
1.7606485 0.31487519 0.0789124 989731
1.7622765 0.31774789 0.078677118 857630
1.7632116 0.32034528 0.079144038 594206
1.7656273 0.32302526 0.079326801 659739
1.744553 0.29507655 0.074896649 1580070
1.7458079 0.29677206 0.076569751 1514276
1.7477157 0.2990368 0.076281957 1317665
1.749202 0.30114049 0.077227905 1448481
1.7507463 0.30398679 0.076723725 1514282
1.7522457 0.30662513 0.076240674 1711912
1.7536819 0.30900997 0.076592267 1711926
1.7557358 0.31073895 0.077181518 1777210
1.7421209 0.29530641 0.074098393 1382173
1.7438405 0.29736459 0.074494712 1185828
1.7455515 0.29984486 0.075153202 989718
1.7474645 0.30346549 0.07418225 1711660
1.7487885 0.30466807 0.07438343 1646126
1.7504495 0.30818629 0.075588226 1909553
1.737502 0.29149684 0.071951203 1579295
1.7393315 0.29351568 0.072292544 1514791
1.7406734 0.29633966 0.072221003 1382954
1.7422653 0.29792356 0.072962306 1055016
1.7438112 0.30143017 0.071871817 1317416
1.7454726 0.30331221 0.072908938 1515047
1.7480057 0.30563763 0.073003091 1646644
1.7346162 0.28969097 0.068758368 1317138
1.7357236 0.29277 0.069511771 2764866
1.7369846 0.29471612 0.070757128 2961982
1.738372 0.29707125 0.070290111 2632763
1.7406107 0.2998431 0.070016317 1317661
1.7415915 0.30189365 0.070740663 1975854
1.733048 0.29142377 0.067429356 2895671
1.7336831 0.29311916 0.068157293 3159875
1.7353855 0.29605302 0.068365447 3489101
1.7368767 0.29891384 0.068003491 3094344
1.7383375 0.30035365 0.068865612 2765900
1.7287265 0.29027188 0.064934291 3290435
1.7302938 0.29162681 0.066322975 3684683
1.7321676 0.29468566 0.066133231 2831677
1.7333635 0.29687139 0.066490866 3094593
1.7343754 0.29895782 0.065993555 3359571
1.7360932 0.30164999 0.066309683 4081749
1.7263657 0.29220092 0.063635893 1252137
1.7284356 0.29336721 0.064367026 1974826
1.7299877 0.29552135 0.06437663 2238506
1.7317868 0.29809341 0.06423936 2175803
1.7326623 0.30055922 0.064208068 2569277
1.7342159 0.30192819 0.065470129 3225662
1.8000395 0.40948227 0.062289484 10790837
1.8035395 0.41331542 0.063307092 10791090
1.8050063 0.41652295 0.062895067 11383738
1.7251288 0.29178926 0.062773123 1383975
1.7264454 0.29477558 0.062078908 1449254
1.7280563 0.29635698 0.062562376 2368809
1.7297174 0.29955751 0.062077891 2108209
1.731146 0.30141264 0.062626757 1911080
1.7955105 0.40646058 0.060543653 10856359
1.7974409 0.40914896 0.061839782 10922416
1.7981713 0.41216558 0.061554953 10988721
1.8006634 0.41279984 0.061978672 10725034
1.8022143 0.41636735 0.061811469 10528422
1.8035612 0.41983801 0.061776549 10593960
1.7155815 0.28134397 0.058411013 11053734
1.7198074 0.28707898 0.058662694 9014667
1.7213962 0.28986001 0.059417732 7172732
1.7229686 0.293051 0.06008688 4016213
1.7249683 0.29568335 0.060135685 1647407
1.7261569 0.29770392 0.05966248 1778474
1.7275237 0.30022359 0.059962727 2108207
1.729232 0.30285802 0.060348608 2501674
1.7900112 0.40157077 0.05921904 5595756
1.792302 0.40505376 0.059456848 8489362
1.794219 0.40768334 0.059832338 10527912
1.7959994 0.4095937 0.060557403 10922410
1.7972912 0.4128058 0.060028423 10791082
1.7992455 0.41587356 0.060345028 10396839
1.7999926 0.41744584 0.060410425 10659498
1.8015906 0.42051369 0.060306225 10264997
1.7130642 0.28101873 0.057498805 11317161
1.7146291 0.28463677 0.057622205 10527135
1.7169785 0.28627023 0.057786908 10263968
1.7183024 0.28895077 0.058655091 8620435
1.7195603 0.29189497 0.05784405 7174275
1.721133 0.2938073 0.058111079 6450040
1.7225574 0.29661509 0.058264051 3950933
1.724548 0.2989147 0.058045309 1449769
1.7257699 0.30083761 0.058612794 2041646
1.7857051 0.39858904 0.058174215 3357765
1.7880695 0.40171298 0.058508802 4936022
1.7895751 0.40414286 0.057457678 3556436
1.7901595 0.40636575 0.057891414 6844539
1.7922106 0.40775841 0.058528658 9080725
1.7930882 0.41100484 0.058125079 9870241
1.7956311 0.41436106 0.05939487 10856618
1.7973994 0.41663563 0.057881486 11120045
1.798016 0.41865417 0.058430459 11119788
1.7103616 0.28023544 0.055704493 11251111
1.7111576 0.28209123 0.055885445 10725543
1.7128584 0.28515536 0.055330094 10396323
1.71491 0.28726134 0.055961847 9805214
1.7160877 0.29016364 0.055677209 8621971
1.717759 0.29230654 0.055688575 7832972
1.7192372 0.29474986 0.055549137 7307148
1.7207667 0.297492 0.056056879 5069161
1.7225541 0.29996845 0.056638356 1317427
1.7228839 0.30292657 0.055256274 1712408
1.7868824 0.40492794 0.056142956 3949124
1.7882646 0.40699771 0.056042675 5001813
1.7905766 0.41046718 0.056140319 7305338
1.794238 0.41623574 0.055114288 11711412
1.7948165 0.41705608 0.056667477 11645621
1.7958386 0.41936383 0.056889929 11777207
1.706586 0.27894053 0.054087996 11448236
1.7078196 0.28093663 0.054312497 11119528
1.7093596 0.28365895 0.054569755 10396836
1.7113774 0.28649351 0.055103742 9410975
1.712667 0.28913951 0.055086192 8293779
1.7142524 0.2912865 0.054939877 8490897
1.7157437 0.29361901 0.0546901 7899277
1.7170522 0.29634717 0.054511778 7636111
1.7186291 0.29835138 0.05453274 7043460
1.7203809 0.30119395 0.054088384 2831951
1.7225604 0.30414346 0.053545166 530712
1.7226756 0.30611256 0.054900296 1318683
1.7842697 0.4040955 0.053564139 3092024
1.7846326 0.40794769 0.053649943 3423284
1.7867633 0.40792498 0.055063818 5986910
1.7916588 0.41606578 0.053782541 7238010
1.7041984 0.27915928 0.053034343 11120041
1.7054101 0.28118977 0.052328669 11119531
1.7077255 0.28435272 0.052129019 10001821
1.7133526 0.2920019 0.05104959 8358806
1.7137737 0.29452595 0.052192796 7964565
1.7158231 0.29738909 0.051834751 7372690
1.7168953 0.30139473 0.052385539 7043722
1.7182155 0.30341852 0.051436607 5728122
1.7201475 0.30495468 0.051873032 2964816
1.7209108 0.3067303 0.05253033 992059
1.7834606 0.40772992 0.052199189 2237496
1.702741 0.28063178 0.049276423 11582139
1.7044259 0.28332266 0.049254011 11384760
1.7059296 0.28645018 0.049829949 10725803
1.7080711 0.28915206 0.049332373 10068131
1.7090923 0.2911779 0.049464494 9214623
1.7107999 0.29353538 0.049997497 8359318
1.7120001 0.29595292 0.049897626 7965332
1.7134025 0.29770172 0.050078813 7440277
1.7158082 0.30143991 0.049465116 7504786
1.7166065 0.30362779 0.049901012 6912902
1.718182 0.30598518 0.050249029 5924723
1.7191166 0.3076039 0.051510755 3490912
1.7005883 0.28215814 0.048269823 11713210
1.7022997 0.28510627 0.047767848 11581369
1.7039245 0.28685492 0.047965162 11252404
1.7056582 0.28957197 0.04830524 10200235
1.7077197 0.2921668 0.048284445 9345693
1.7085789 0.29542339 0.049578004 7440284
1.7099949 0.29654443 0.04826412 8294040
1.7118326 0.29972893 0.048366394 7571095
1.7132998 0.30226162 0.048843514 7571090
1.715088 0.30515397 0.049334615 6847625
1.7157261 0.30628872 0.04975966 7109516
1.7025828 0.28882074 0.047222763 11317682
1.7036222 0.29172426 0.046736721 10528167
1.7067478 0.29533732 0.047090426 9082524
1.7088826 0.29958299 0.047242217 7899029
1.7765816 0.33113781 0.089021705 2304541
1.7604975 0.30733395 0.084857382 1578279
1.7624847 0.31157342 0.085509315 791579
1.7651124 0.31361291 0.085648932 855832
1.7653003 0.3158555 0.086538412 790293
1.7673807 0.31855249 0.086130463 658451
1.7688242 0.32117555 0.086330526 724754
1.7702721 0.32378793 0.086285114 724748
1.7714437 0.32659051 0.086111069 856327
1.7736144 0.32822827 0.087154739 725261
1.7755816 0.32999015 0.087228715 1580566
1.7574396 0.30739093 0.084551051 1645609
1.7600985 0.31004772 0.083083436 922910
1.7606151 0.31195247 0.084440246 1185578
1.762557 0.31392512 0.084789693 921889
1.7638514 0.31632948 0.084837429 1382433
1.7658948 0.32010528 0.085276276 1513756
1.7664683 0.32269141 0.085873105 1186064
1.7696989 0.32480863 0.086017594 789796
1.7708644 0.32737955 0.08581569 1119010
1.7768161 0.34086379 0.084460557 1316389
1.7525716 0.30382532 0.0818367 1842989
1.7543471 0.30574638 0.082692735 1645869
1.7557361 0.30747783 0.0826924 1711920
1.7577622 0.31033844 0.082813941 1646131
1.7584354 0.31217435 0.083145171 1711146
1.760378 0.31443143 0.083105616 1711148
1.7619653 0.31665462 0.083643585 1515307
1.7635604 0.32025492 0.084367096 1580068
1.7646973 0.32519278 0.082442798 790322
1.7653574 0.32619712 0.083289258 593951
1.7684921 0.32860488 0.081036501 791582
1.7682464 0.33087692 0.083140798 396820
1.7714576 0.33335626 0.081594616 791831
1.7730584 0.33659965 0.081815675 528916
1.7754444 0.34053496 0.083474338 790800
1.7786254 0.3468551 0.082074083 2834508
1.746783 0.29758331 0.07883276 1843242
1.7489278 0.30130041 0.08044225 1777702
1.7505053 0.30407563 0.080928572 1842983
1.752224 0.30620262 0.080825783 1711403
1.753703 0.30900314 0.080642603 1581095
1.7547542 0.31205544 0.079763949 1120296
1.7569774 0.31426656 0.079661064 1317431
1.7581156 0.31659123 0.080375314 1055022
1.7596195 0.31980664 0.08066991 922667
1.7620052 0.32223046 0.080636449 791342
1.7632722 0.32413253 0.081090458 726073
1.7647587 0.32597518 0.080474526 528698
1.7775549 0.34486988 0.080974959 2372152
1.7773628 0.34581384 0.082202658 2438972
1.7439994 0.2980988 0.077857293 1514786
1.7461882 0.30055097 0.0786428 1580067
1.7473065 0.30206844 0.078540869 1383452
1.7489867 0.30531812 0.078545384 1186342
1.7505554 0.30705556 0.078648224 1316912
1.7522756 0.3103241 0.0786376 1185586
1.7534704 0.31276476 0.078921162 1646389
1.7548143 0.3144888 0.08030434 1514818
1.7559701 0.31718346 0.080034412 1383487
1.7601479 0.3228305 0.080427527 988461
1.7408262 0.29667875 0.076362163 1580066
1.7422894 0.29859605 0.076539747 1515306
1.7443352 0.30106422 0.076691426 1120804
1.7450793 0.30385482 0.076449707 1449249
1.7469504 0.30597654 0.076542862 1646131
1.7475274 0.30864322 0.076473907 1646642
1.7501432 0.31085932 0.077122152 1581350
1.7518533 0.31231859 0.07767307 1646635
1.7372586 0.29521373 0.07402683 2303789
1.7389627 0.29718217 0.074283369 2698814
1.7399256 0.29885402 0.075046763 2830918
1.7417246 0.30209637 0.074722193 1711923
1.7436796 0.3050006 0.074735641 1384495
1.7449455 0.30710337 0.075422451 1581361
1.7338098 0.29460451 0.071994096 3488591
1.7355043 0.29615051 0.072360083 3489095
1.7366232 0.29806885 0.072992362 3620165
1.7386937 0.3009443 0.072631426 2830654
1.7401929 0.30345407 0.072421923 2700347
1.7415903 0.30558905 0.073182769 2568773
1.7308941 0.29281729 0.068802573 3292501
1.7320009 0.29395801 0.070751019 3291214
1.7337428 0.29676753 0.070780084 2831162
1.7349825 0.29967445 0.070524037 3620164
1.7366071 0.30189666 0.070430897 3752538
1.7380368 0.30420563 0.070905052 4016733
1.7291226 0.29347187 0.068520978 3158587
1.7302907 0.29611039 0.068674237 2303527
1.7317351 0.29822317 0.068638079 2501425
1.7332758 0.30019683 0.068864934 2569279
1.7351592 0.30332565 0.069017708 2963011
1.7267134 0.29398784 0.065625831 1908257
1.7279773 0.29675817 0.066153325 2368808
1.7292734 0.29880801 0.066739902 2764078
1.7314036 0.30184692 0.066391103 1582633
1.7327904 0.30355716 0.066846848 2304570
1.7247261 0.29506806 0.064047113 1843497
1.7263443 0.29808679 0.064503409 2895401
1.7284344 0.3009176 0.064324282 3158834
1.7297021 0.30293554 0.064131871 1975854
1.7305582 0.30407384 0.065634646 2699328
1.7212449 0.29426929 0.061961122 2371397
1.7233596 0.29656893 0.063137338 2566958
1.724224 0.29858088 0.062480312 2237736
1.7263247 0.30173236 0.062183589 3356477
1.7274771 0.30372661 0.062547356 2238776
1.7926017 0.40961447 0.0616225 11842996
1.7944078 0.41120145 0.061450869 11317168
1.7962478 0.41359165 0.062071916 11120566
1.7969388 0.41604397 0.061282285 11251889
1.7988501 0.41991818 0.061575864 9936803
1.7143341 0.28852615 0.059511699 8357518
1.7160227 0.29024354 0.058638915 8291988
1.7198137 0.29583818 0.060388483 4345184
1.7218215 0.29826036 0.059990313 2239041
1.7224369 0.29997697 0.060187969 2174006
1.7240418 0.3025918 0.059971388 2961973
1.7253406 0.30478603 0.06077626 3158838
1.7879355 0.40585309 0.05869944 5267562
1.789535 0.40774506 0.059283629 8095121
1.7906183 0.40978047 0.059982277 10462117
1.7920604 0.41253531 0.060612109 11382957
1.7939984 0.41509783 0.059823759 11054253
1.7947241 0.41703922 0.059736639 11448753
1.7967043 0.4196243 0.06023033 10660009
1.707392 0.27947149 0.057518344 11448490
1.7083473 0.28170246 0.057317 10987938
1.7097638 0.28241554 0.05862765 10922406
1.7110741 0.28573132 0.058067318 9936026
1.7122382 0.2882731 0.058350876 8686479
1.7146034 0.29147667 0.060055047 7831948
1.7166728 0.29372197 0.058542758 7502979
1.71788 0.29473847 0.058450956 7108473
1.7197798 0.29870754 0.058348667 4346209
1.7209172 0.30144423 0.058569223 2305074
1.7220229 0.30320975 0.058687434 2239534
1.7229036 0.30660439 0.058699805 3817800
1.7245362 0.3083784 0.059481122 4210745
1.7848542 0.40581697 0.057316437 3752517
1.7868986 0.40844434 0.057951324 6319480
1.7891821 0.41107669 0.057130806 8092803
1.7898657 0.41333461 0.058036003 9869983
1.7917459 0.41557208 0.058737706 11251375
1.7929426 0.41865867 0.058159158 11777720
1.7948872 0.42121884 0.05830235 11185584
1.7048905 0.27970397 0.056073826 11185576
1.7058941 0.28204247 0.056085221 10856607
1.7077489 0.28464004 0.055432782 9870493
1.709101 0.28701517 0.055589784 9147543
1.7108909 0.29014084 0.055471964 7833744
1.7123964 0.29246348 0.055749267 7833488
1.7139176 0.29497519 0.055574372 7635851
1.7153878 0.29734766 0.055581715 7438734
1.7172122 0.29974493 0.056003392 6846340
1.7189287 0.3023034 0.056469791 4214108
1.7203267 0.30474642 0.056600757 1844274
1.7216095 0.3075965 0.055790465 2172458
1.7223017 0.30975786 0.057460077 5591632
1.782396 0.40518138 0.056738213 3028540
1.7838345 0.40753329 0.055915553 3094339
1.7850151 0.40963563 0.056170058 5068385
1.7868059 0.41233972 0.056315243 6582397
1.7880228 0.41476771 0.056257501 7962257
1.7902632 0.41840115 0.055360712 11908534
1.7907795 0.41926023 0.056845944 12105912
1.7926087 0.4211269 0.057032719 11974326
1.7025192 0.28048205 0.053984463 11119785
1.7039981 0.2833311 0.054679476 10396319
1.7058942 0.28610897 0.054682467 9344667
1.7074574 0.28855261 0.055073384 8227734
1.7091656 0.29064643 0.054631658 8162197
1.7105639 0.29313025 0.05488034 7899282
1.7120049 0.29589811 0.054696523 7898771
1.7137192 0.29850245 0.05452409 7767954
1.7157366 0.30141857 0.055063378 7306888
1.7159905 0.30319339 0.055122036 6320509
1.7191209 0.30642745 0.052973971 3096150
1.719671 0.30835849 0.054344323 1384240
1.7817712 0.40583828 0.054200903 2370100
1.7807927 0.40750456 0.055752046 3289917
1.7830673 0.41016346 0.0542266 3092800
1.784508 0.41276979 0.054832317 5396842
1.7866524 0.41669688 0.05587396 8226969
1.7008402 0.28130096 0.05299269 11053737
1.7024976 0.28378606 0.05283663 10067358
1.7037367 0.28635287 0.053693607 9738908
1.7044927 0.28925174 0.051011588 9409947
1.7074493 0.29330605 0.053537916 8227979
1.7104589 0.2959092 0.051363923 7767442
1.7119719 0.29926598 0.051767126 7438737
1.713205 0.30220705 0.051676273 7175308
1.7150135 0.30490872 0.051030692 7240841
1.7166989 0.30707166 0.05179419 5004918
1.7179508 0.30974922 0.052313268 3096408
1.7819895 0.41263834 0.052485127 2500158
1.6970711 0.28020194 0.050296385 11384247
1.6988615 0.28332555 0.048999142 11122107
1.7001685 0.28486776 0.048524983 11646645
1.7012678 0.28889513 0.050830256 8621198
1.7036769 0.29028422 0.050139144 9016992
1.7050279 0.29344612 0.04963576 8031640
1.7070525 0.295596 0.05025946 7505553
1.7082543 0.29795399 0.050458703 7636888
1.7099514 0.30069044 0.050442308 7308433
1.711743 0.30361357 0.050327238 7176334
1.7130759 0.30604771 0.050381992 7044490
1.7144866 0.30866852 0.049978722 6123394
1.7164363 0.31069791 0.050512806 4807284
1.7169946 0.31426543 0.050543342 3754585
1.7192616 0.31574628 0.051875532 1583664
1.7786722 0.41175029 0.052013453 3356992
1.7814015 0.41511655 0.050677508 2500673
1.6952863 0.28200939 0.048860591 11712953
1.6975048 0.284008 0.048916422 11515577
1.6985413 0.2870217 0.048851322 11186871
1.699845 0.28972423 0.048162665 10397353
1.7019787 0.29132026 0.04810755 9740194
1.7038952 0.29508534 0.048172381 8359832
1.7053466 0.29710764 0.048304059 8030623
1.7068483 0.30019486 0.04725175 7373718
1.7080666 0.30190402 0.048426516 7438741
1.7095203 0.30389509 0.049250055 7438742
1.7109585 0.3069641 0.049178384 7110798
1.7126309 0.31031978 0.049446333 6386310
1.7144903 0.31287318 0.049185496 5465481
1.7154983 0.31383827 0.04998393 4872824
1.7019174 0.29524919 0.047286838 9279389
1.703716 0.29807615 0.04745774 8031135
1.7047516 0.30084518 0.047193427 7505559
1.7743045 0.32972488 0.089283332 527878
1.7621149 0.31562802 0.088076852 1053477
1.764165 0.3169474 0.088538788 724504
1.7652981 0.31957766 0.088470511 592919
1.7665768 0.32209817 0.08808703 593438
1.7681442 0.32524419 0.087988868 725277
1.7703837 0.32725728 0.088249683 790540
1.7714807 0.32974613 0.088506036 593416
1.7734859 0.3323012 0.089289933 855044
1.7755467 0.33695045 0.08782436 1118466
1.755981 0.3090722 0.086316846 1777447
1.7571985 0.30990633 0.086185783 1514280
1.7586201 0.31296605 0.086246639 1185568
1.7602959 0.31523222 0.086555988 1053731
1.7620227 0.31770912 0.08721602 987424
1.7639037 0.32110319 0.085857995 1382942
1.76612 0.32368463 0.087022007 1185301
1.7671086 0.32584485 0.08754003 856598
1.7687356 0.3273671 0.087962911 658710
1.7694815 0.32941473 0.088095248 1122331
1.7719347 0.33377528 0.087283097 528143
1.7736987 0.33926859 0.087011509 921631
1.7523756 0.30747703 0.083647624 1646378
1.7539144 0.3084121 0.084750742 1711917
1.7553815 0.3114295 0.084980123 1711916
1.7572284 0.31354728 0.084965318 1580074
1.7585104 0.31590164 0.085245542 1449002
1.7600811 0.31841129 0.085637465 1317157
1.7623088 0.32161933 0.085850917 1711907
1.7652748 0.32754305 0.084202588 592670
1.7651923 0.32888868 0.085115813 462617
1.7670749 0.33289757 0.084776074 659739
1.7696743 0.33410934 0.083367534 659992
1.7744143 0.34170285 0.084274605 593690
1.7764819 0.34480527 0.08523792 593434
1.746961 0.30276915 0.081710346 1645605
1.748755 0.30508989 0.082260899 1842729
1.7506968 0.30758804 0.082622685 1646123
1.7522842 0.30988455 0.083036751 1777710
1.7528309 0.31207618 0.084145688 1777694
1.7608079 0.32383466 0.081273787 987934
1.7620022 0.32618409 0.082428902 725789
1.7634434 0.32769528 0.083642147 725018
1.7744999 0.34429479 0.083826482 398109
1.7435956 0.30172154 0.08052019 1383725
