# .PCD v0.7 - Point Cloud Data file format
VERSION 0.7
FIELDS x y z rgba
SIZE 4 4 4 4
TYPE F F F U
COUNT 1 1 1 1
WIDTH 1193
HEIGHT 1
VIEWPOINT 0 0 0 1 0 0 0
POINTS 1193
DATA ascii
1.6488181 0.41173297 0.10513864 1908792
1.6534622 0.41660953 0.10299303 2303791
1.6551676 0.41796529 0.10386372 3225925
1.6563957 0.41999716 0.10461041 3554891
1.643765 0.4087956 0.10292386 2500923
1.6448994 0.41049057 0.10450384 2172219
1.64661 0.41307056 0.10303816 2435127
1.6516759 0.41745007 0.10194492 2566454
1.6529584 0.41935456 0.10259572 2896187
1.6537609 0.42132735 0.10265337 2434865
1.6428192 0.40977919 0.10204183 2566971
1.6424642 0.41143608 0.10185857 2435128
1.6450152 0.41467547 0.10130218 2303282
1.649318 0.41848218 0.10021908 2369334
1.6509037 0.42053878 0.1005787 2237747
1.6407523 0.41330433 0.099883988 1382441
1.6435142 0.41529691 0.099580139 1645359
1.6475111 0.42022926 0.098722354 1711921
1.6489593 0.42218947 0.0986173 1514538
1.6393905 0.41517669 0.098200262 1053215
1.6421094 0.41721714 0.097711928 1119010
1.6418178 0.41944373 0.097406678 1053214
1.6458653 0.42173767 0.096713394 1448748
1.6471905 0.42292958 0.096589044 1514794
1.6384038 0.41665733 0.096426874 791070
1.6383498 0.41877347 0.095753163 791070
1.6413363 0.420147 0.095385298 987680
1.644588 0.42248267 0.094876036 1448228
1.6450473 0.42451984 0.094951972 1383726
1.6466318 0.42649716 0.094938129 1909294
1.6378567 0.42000651 0.093574986 856608
1.640367 0.42172033 0.093451396 1119266
1.6417074 0.4240253 0.093727931 1250848
1.6438843 0.42631036 0.092564464 1515314
1.6453035 0.42790616 0.092922397 1777968
1.6217519 0.40717286 0.093409434 856602
1.6374665 0.421143 0.091383398 922401
1.638653 0.4225148 0.091765054 987938
1.6396866 0.42471486 0.091000862 1119522
1.6418121 0.42797136 0.090662837 1449262
1.643379 0.43044871 0.090633407 1317157
1.6158836 0.40324366 0.092861921 527384
1.6177156 0.40488642 0.092680342 527644
1.6194315 0.40722805 0.092322424 790816
1.6215843 0.40937728 0.091855809 527133
1.6237237 0.41134733 0.091651946 1382948
1.6366239 0.42392325 0.089597248 790814
1.636979 0.42677182 0.089792535 659229
1.640458 0.42943817 0.087662227 1316383
1.6419145 0.43083501 0.088666588 1383208
1.6176083 0.40837693 0.090939552 2502986
1.619581 0.41034657 0.090995401 1383741
1.6215398 0.41309953 0.091050245 461609
1.6226742 0.41458189 0.090613291 1448496
1.6353657 0.42561412 0.087216094 724769
1.6360853 0.42865682 0.087694421 658976
1.6390152 0.43058389 0.086280979 790814
1.6399479 0.43270725 0.086907461 987933
1.6420754 0.43473393 0.086703859 1448229
1.6439447 0.43676317 0.08686325 1712437
1.6224325 0.41669053 0.089301012 1053743
1.6353803 0.4293412 0.085959487 658982
1.6369506 0.43159461 0.08557459 658979
1.6389451 0.43421745 0.084300369 725018
1.6402757 0.43641984 0.08505284 987935
1.6353278 0.43252593 0.083977319 396064
1.6359892 0.43514156 0.084835202 461854
1.6389037 0.43724334 0.083168432 527129
1.6403952 0.43929708 0.081870802 527640
1.6411529 0.44191748 0.081818283 462106
1.63603 0.43652368 0.081207797 134178
1.6367986 0.43869352 0.081238173 133666
1.6381581 0.44019377 0.080908485 133662
1.640944 0.443533 0.080192879 330524
1.6417048 0.44513458 0.079393655 462622
1.6440871 0.44792676 0.078387521 528411
1.64491 0.44987309 0.07820107 725534
1.6965368 0.50526977 0.067227766 3225422
1.6992152 0.50624639 0.068459839 4020324
1.6372927 0.44252759 0.078792766 1976903
1.6391048 0.44527757 0.0778182 1911109
1.6411989 0.4467575 0.077301621 1318452
1.6428037 0.44928133 0.077476293 594724
1.643328 0.45142663 0.078047305 265505
1.6469138 0.45391279 0.07504607 857636
1.6905099 0.50339973 0.067230254 1779779
1.6932112 0.50439227 0.065915897 3620952
1.6942394 0.50652295 0.067285061 5792383
1.6371442 0.44563836 0.075610429 4806528
1.6385076 0.44850695 0.075192548 4806782
1.6409597 0.45134979 0.07510493 3688040
1.6430036 0.45273048 0.074565753 3423830
1.6459329 0.45512688 0.073733203 1186605
1.644662 0.45698142 0.073807985 2897489
1.6475787 0.45961183 0.072841629 528681
1.6883819 0.50366151 0.0660007 2371147
1.6904521 0.50521916 0.066792458 2634059
1.6933109 0.50754595 0.064948983 4344941
1.6356359 0.44727522 0.07343746 5531017
1.6376343 0.44952989 0.073342986 5794189
1.6387266 0.4523291 0.073393673 5465228
1.6410949 0.45493513 0.071565643 5991056
1.6431267 0.4554795 0.072804853 5068916
1.6443543 0.45893002 0.072206393 4608628
1.6467481 0.46080148 0.070918553 4213604
1.6493633 0.46339363 0.070785031 3160917
1.6506846 0.46542531 0.070762157 1844795
1.6520772 0.46644807 0.071002096 1449517
1.6854566 0.50310081 0.065672703 2896460
1.6894372 0.5064941 0.063418277 2238770
1.631304 0.44659805 0.07192032 4873054
1.6327128 0.44863349 0.071710512 6188679
1.6350818 0.4509415 0.071985744 5794955
1.6373688 0.45345402 0.070764184 6189454
1.6389172 0.45579654 0.071210869 5795213
1.6410439 0.45784187 0.070303492 6321041
1.6433443 0.45997089 0.070501566 6320530
1.6448565 0.4624691 0.070108488 6386065
1.6470537 0.46457076 0.070101731 5662084
1.6494278 0.4671604 0.069626808 4477298
1.6509702 0.46869117 0.068927117 3491446
1.6526784 0.47179341 0.067863211 3690116
1.6543338 0.47281307 0.068025984 1454177
1.6847715 0.50605899 0.062328763 3487818
1.6873369 0.50792605 0.062460683 4015193
1.6280129 0.44581842 0.070170499 3883594
1.6293203 0.44855201 0.070611089 3490376
1.631072 0.45041323 0.069421172 7306641
1.633213 0.45234466 0.069452241 7044248
1.6350744 0.45462573 0.069092259 6847385
1.6372776 0.45671439 0.069014139 6781851
1.6386793 0.4590171 0.068870492 6584474
1.640794 0.46113116 0.068777382 6321559
1.6426928 0.46376562 0.068979695 6584729
1.6446326 0.46512896 0.067368887 6322341
1.647373 0.46753305 0.066860631 5795746
1.6491228 0.47023505 0.067112081 5861543
1.6516323 0.47233349 0.0667831 5072027
1.6792221 0.50498098 0.061803203 3356491
1.6810398 0.50504059 0.062266685 3224908
1.6835747 0.50714511 0.061769828 2698046
1.6254621 0.44807017 0.068024628 594196
1.6277432 0.44910783 0.068652481 3883591
1.6290755 0.45179451 0.06868957 6318963
1.6312467 0.45400572 0.068562619 7241366
1.6332352 0.45637459 0.068015359 6715802
1.635066 0.45820868 0.06773755 6453146
1.6370727 0.46065158 0.067267336 6058906
1.6396132 0.46289498 0.066769451 6453666
1.6410418 0.46484929 0.066075385 6322085
1.6433136 0.46684813 0.065512054 6453930
1.6452811 0.46954286 0.065801322 6256809
1.6471071 0.4716087 0.065391041 6454965
1.6493731 0.47381443 0.066057898 6388917
1.6256051 0.4515447 0.067698032 264974
1.626647 0.45306408 0.067775935 1317661
1.6287985 0.45542312 0.064753987 4871501
1.6312799 0.45697862 0.065731667 6583435
1.6330881 0.4591102 0.065993167 6716063
1.6352994 0.46199328 0.065757342 6913710
1.6375653 0.46410871 0.065481603 6717101
1.639064 0.4665134 0.065264709 6782897
1.6410046 0.46838158 0.065196693 6783411
1.6435041 0.47086287 0.064586863 6849976
1.627583 0.45694262 0.063182704 1714717
1.6296391 0.45904112 0.064462349 6450033
1.6314266 0.46117443 0.064923942 7175582
1.6276149 0.46013457 0.063657716 3161137
1.6804773 0.4269914 0.11379096 330009
1.6791162 0.4286465 0.11460198 461852
1.6695157 0.41965032 0.11294068 528427
1.6699978 0.42105114 0.11293133 791340
1.673401 0.42403722 0.11277306 527398
1.6746047 0.42652935 0.11308358 395810
1.6774067 0.42796159 0.1130091 396060
1.6791847 0.43079674 0.11214146 395802
1.6817381 0.43237364 0.11171667 395545
1.6825073 0.43457401 0.11153133 461336
1.6851048 0.43726504 0.11159825 526873
1.6608896 0.4141621 0.11224103 1120573
1.6630285 0.41664892 0.11304871 922681
1.6651323 0.41874182 0.11287078 1252154
1.6673599 0.42053026 0.11296864 1252408
1.6693711 0.42278248 0.11308719 1317685
1.6714483 0.42494869 0.11273944 1448762
1.6732861 0.42722684 0.11114666 2238787
1.6752195 0.42951316 0.1105006 2305611
1.6770418 0.43173331 0.11012301 2041412
1.6791165 0.43386096 0.10996442 1449272
1.6806872 0.4359675 0.10939665 1448757
1.682761 0.43777531 0.10941674 1119787
1.6843398 0.43981725 0.10831457 1185580
1.6870267 0.44233966 0.10741739 1448750
1.6884861 0.44400764 0.10726999 1316388
1.6908031 0.44649184 0.10722611 1447975
1.6550677 0.41110069 0.11117165 2504040
1.6575489 0.41278404 0.11216348 1054283
1.6596558 0.41544455 0.11190723 1186630
1.6612327 0.4177072 0.11232242 1383489
1.6627288 0.41909605 0.11259508 1711934
1.6650994 0.42199451 0.1092483 2107721
1.667352 0.42435277 0.10977916 2436168
1.6694446 0.42627829 0.10998991 3620956
1.671293 0.42865843 0.10990668 4278885
1.6734319 0.43030399 0.10967347 4476783
1.6751491 0.43276429 0.1095935 3424098
1.6774611 0.43497056 0.10911505 1976904
1.6795566 0.43723011 0.10863948 1778751
1.6813363 0.43932807 0.10811618 1581370
1.6834512 0.44160014 0.10737269 1580854
1.6855571 0.44378668 0.10706609 1580853
1.6873279 0.44634444 0.10666849 1580337
1.6890495 0.44794726 0.10564134 1514029
1.6908667 0.45107102 0.10582946 1974061
1.6974504 0.45684594 0.10372776 2500928
1.6522911 0.41063601 0.10961792 4346233
1.6534543 0.41250539 0.11109871 3491444
1.6556377 0.41478938 0.11057322 3687792
1.6572629 0.41590554 0.11107935 2700902
1.6603763 0.41938317 0.10815962 2962786
1.6617285 0.42149347 0.10861742 3030639
1.6633282 0.4234066 0.10908897 2044508
1.6654549 0.42537129 0.10889274 2503511
1.6673076 0.42786324 0.1090108 3293023
1.6693784 0.43002498 0.10934222 4410988
1.6715598 0.43233401 0.10908008 6054789
1.6728892 0.43360579 0.10885128 3291744
1.6755751 0.4359296 0.10831228 2174546
1.6783183 0.43910271 0.10753058 2174025
1.6799963 0.44155633 0.10709299 2042436
1.6818318 0.44406247 0.10633424 1910337
1.6836106 0.44538862 0.1061624 1712957
1.6854063 0.44815594 0.10573724 1580598
1.6875235 0.44953012 0.10541098 1646130
1.6893325 0.45174664 0.10434839 1711666
1.6914005 0.45421898 0.10363651 1974579
1.6936884 0.45627946 0.10289639 2171702
1.6955222 0.45793009 0.10297979 2500413
1.6503712 0.4120146 0.10943303 4082787
1.6522546 0.41401249 0.10843322 2898499
1.6532687 0.41523135 0.10952086 4674670
1.6578926 0.42054963 0.10738175 5726602
1.6593442 0.42235273 0.10778575 5530779
1.6613615 0.42471826 0.10776425 4216461
1.6634307 0.42646408 0.10840265 1717346
1.6888394 0.45549136 0.10333502 1843508
1.691502 0.4577176 0.10145377 1975096
1.6932271 0.45967698 0.10160445 2172220
1.6479843 0.41037983 0.10751168 1251121
1.6478115 0.41245157 0.10792626 1844016
1.6495357 0.41496134 0.10694262 1711671
1.6541274 0.42030114 0.10575256 4344139
1.6557505 0.42175108 0.1058818 5595263
1.6575266 0.4238888 0.10620216 6253711
1.6590595 0.42533618 0.10683326 6255261
1.6451502 0.41253006 0.10578348 2238013
1.645483 0.41413206 0.10654378 2171709
1.6474538 0.4166224 0.10516971 2434876
1.652463 0.42119879 0.10402466 2633526
1.6535481 0.4228397 0.10445029 3357254
1.6537285 0.42536521 0.10452224 2171942
1.6427166 0.41363025 0.10384364 2304058
1.6436112 0.41548145 0.10526 2304059
1.6454852 0.41796625 0.10315899 2237492
1.6503012 0.42245102 0.10241926 2698037
1.6513904 0.42376053 0.10298826 2303795
1.6411338 0.4153834 0.10188192 1316649
1.6406966 0.4171207 0.10173313 1185060
1.6438142 0.41911274 0.10129085 1250605
1.6473736 0.42208695 0.10017738 2105395
1.6480589 0.42386228 0.10068358 1908784
1.6397841 0.4176718 0.10010648 921887
1.6425188 0.42064548 0.099570736 987679
1.6425474 0.42306918 0.10012227 856352
1.6462727 0.42482769 0.098754719 1383469
1.6388285 0.41986817 0.098098606 659228
1.6417702 0.4220928 0.096692555 987421
1.6417019 0.42372406 0.098267138 856349
1.6446586 0.42660099 0.096821859 1317935
1.6464331 0.42857563 0.095911548 1975603
1.6383016 0.42271906 0.09543103 659227
1.6405816 0.42602199 0.095387042 856348
1.643419 0.42819685 0.094655395 1712439
1.6438196 0.42940557 0.095024899 1515570
1.6378558 0.42455 0.093800969 659227
1.6378365 0.42752433 0.094326094 593436
1.6417713 0.42935085 0.092637748 1188153
1.6425607 0.43165308 0.093015634 1252654
1.6179594 0.40890449 0.093670666 593433
1.6198895 0.41089237 0.093845479 461860
1.6371787 0.42816478 0.091403425 593693
1.6375992 0.43103039 0.090859801 593693
1.6411879 0.43286556 0.090681918 988709
1.6182692 0.41232109 0.093361259 1647418
1.6198709 0.41374654 0.091509506 528949
1.6369523 0.43214172 0.088745192 658723
1.6399145 0.43477905 0.088451885 856350
1.6410494 0.4361949 0.089735553 1251107
1.642839 0.43861783 0.08820115 1646636
1.6192048 0.41563267 0.091273181 791353
1.6211059 0.41835052 0.090715148 724275
1.6221019 0.42005485 0.08899264 1448488
1.6361401 0.43280292 0.087099507 724264
1.6366897 0.434807 0.087384194 724519
1.6400957 0.43848598 0.086381748 856355
1.6408644 0.43929797 0.086451769 1119523
1.6373137 0.43869895 0.084773347 462108
1.6382363 0.44175559 0.085219212 462364
1.6376517 0.44235182 0.082429409 265760
1.6393712 0.44602758 0.08119189 265762
1.6411875 0.44714981 0.081481412 397087
1.643755 0.44961941 0.080109388 593692
1.6443362 0.45133495 0.080469087 659742
1.639917 0.44934487 0.07800141 2174285
1.6440032 0.45339972 0.0780266 331557
1.6463166 0.45524848 0.07803756 660001
1.6466744 0.45667905 0.078727216 726051
1.6413578 0.45358384 0.076182656 2964064
1.644177 0.45639765 0.075763449 1056314
1.6460166 0.45867711 0.075765029 331303
1.6476376 0.46197599 0.074983627 594211
1.6879442 0.50598395 0.067058407 3095893
1.6897805 0.50670135 0.067793436 3689062
1.6402582 0.45622343 0.073808514 5136526
1.6418338 0.45708293 0.075253762 4017533
1.6437292 0.45943344 0.075172782 2766688
1.6445757 0.4616785 0.075260401 2504287
1.6472566 0.46419615 0.075158104 1186617
1.650887 0.4689371 0.071618713 1056056
1.681704 0.50164682 0.067452826 2961999
1.6823311 0.5040853 0.066710033 2304596
1.6855562 0.50598282 0.066092297 2700880
1.6868067 0.50792414 0.067539416 4807275
1.6344634 0.45334649 0.072371423 5663115
1.6368299 0.45544195 0.072510079 5268877
1.6384796 0.45776927 0.072575957 5071502
1.6408011 0.45979565 0.072866976 5005710
1.6420358 0.46168417 0.072151661 5202828
1.6438291 0.46349788 0.071780264 5136266
1.6456224 0.46609199 0.071779951 4806789
1.6478958 0.46822089 0.071266308 3885426
1.6497631 0.47014058 0.070280872 3884904
1.6519146 0.4724555 0.070554473 1451077
1.6793586 0.50197607 0.067240208 3093074
1.68209 0.5056625 0.065484613 2831957
1.6839436 0.50768447 0.064333662 3292235
1.6311953 0.45138407 0.072192043 5794421
1.6321423 0.4540357 0.072001345 6188936
1.6340072 0.45637041 0.071352735 6057873
1.6360285 0.45836085 0.071351916 5795217
1.6378968 0.46061248 0.071212515 5663891
1.6400607 0.46310997 0.070539288 5795475
1.6422174 0.46557581 0.070250072 5861010
1.6444474 0.46733963 0.070231691 5860497
1.645998 0.46939313 0.069317527 6320794
1.6480103 0.47179157 0.069430731 5004681
1.6496542 0.47392243 0.06914103 4412549
1.6514213 0.47520298 0.068451568 3227766
1.6803398 0.50708526 0.062956959 2634057
1.6820414 0.50862759 0.063987993 3294817
1.6271651 0.45080167 0.070445612 199980
1.6287701 0.45305991 0.070663847 1517099
1.630106 0.45507795 0.069916949 5991290
1.6317518 0.45722491 0.069445595 7175832
1.6338319 0.45978194 0.069451615 6781597
1.6362343 0.46170181 0.068871662 6979234
1.6380949 0.46388906 0.068670824 6650267
1.6400719 0.46623403 0.068421558 6584733
1.6417835 0.46881711 0.068665653 6650268
1.6437937 0.47131479 0.06846346 6584219
1.6461492 0.47321987 0.067968272 6453155
1.647783 0.47519296 0.066798545 6256298
1.6500165 0.4771812 0.067481644 5137564
1.6766081 0.50642318 0.061743766 3224648
1.677945 0.50734359 0.062413223 2437702
1.6265845 0.45451564 0.068341963 2172975
1.628371 0.45690858 0.06877321 5990255
1.630234 0.45921069 0.068329975 7307160
1.6320927 0.46160865 0.067988597 6979228
1.6341722 0.46354622 0.067572862 6255767
1.6355652 0.46541566 0.067842305 6387612
1.6381292 0.46775633 0.066927023 6387617
1.6400251 0.4697867 0.066750526 6453151
1.6420386 0.47252852 0.065118127 6651310
1.6441385 0.47407401 0.06549485 6388395
1.6455706 0.47625744 0.066174813 6388139
1.6482317 0.47906631 0.064891465 6652860
1.6736143 0.50615078 0.061865881 3422282
1.6283386 0.46044856 0.067449234 7108743
1.6306436 0.46240014 0.066038229 6715031
1.6321304 0.46475953 0.065496348 6781604
1.6343122 0.467466 0.065431491 6453415
1.6366354 0.47012979 0.065142661 6717103
1.6386738 0.47165543 0.064925946 6848691
1.6399221 0.47380888 0.065024391 6783154
1.6418774 0.47570235 0.064392328 7047101
1.6433043 0.47750968 0.064615853 7047102
1.6283082 0.46397215 0.064254969 5529188
1.6305075 0.46623093 0.065244012 6977702
1.6750736 0.4296366 0.11478117 461854
1.6766217 0.43083066 0.11486024 527643
1.6854763 0.44027829 0.11204274 724001
1.6651574 0.42237949 0.11401415 1582143
1.6679196 0.4245463 0.11369444 1515327
1.6698275 0.42682481 0.11385234 988215
1.6721013 0.42864478 0.11401363 592688
1.673521 0.43078822 0.11351247 592939
1.6759841 0.43300456 0.11317879 527141
1.6782193 0.43425041 0.11228864 527134
1.6800947 0.43730724 0.11171284 527133
1.6825045 0.43925512 0.11175349 724510
1.6835468 0.44140375 0.11192046 856099
1.6851923 0.44287699 0.11136733 856099
1.6580184 0.41673559 0.1131561 1251653
1.6597201 0.41931438 0.11360756 1581639
1.6620756 0.4211452 0.11355917 1844037
1.6642389 0.42318916 0.11371775 2305352
1.6658072 0.4254095 0.11405024 2305863
1.6680115 0.42807269 0.11148848 3621208
1.6699367 0.43034071 0.11148176 4080989
1.6722133 0.43242967 0.11102122 4607089
1.6739799 0.43463612 0.11065447 3358302
1.6763859 0.43674856 0.11064313 1581376
1.6778197 0.43917632 0.11035526 1382964
1.6797891 0.44114125 0.10991232 1514548
1.6820307 0.44343728 0.10931256 1448753
1.6842566 0.44507945 0.10890853 1316649
1.6874323 0.44809115 0.10756801 1381925
1.6887283 0.45073086 0.1067854 1776422
1.6545141 0.41607457 0.11215258 2503784
1.6558946 0.41821367 0.11237378 2108767
1.6578143 0.42036736 0.11295722 1187144
1.6599075 0.42191887 0.11285046 1646406
1.6624651 0.42533946 0.11085072 2173772
1.6641846 0.42712635 0.11052741 2963031
1.6662433 0.4292891 0.11063905 3358042
1.6682572 0.43143123 0.11020158 3620958
1.670507 0.43383622 0.10993257 4739443
1.6723951 0.43613333 0.10974485 3490147
1.6741124 0.43793124 0.10935868 2306384
1.6763465 0.44068718 0.10892659 2107974
1.6781782 0.44282418 0.10848276 2173765
1.6805267 0.4445973 0.10783586 1910332
1.682169 0.44678622 0.10782465 1777976
1.6843424 0.44878221 0.10704282 1646389
1.6863595 0.45131624 0.10619669 1711666
1.6884904 0.45374537 0.10582465 1974063
1.6909566 0.4566471 0.10382684 2105398
1.6916237 0.4578501 0.1040446 2368568
1.6507258 0.41475302 0.11115928 4807041
1.6520492 0.41747344 0.11078906 4740730
1.6538215 0.4196291 0.11149582 4674689
1.6564648 0.42238611 0.10883241 5660802
1.6586237 0.42430592 0.10917249 5069966
1.660405 0.42626131 0.10945196 3295103
1.6624087 0.42831451 0.10940876 2636903
1.6643389 0.43058163 0.10929337 3161700
1.6665134 0.43301773 0.10916585 2964063
1.6681685 0.43506116 0.10919543 2832218
1.6694362 0.43664926 0.10902086 2700631
1.6722398 0.43931127 0.10882343 2569301
1.6742668 0.44098371 0.10827599 2305872
1.6762226 0.44411725 0.1075182 2108235
1.6789219 0.44634622 0.10683061 2174021
1.6805615 0.44840777 0.10645103 2107970
1.6824285 0.44976765 0.10546178 1910077
1.6842806 0.45230073 0.10541816 1711925
1.686626 0.45465791 0.10543737 1842991
1.6882764 0.45725596 0.10438702 1908788
1.6906049 0.45972043 0.10382865 2105912
1.6928134 0.46112019 0.10240112 2369086
1.6468799 0.41523468 0.10897685 1778482
1.6481439 0.41659945 0.11018792 3885659
1.650419 0.41872877 0.10897577 3095360
1.6547842 0.42343104 0.10771829 5989240
1.6565034 0.42555988 0.10796313 7042977
1.6581967 0.42747396 0.10793127 6058148
1.6602516 0.4298315 0.10853754 3691409
1.6831956 0.45444798 0.10382587 1909562
1.6849548 0.45673287 0.10317163 1712439
1.6901414 0.46076101 0.10200948 1844027
1.6453135 0.41585195 0.10770206 2040380
1.6480246 0.41980404 0.10717729 2041146
1.6515942 0.42307717 0.10567749 2567465
1.6528671 0.42488021 0.10610009 4409934
1.6544409 0.42631751 0.10645894 5857649
1.6558695 0.42825735 0.10728724 7964328
1.6429861 0.41716212 0.10631225 2106423
1.6447989 0.41975331 0.10387406 1974581
1.6459255 0.42138743 0.1054571 2237748
1.6499143 0.4244383 0.10429146 2698548
1.6507664 0.42593789 0.10436052 2962750
1.6525661 0.42721105 0.10511741 4475741
1.641306 0.41858482 0.10425849 1316906
1.6440048 0.42082912 0.10275054 1250860
1.6440613 0.42323667 0.10381737 1316651
1.6479096 0.42542958 0.10226668 2105901
1.6486104 0.42712986 0.1029817 2304046
1.6393712 0.4205575 0.10178848 724765
1.6429467 0.42370731 0.10177731 987425
1.6457298 0.42665482 0.10055833 1317682
1.6461086 0.42843008 0.10092486 1382699
1.6385052 0.42289239 0.09947592 527642
1.6417255 0.42602223 0.10023757 790554
1.6441531 0.42878926 0.0982702 1383214
1.6446476 0.4300229 0.099330768 1317422
1.6384048 0.42512196 0.097636454 527642
1.6396141 0.42673147 0.098723739 658969
1.6406928 0.42917943 0.097461864 725018
1.6434674 0.43141258 0.097534552 1515052
1.6380644 0.42818081 0.096956551 527900
1.6377456 0.43027532 0.095155537 593438
1.6415118 0.43231511 0.095057122 1054762
1.6422688 0.43498993 0.093803488 1448740
1.6374587 0.43240786 0.092954412 659230
1.6402262 0.43464684 0.093276337 922400
1.6412009 0.43695116 0.092804849 1251366
1.6418089 0.43852431 0.093271896 1711913
1.6193541 0.41617626 0.094545975 659758
1.6369325 0.43436956 0.091261595 658981
1.6399894 0.43720168 0.091413125 987683
1.6408004 0.44046795 0.090247169 1317670
1.6190166 0.41891474 0.091899604 922930
1.6206361 0.42069644 0.091544546 922390
1.6366611 0.4363271 0.089313865 724518
1.6368022 0.43841672 0.090698831 724522
1.6399134 0.44008762 0.089156836 1053735
1.6203759 0.42554444 0.090585046 1382686
1.6394331 0.44454944 0.084805802 528417
1.6824296 0.50616527 0.06820941 1977166
1.683135 0.50832009 0.068608314 3032154
1.6466577 0.46868187 0.073080987 3228787
1.6485038 0.4714061 0.072925344 2372448
1.6508904 0.47347653 0.073025681 1319226
1.651998 0.4760403 0.07231088 1318727
1.6769726 0.50312042 0.067583263 2566737
1.6790452 0.5050959 0.067449518 2567511
1.6804309 0.50680786 0.067169093 2964568
1.6826614 0.50962329 0.06706956 3161428
1.6356748 0.46139783 0.071659461 5663638
1.6386034 0.46426415 0.071328923 5400723
1.6411886 0.46652526 0.071213402 5071249
1.6425855 0.46839577 0.071248963 5005969
1.6446469 0.46993279 0.071810052 4808079
1.6461947 0.47292942 0.071329474 4938894
1.6485114 0.47521365 0.070915446 4872579
1.6505239 0.47752774 0.07092455 3424879
1.6519527 0.47947842 0.070332021 2371677
1.6761818 0.50648659 0.065909103 2502483
1.6790016 0.50839561 0.066572599 4148330
1.6293578 0.45763916 0.071046516 4741455
1.6317197 0.45961535 0.071260937 6780822
1.6334703 0.46208316 0.071092121 6189720
1.6346309 0.46368885 0.070719026 6189977
1.636692 0.46591264 0.070579827 5993114
1.638772 0.4673385 0.070267513 6058651
1.6406116 0.46995974 0.069879584 5927066
1.642719 0.47204304 0.070159644 5926809
1.644801 0.47438926 0.069242872 6321304
1.6460125 0.47676384 0.069696128 5597585
1.6487207 0.47919273 0.068725616 5727891
1.6505127 0.48152071 0.068757109 4412037
1.6527328 0.48294437 0.069236808 1450065
1.6731744 0.50660479 0.064929932 1649229
1.6740565 0.50753927 0.062758319 2632766
1.677357 0.50951552 0.063540854 3951729
1.6275328 0.4585247 0.070091099 792358
1.6292472 0.46091223 0.069661751 5465186
1.6311865 0.46262622 0.069944516 6846869
1.6327801 0.4651947 0.069325015 6978976
1.6349752 0.46681976 0.068807073 6781856
1.6369164 0.46925777 0.06855984 6782113
1.6388736 0.47153175 0.068322033 6584734
1.6408854 0.47351152 0.068187766 6716063
1.6429443 0.47588313 0.068131953 6518940
1.6448345 0.47793162 0.067728169 6847653
1.6466057 0.48001945 0.067459598 6979244
1.6485641 0.48259014 0.067028157 5531807
1.650202 0.48386073 0.067496642 597082
1.6716135 0.50703704 0.062352654 2305350
1.6730769 0.50868332 0.062537454 2109769
1.6751863 0.51069856 0.063311748 6845840
1.6275828 0.46165466 0.068094395 6187644
1.6292027 0.4642669 0.068013445 6649229
1.6310365 0.46635646 0.067785561 6978975
1.633152 0.46848476 0.067765586 6518941
1.6349826 0.47101802 0.067755684 6781856
1.6371129 0.47294825 0.067125015 6387616
1.6392109 0.4755289 0.066364788 6650790
1.6412812 0.47775316 0.065870836 6387879
1.6435773 0.47961485 0.065864302 6519208
1.6450672 0.4826628 0.065047197 6519469
1.6465782 0.48372722 0.066019215 4742541
1.6659429 0.50647271 0.061132945 4079697
1.6692142 0.50785381 0.061650947 2043460
1.6695905 0.50978982 0.060102955 1779771
1.6289183 0.46809745 0.06641221 6780818
1.6311069 0.46944368 0.066070437 6912932
1.6338434 0.47210443 0.065119714 6387623
1.6349294 0.47358459 0.065072447 6716849
1.6370978 0.47668803 0.064882204 6651313
1.6391423 0.47908986 0.064617641 6915514
1.6414874 0.48143494 0.064048216 7113150
1.6427798 0.48316413 0.064295299 6783414
1.6293061 0.47123015 0.064929865 6911647
1.6319022 0.47349334 0.064884156 6387363
1.6336664 0.47605342 0.064531319 7178690
1.6701443 0.4307211 0.11556283 592937
1.6729034 0.43186712 0.11570306 658982
1.6609488 0.42298806 0.11466031 2569301
1.6629181 0.42532527 0.11449645 3686480
1.6647321 0.42715961 0.11477588 3357268
1.6668781 0.43015033 0.11449526 2830151
1.6692395 0.43162686 0.11418723 1646145
1.6711686 0.43390918 0.113363 989491
1.6730709 0.43619406 0.11293676 592943
1.6750433 0.43865198 0.11230338 658985
1.6784182 0.44235379 0.1112694 921636
1.6806793 0.44470173 0.11199737 1250601
1.6549549 0.41989005 0.1136549 1121614
1.6571698 0.42232138 0.11395091 1515850
1.6588812 0.42473 0.11398327 2042190
1.6612184 0.42651188 0.11420718 3226457
1.6634355 0.42895198 0.11334246 3883865
1.6650147 0.43142337 0.11213339 3817819
1.6671689 0.43308681 0.11168271 4080481
1.6690053 0.43558389 0.11171233 4541038
1.6709522 0.43716472 0.11139038 3620705
1.6729906 0.43973035 0.11114807 1712707
1.6750023 0.44197071 0.11090466 1843516
1.6768556 0.44409144 0.1103911 1843514
1.6790469 0.44608831 0.10945028 2040892
1.6810691 0.44897944 0.10833094 1909307
1.6515098 0.41952521 0.11296763 3820167
1.6528699 0.42135471 0.11270571 3359348
1.6553051 0.42303228 0.11298636 2043232
1.6570714 0.42550921 0.11246516 1846104
1.6591628 0.42783946 0.11080228 2372961
1.6610799 0.43018925 0.11083135 2701919
1.6630882 0.43227541 0.1109014 3160923
1.665355 0.43430418 0.11101477 3291995
1.6670444 0.43648398 0.11043805 3292252
1.6692755 0.43857557 0.11015742 3095388
1.6712224 0.4407506 0.11014408 2437199
1.6733712 0.44274902 0.10918227 2437199
1.6751223 0.44516122 0.10893251 2107715
1.6772568 0.44732016 0.10829306 1844543
1.6791792 0.44973373 0.10771902 1712954
1.6811752 0.45179445 0.10748023 1909046
1.682883 0.45432913 0.10681486 1842997
1.6849711 0.45643246 0.10651739 1908529
1.687299 0.45899242 0.10519478 2039859
1.6886108 0.46104139 0.10528632 2172221
1.6898713 0.4620809 0.10426952 2565955
1.6481375 0.41877782 0.11111024 5267063
1.6494254 0.42000538 0.11158746 5201543
1.6509597 0.42231435 0.11093805 5726852
1.6528537 0.42411375 0.11200136 5398419
1.65558 0.42680722 0.10986966 5792399
1.6575361 0.42896318 0.10971886 5531290
1.658989 0.43150276 0.10967664 4018829
1.6611824 0.43342948 0.10948548 3229299
1.6633317 0.4356122 0.10909006 3687787
1.665767 0.43833715 0.1090492 3490148
1.6671028 0.44071966 0.1086736 3292255
1.6691422 0.4417426 0.10877571 3095390
1.6703987 0.44435334 0.10814348 2963546
1.6731577 0.4466331 0.10773739 2503250
1.6758659 0.44926471 0.10758571 1845315
1.6771047 0.45066226 0.10687819 1252920
1.6788864 0.45271701 0.10595961 1647421
1.6816212 0.45546299 0.1057276 1909298
1.6843197 0.45726657 0.10553595 1777719
1.6855978 0.45968443 0.10508491 1974327
1.6871707 0.46154201 0.10442466 2040380
1.6460924 0.41935331 0.10969728 2831939
1.6474388 0.42148381 0.10965569 3358794
1.648633 0.4234935 0.10962367 3490370
1.6523824 0.4263019 0.10835966 6449004
1.6536219 0.42813963 0.10858987 6975363
1.6556805 0.43031561 0.10818361 7899056
1.6571047 0.43268138 0.10845321 6452909
1.6589692 0.43445617 0.10898119 3888012
1.6626796 0.43822664 0.10853679 4082799
1.6645877 0.44010919 0.10818101 3489634
1.665332 0.44115371 0.10788994 3687785
1.6796434 0.45598578 0.10384015 1384248
1.6438904 0.42049992 0.10832828 1778479
1.6460345 0.42374074 0.10688123 2238004
1.6466647 0.42516714 0.10819645 1647653
1.650275 0.42755193 0.10620648 2896669
1.6513362 0.4294284 0.10655737 5068107
1.652867 0.43156427 0.10728259 9015714
1.6556183 0.43401575 0.10769631 9215938
1.6406667 0.4203456 0.10522473 1250856
1.6416678 0.42217386 0.10687559 1711664
1.6441437 0.42495155 0.10482866 1513772
1.6443788 0.42623758 0.10561357 1711405
1.6480744 0.42938954 0.10417792 2435369
1.6494062 0.4309963 0.10512601 3356723
1.6397046 0.42314309 0.10370161 725023
1.6428037 0.4265936 0.10291542 1052705
1.6430497 0.4278816 0.10377009 987427
1.6463876 0.4303261 0.10276665 1514285
1.6473383 0.43221641 0.1035881 2171935
1.6386106 0.4253546 0.10164344 527640
1.6415555 0.42890275 0.10139793 724759
1.6445796 0.43215275 0.10116056 1449523
1.643929 0.43389279 0.10134383 2305085
1.6378962 0.42911822 0.10050076 527643
1.640486 0.43142748 0.099702738 790813
1.6418267 0.43224365 0.099658489 1055802
1.642957 0.43461072 0.099184565 1448485
1.6374402 0.43199831 0.097982317 593439
1.6406115 0.43429816 0.097236112 922145
1.6422646 0.43648058 0.096876055 1711400
1.6369524 0.4331153 0.095556051 659487
1.6371355 0.43498081 0.096260607 725026
1.6404321 0.43842047 0.095139131 1053990
1.641639 0.43889272 0.095293149 1843245
1.636833 0.43724769 0.094093859 790565
1.6401577 0.43888342 0.092948988 1053989
1.6406622 0.44022578 0.09390448 1778217
1.6367328 0.44071996 0.091549858 659237
1.6367902 0.44295835 0.090855002 658981
1.6406784 0.44313735 0.090308078 1120039
1.6380863 0.44559795 0.090072393 855588
1.6416001 0.45226264 0.086387917 790566
1.6766444 0.50605643 0.068623751 2174549
1.6798519 0.50779754 0.069177225 3163486
1.6459842 0.47550875 0.071914263 5004695
1.6483366 0.47777778 0.072193265 3951746
1.6497917 0.47731817 0.072478399 2635877
1.6515684 0.48136002 0.071292773 2438756
1.6523187 0.48358411 0.071539365 2503776
1.6728818 0.50490874 0.067388631 2567261
1.6765157 0.50839937 0.066499047 1583956
1.6771342 0.50989264 0.067742549 5793414
1.6421275 0.47410315 0.07105957 5663894
1.6437635 0.47633815 0.071309395 5400985
1.6460729 0.4786756 0.070769653 5728919
1.6476262 0.48043567 0.070992544 5334165
1.6494187 0.48205549 0.071074456 5267343
1.6516806 0.48515338 0.069750294 3358831
1.6532789 0.48573512 0.07168334 1780560
1.6549993 0.48870689 0.069535092 594747
1.6577034 0.49046189 0.069487154 264998
1.6587132 0.49339402 0.068884507 330017
1.6697807 0.50590765 0.066273198 3294040
1.6715055 0.50656605 0.066948794 2308441
1.6739564 0.50876981 0.066712901 3557996
1.6751076 0.51098704 0.067720033 9872066
1.6331723 0.4678365 0.070434459 6518945
1.6357214 0.47026724 0.07031966 6190238
1.6379294 0.47260231 0.070061006 6124704
1.6394812 0.47446054 0.070016429 6321827
1.6412742 0.4769181 0.069223359 6256289
1.643896 0.47952181 0.069111764 6058649
1.6461298 0.48189694 0.069115229 5992344
1.647861 0.48407954 0.068687119 5992091
1.6495445 0.48620528 0.06851086 5398925
1.6514879 0.48826224 0.068168335 3293292
1.6529043 0.49119079 0.067913368 3489636
1.6560533 0.49357289 0.0675264 1384002
1.6574521 0.49461043 0.066899583 658988
1.6585286 0.49761575 0.066284239 1252150
1.6615431 0.50056225 0.065293223 1583920
1.6675866 0.50668794 0.064734645 2834780
1.6698375 0.50785488 0.064679779 1585232
1.6715934 0.51040375 0.064221203 5071237
1.6300895 0.46687686 0.069337323 6715534
1.6318439 0.46974283 0.069399737 6584219
1.6338944 0.47223294 0.068831809 6584737
1.636023 0.47444063 0.068661042 6781861
1.6377859 0.4766081 0.067804307 6716321
1.6400242 0.47856057 0.067982636 6716321
1.64185 0.48054564 0.067823298 6716579
1.6435928 0.4833588 0.067460001 6782115
1.6459243 0.48520344 0.067073986 6979241
1.6477742 0.48749125 0.067177132 6321059
1.6499794 0.49019164 0.066631332 5070479
1.650018 0.49232841 0.065775283 4874650
1.6540245 0.49482805 0.066646144 4146787
1.6560361 0.49738288 0.065991759 3226457
1.657506 0.49994284 0.064873829 2240833
1.6599436 0.50137269 0.065486148 1058102
1.6614355 0.50353557 0.064030111 3096387
1.6635251 0.50553596 0.063475236 3359564
1.6659943 0.50778079 0.063145705 2899799
1.6681913 0.50964093 0.063299969 3624052
1.6698099 0.51156557 0.062845387 6452383
1.6301103 0.47127926 0.067759179 6584212
1.6319613 0.47380084 0.067760542 6716318
1.6341112 0.47582155 0.067457892 6913441
1.6360879 0.47783786 0.066862866 6518942
1.6378422 0.48030514 0.066538155 6650530
1.639816 0.48239791 0.066358976 6518945
1.6416751 0.48470879 0.065911397 6716584
1.6443324 0.48624283 0.06556014 6518948
1.6459455 0.48897827 0.065557368 6255779
1.6476011 0.49140364 0.065431535 6057886
1.6491059 0.49473679 0.064631619 6322095
1.6561537 0.50149119 0.063538149 2965582
1.658605 0.50242066 0.06448514 2043701
1.6600306 0.50568014 0.063234389 2106688
1.6622182 0.50750679 0.06219162 2504533
1.6639665 0.50870585 0.061865117 2702176
1.6666203 0.5108943 0.061470341 3952771
1.6323218 0.4768135 0.06498988 6979500
1.6342115 0.47907829 0.065168969 6519206
1.6361411 0.4815349 0.064993039 6782895
1.637869 0.48397207 0.063996084 6915258
1.6399887 0.48625124 0.064132467 6783414
1.642002 0.4888826 0.064060546 6651314
1.6438825 0.49056023 0.064216413 6387626
1.6466675 0.49435121 0.061375141 4085121
1.6585506 0.50520062 0.06054562 3950946
1.6603267 0.50743449 0.061131455 4280182
1.6318706 0.48032182 0.064153217 7242677
1.6343069 0.48309559 0.064440183 6650796
1.6369953 0.4858532 0.063792661 7442121
1.645937 0.49641055 0.061143883 4874628
1.6681533 0.43351442 0.11568822 527406
1.6698 0.4353984 0.11580329 856109
1.6795566 0.44668943 0.1131479 1513774
1.6576838 0.42568868 0.11463109 1055296
1.6603985 0.4279772 0.11456598 2962772
1.6616081 0.42959058 0.114758 3094099
1.6634777 0.43207246 0.11490405 1843272
1.6656554 0.43441623 0.11482415 2501704
1.6680297 0.43717313 0.11435981 1317434
1.669807 0.43836308 0.11299454 790581
1.6711435 0.44171786 0.11261441 987954
1.6739197 0.44390368 0.11201736 1514805
1.6756932 0.44608855 0.11243795 1185066
1.6776179 0.44739938 0.11307493 1382447
1.6519026 0.42334253 0.1139642 1715566
1.6538985 0.42388326 0.11420661 1187658
1.6557519 0.42718154 0.11401869 1319499
1.65818 0.42904228 0.11415086 1450308
1.6599052 0.43165308 0.11380638 1581121
1.6617844 0.43392015 0.11315748 1910083
1.6638699 0.43564576 0.11251642 2370376
1.6657128 0.4380008 0.11178885 3028563
1.6680475 0.44026023 0.1118286 2502475
1.6699177 0.44250137 0.11146721 2304581
1.6718699 0.44450778 0.11112952 2502215
1.6738715 0.44682682 0.11032689 2172484
1.6758456 0.44867533 0.10979031 2238789
1.6777422 0.45092559 0.10913323 2370116
1.6843038 0.45852137 0.10797265 2237746
1.6486254 0.42182708 0.11237676 5858972
1.65012 0.42416012 0.11307567 4478099
1.6524339 0.42645043 0.11290666 3820160
1.6536236 0.42828083 0.11293308 2833270
1.6559602 0.43061513 0.11232471 1847647
1.6583294 0.43315226 0.11139181 2504802
1.6601562 0.43508929 0.11125955 3293539
1.6615973 0.43747514 0.11124895 3687010
1.6642227 0.43932885 0.11138843 3291992
1.6660509 0.44188911 0.1109634 3160921
1.6678569 0.44373876 0.11054792 3095126
1.6707224 0.44655305 0.11014096 2765387
1.6721926 0.44837004 0.10971808 2634059
1.6741885 0.45011252 0.10899214 2041924
1.676344 0.45255542 0.10849948 1777978
1.6783203 0.45478392 0.10818976 1777718
1.6801829 0.45698357 0.10771847 1842738
1.6826657 0.45894676 0.10665502 2039859
1.6838388 0.46123403 0.10621247 2171449
1.6859202 0.46316671 0.10607851 2238013
1.6465681 0.42326123 0.11191951 6187926
1.6486135 0.42523611 0.11170654 5925008
1.6496401 0.42775738 0.11138166 6713497
1.6532935 0.43056005 0.11016881 7108006
1.654618 0.43210715 0.11014554 6385058
1.6565495 0.43435341 0.10994695 5728425
1.658282 0.43659657 0.10967167 3492739
1.6606144 0.43887681 0.10929118 3753582
1.6627257 0.44053614 0.10903515 3752806
1.6646571 0.44273901 0.10849927 3358047
1.6656835 0.44536567 0.10850985 3094875
1.668678 0.44750506 0.10829452 2963799
1.6698656 0.44975877 0.10817758 2963799
1.671985 0.45156658 0.10811292 2635598
1.6740737 0.45363778 0.10704282 2240842
1.6762922 0.4553228 0.10619631 1319486
1.6786467 0.45750338 0.10656716 725799
1.6801281 0.46085024 0.10598531 1908787
1.6819298 0.463045 0.10550834 2500924
1.6431847 0.42263162 0.10963084 1252899
1.644691 0.42448193 0.11059982 3622725
1.6466737 0.42744637 0.10932221 2503970
1.6476382 0.42782402 0.11028109 5068893
1.6509478 0.43099755 0.10880734 7106170
1.6523407 0.43341243 0.10841884 7962522
1.6543803 0.43555588 0.107791 8359349
1.6562445 0.43791336 0.10841502 5136281
1.6588731 0.44072407 0.10841993 3949935
1.660712 0.44288951 0.10749394 3687527
1.662451 0.44414353 0.10761284 3490144
1.6721637 0.45547968 0.1060372 2766926
1.6799095 0.46427244 0.10463111 2567232
1.6417788 0.42416829 0.10833976 1843764
1.6419759 0.42556405 0.10916319 1581602
1.6447613 0.42864263 0.10733324 1909288
1.6473517 0.43126523 0.105786 2237732
1.6484503 0.43259078 0.10709238 3817506
1.6504869 0.43478513 0.10645659 6383716
1.6522621 0.43697494 0.10710107 8555174
1.6539388 0.43796867 0.10748811 9543360
1.6398318 0.42504346 0.10615072 856354
1.6397405 0.42716521 0.1068911 1053219
1.643263 0.42963248 0.10515358 1184293
1.6429787 0.43181121 0.10599439 1447202
1.646503 0.4337945 0.10466789 1776935
1.6484548 0.43516392 0.10468692 3620387
1.6492925 0.43775833 0.10543409 6185847
1.6386914 0.42838913 0.10449049 527383
1.6417007 0.43101948 0.10355137 855577
1.6414061 0.43319547 0.10451916 855323
1.6448786 0.43536985 0.10288166 1711925
1.6467776 0.43744791 0.10378684 1712154
1.6379151 0.42974484 0.10323665 527388
1.6378298 0.43197268 0.10251686 461855
1.6408159 0.43414295 0.10214975 790304
1.6430604 0.43657613 0.1018234 1581378
1.6363292 0.43414152 0.10056587 659234
1.640456 0.43605399 0.099859253 987683
1.6410387 0.43817246 0.099204436 1580076
1.6362611 0.43478578 0.098409407 725280
1.6395547 0.43993592 0.097429603 1448746
1.6402779 0.44089317 0.098099351 1974829
1.6378157 0.44126999 0.094788596 1053992
1.6389403 0.44232893 0.096191719 1251885
1.6502438 0.48674625 0.070986845 5991071
1.6532037 0.48932379 0.070731394 4147837
1.6585251 0.49500132 0.070084818 264228
1.6704915 0.50843149 0.06804511 2772860
1.6715901 0.51123893 0.068768792 7768243
1.6437755 0.48295635 0.070183873 5927591
1.6466792 0.48427737 0.071048044 5926818
1.6478057 0.48788232 0.070741527 5992871
1.6502358 0.48914886 0.070106521 6188965
1.6515996 0.49223083 0.07039845 6188711
1.6544902 0.49447203 0.069411799 5135246
1.6568364 0.4958275 0.069109641 2305113
1.6570263 0.49876088 0.068922758 3688044
1.6603047 0.50046468 0.06792637 726568
1.6614773 0.5029254 0.068350017 1318720
1.6632183 0.50492072 0.067766689 1056836
1.6662037 0.50752062 0.06698744 2574444
1.6681647 0.50909704 0.068297215 6192302
1.6708542 0.51184112 0.066265292 8689338
1.6342316 0.47579569 0.069964103 6322086
1.6375039 0.47787702 0.070067666 6124965
1.6394339 0.48036218 0.070156351 6059173
1.6412907 0.48333764 0.069275558 6190502
1.6431576 0.48560178 0.06959556 6124454
1.6448715 0.48733658 0.068809234 6519205
1.6469562 0.48873454 0.068559051 6584741
1.6479832 0.49095589 0.068213023 6847654
1.6503413 0.49326867 0.067551747 5596044
1.6527157 0.49552596 0.067562692 5793683
1.6543541 0.49823534 0.067411534 6451103
1.6564698 0.50022793 0.066318028 4148335
1.6581135 0.50156492 0.067595355 3162463
1.660146 0.50460285 0.065503404 2373461
1.6629124 0.50717002 0.064956538 3953534
1.6634395 0.50913948 0.065317295 7570354
1.6663549 0.51057982 0.065116324 7833269
1.6306148 0.4746421 0.068992585 6715802
1.6323577 0.47695994 0.068686068 6781859
1.6343682 0.47914892 0.068595558 6584997
1.6366522 0.48130953 0.068061009 6584997
1.6387429 0.48394156 0.067482725 6716324
1.6411252 0.48621786 0.067171723 6716324
1.6426139 0.48807836 0.066687301 6847653
1.6446284 0.49052018 0.067008533 6978981
1.6469125 0.49251974 0.066874169 6847398
1.6485736 0.49495214 0.066799112 6781091
1.6506357 0.4969874 0.066285178 6320286
1.6525621 0.49960369 0.065766886 5069949
1.6546712 0.50199652 0.064950861 4740725
1.6562643 0.50369161 0.065139562 5003385
1.6587951 0.50553077 0.064400345 4148331
1.6602783 0.50852203 0.063613884 6056596
1.6629789 0.51016438 0.063684404 7832748
1.6648111 0.5123269 0.063671418 9148606
1.6306536 0.47858101 0.067473233 7044769
1.6331427 0.48102409 0.067023449 6847649
1.6348972 0.48318112 0.066797391 6716321
1.6368444 0.48533434 0.066432245 6913444
1.6389487 0.48726028 0.066320062 6716322
1.6408938 0.48966593 0.066002876 6913703
1.6428922 0.49210024 0.065527283 6716326
1.6446524 0.49414152 0.065486632 6913447
1.6471794 0.49617594 0.064893536 6255778
1.6480203 0.4977513 0.064894132 6848433
1.6504614 0.50042522 0.064628176 5334418
1.6526504 0.50312191 0.063756876 6320542
1.6544721 0.50526679 0.063281715 5464461
1.6571993 0.50724643 0.063103363 5662094
1.6590657 0.509372 0.062921055 8096182
1.661697 0.51117039 0.062936947 7898801
1.6625134 0.51287585 0.063492715 9477317
1.6328396 0.48443013 0.065894991 6782114
1.6351626 0.48695987 0.064919055 6519719
1.6369419 0.48834425 0.064412847 6914999
1.6390748 0.49059004 0.063487925 6519212
1.6410475 0.49311823 0.063658088 6585260
1.6427438 0.4953804 0.063987188 6453671
1.6445012 0.49762863 0.063769773 6716590
1.6567805 0.51048446 0.062031686 2899559
1.659065 0.51253933 0.060716346 2506072
1.633445 0.48834538 0.063814543 6519467
1.6360856 0.49150562 0.063270263 6585261
1.6383152 0.49286479 0.063165486 6453677
1.6650786 0.43616724 0.11559464 856887
1.6662691 0.43794858 0.11698417 922166
1.6750485 0.44785559 0.11346695 1382447
1.6775448 0.45003927 0.11322445 1382192
1.6562388 0.43069381 0.11464179 1779276
1.6586859 0.43268919 0.11462741 1384516
1.6603925 0.43563294 0.11480957 1450305
1.6627882 0.43713015 0.11486559 1318205
1.6642631 0.4393822 0.114627 1383740
1.6669879 0.44201118 0.11369102 1383483
1.6685337 0.44387412 0.11367944 1120313
1.6706549 0.44606036 0.11352466 1185331
1.6724567 0.44846427 0.11383408 1251375
1.6749268 0.44989485 0.11356997 1316655
1.6503412 0.42732042 0.11373661 2833548
1.6531005 0.42959577 0.11435708 1649498
1.6548333 0.43202806 0.11383632 1715286
1.6568785 0.43434751 0.11422981 2107984
1.6585259 0.43689811 0.11392133 2371150
1.6611414 0.43895704 0.11312659 2962772
1.662761 0.44123828 0.11217448 3291991
1.6648133 0.44307333 0.11206955 3094612
1.666863 0.44493032 0.11156684 3094609
1.668862 0.44701177 0.11130194 2765643
1.670843 0.44981927 0.11026558 2700106
1.6732661 0.45178944 0.10992396 2370886
1.674446 0.45388186 0.10982376 1975610
1.6763389 0.45611757 0.10886919 1843241
1.6784457 0.45819092 0.1082975 1513260
1.6836123 0.4642784 0.10762762 2829378
1.6472344 0.42734343 0.11286531 6845878
1.6489909 0.4295153 0.11318743 5070246
1.6512583 0.43079364 0.11314464 4018318
1.652689 0.43385559 0.11340878 2111344
1.6550982 0.43581384 0.11218993 3162740
1.6569445 0.4376837 0.11129309 3690369
1.6588631 0.44012642 0.1113214 4017007
1.6610303 0.44247264 0.11125143 4015977
1.6628323 0.44455278 0.11105639 3423837
1.6648703 0.44703174 0.11067574 3489371
1.6670647 0.44897091 0.11000627 3226453
1.6688983 0.45082617 0.10974766 3095122
1.6708746 0.45314276 0.10947396 2765644
1.6729558 0.45554978 0.10915343 2239301
1.6753552 0.45771497 0.10851747 1251378
1.6768029 0.45943218 0.10775423 1316656
1.6782562 0.46095419 0.10828281 2171442
1.6823404 0.46507311 0.10708903 2763329
1.6822348 0.46635711 0.1052779 3422028
1.6454109 0.42824292 0.11219573 7437746
1.6476812 0.43050253 0.11060809 6384508
1.6487306 0.43320471 0.11164701 7831737
1.651551 0.43425876 0.1110521 7108270
1.6532266 0.43705362 0.1103484 8161474
1.6549549 0.43934745 0.11016653 6650283
1.6570897 0.44142538 0.10956214 3361666
1.6590815 0.44340134 0.10921626 3884393
1.6612263 0.44603539 0.10814483 3094616
1.6634924 0.44744402 0.10871316 2897749
1.6650664 0.45003653 0.10853264 2963541
1.666785 0.45230877 0.10765827 2898257
1.6690253 0.45441431 0.10725549 2963794
1.6703126 0.45661783 0.10679744 3226710
1.6742024 0.45938706 0.10782196 1317434
1.674895 0.46355414 0.10637397 2303541
1.676852 0.46329212 0.10610875 2369343
1.6794903 0.46589482 0.10469773 2501442
1.680598 0.46811366 0.10548489 2568001
1.6423738 0.42721039 0.10973279 1517083
1.6429988 0.42933506 0.11084948 4281172
1.6453824 0.43185014 0.10923067 2898464
1.6466286 0.43356973 0.11055951 6712968
1.6493621 0.43638831 0.10866179 7500398
1.6510962 0.43816227 0.10876154 8948917
1.6531688 0.44047523 0.10766184 6516640
1.6559765 0.44304663 0.10814674 3754103
1.6570165 0.44534862 0.10800521 3554911
1.659557 0.44783688 0.10778271 3094616
1.6630552 0.45165187 0.10713176 2569036
1.66554 0.45433402 0.10707955 2701132
1.6671286 0.45584649 0.10605685 2832204
1.6761919 0.46625477 0.10515977 2631733
1.6777523 0.46694386 0.10435651 2566208
1.6401246 0.42874551 0.10832416 1316402
1.6404016 0.43027633 0.10916691 1252129
1.6433021 0.43365955 0.10733977 1382940
1.6466501 0.43538189 0.10668392 2830357
1.6472473 0.43746042 0.10701342 3027479
1.6494732 0.43964565 0.10641053 6712969
1.651022 0.44262356 0.10650313 5923722
1.6543074 0.44412947 0.10678509 5267340
1.6386424 0.43233532 0.1062692 921128
1.6418159 0.43537378 0.10546531 789278
1.6447954 0.43688613 0.10454559 1317415
1.6456162 0.4391045 0.10498242 1711651
1.6473879 0.4412511 0.10505989 3028526
1.6495484 0.44385141 0.10571761 4804705
1.6375284 0.43443894 0.10427106 1644601
1.6404605 0.43661457 0.10456884 1184042
1.6430124 0.43865007 0.10271057 1316133
1.6438589 0.44023108 0.1035336 1382960
1.6461378 0.44303733 0.1037966 2106925
1.6366448 0.43567276 0.10319281 1249838
1.6361502 0.43811059 0.10205404 1053232
1.6398091 0.43986034 0.10157712 2040891
1.641976 0.44166517 0.1018552 1254493
1.6435055 0.44333041 0.1023891 134206
1.6347302 0.43646389 0.099246554 790822
1.6354985 0.43813592 0.10060446 790823
1.6384759 0.44221967 0.098631427 1382700
1.6411097 0.44554633 0.10019598 3756178
1.6351249 0.44089067 0.098124444 856104
1.6357729 0.44484621 0.095615417 987694
1.6359301 0.44742805 0.093223765 661298
1.6359248 0.44877809 0.09468922 924215
1.6669841 0.51082444 0.068110928 8492736
1.6453992 0.49029487 0.070286974 6124714
1.6482743 0.4928838 0.070044592 6124202
1.650286 0.49549633 0.069722794 6059952
1.6515183 0.49865216 0.06922172 7309243
1.6533709 0.49857408 0.069074966 7571389
1.6553562 0.50222343 0.068822727 8162489
1.6580248 0.50378335 0.06890548 7042980
1.6592479 0.50696629 0.068512432 7899840
1.6614753 0.50826591 0.068445571 6979254
1.6636603 0.51028425 0.068495743 8821189
1.6654878 0.51245791 0.067296751 9281480
1.6363418 0.48388928 0.069502994 6191016
1.6381297 0.48648226 0.069467776 6256297
1.6402903 0.48664719 0.069193795 6256041
1.6416312 0.48927379 0.069096819 6322089
1.6425781 0.49161804 0.069368556 6387883
1.6456459 0.4944126 0.068570539 6453675
1.6479708 0.49652845 0.068804733 5861794
1.6493397 0.49806327 0.067738488 6979761
1.6515703 0.50044066 0.067686215 7242418
1.6537149 0.50247473 0.066615507 7636144
1.6551085 0.50532752 0.066790089 8359869
1.6574982 0.50672662 0.065393761 7898548
1.6597891 0.50986791 0.065657049 9017279
1.6622493 0.51192492 0.065674573 9412034
1.6325297 0.48225653 0.068755336 6715815
1.6337153 0.48448718 0.068378091 6650793
1.6357983 0.48656422 0.068030819 6584742
1.6378782 0.48913968 0.067725673 6716328
1.6396203 0.49103928 0.067118645 6584997
1.641608 0.49284869 0.067027003 7110568
1.6431317 0.49483544 0.066828251 7242411
1.645617 0.49754477 0.066259384 7110568
1.64783 0.49980724 0.066216655 7307948
1.6498303 0.50200516 0.065933317 7373481
1.6516266 0.50440067 0.065515161 7044001
1.6534363 0.50637007 0.065137677 7833261
1.6557045 0.50879443 0.064945847 8556985
1.6575322 0.51081675 0.064366989 9017536
1.659869 0.51304877 0.06426993 9214656
1.6338538 0.48810709 0.066464946 6979238
1.6357137 0.49039412 0.066146262 6847653
1.6377418 0.49246776 0.06612803 6782116
1.6397918 0.4946183 0.065704241 7176616
1.6418233 0.49720061 0.065344922 7176618
1.6437076 0.49899536 0.065314367 7110826
1.6460679 0.50108021 0.065204591 6913705
1.6479115 0.50380135 0.064412825 6979243
1.6504004 0.5056113 0.064448409 7176364
1.6515107 0.508147 0.063981183 7439536
1.6535261 0.50985867 0.062813729 6978727
1.6548593 0.51184434 0.062653169 7110573
1.6573499 0.51450098 0.062021833 6386591
1.6337303 0.49161851 0.064811245 6651046
1.6359856 0.49364644 0.064410478 6519464
1.6382327 0.49596083 0.064622901 6584998
1.6403073 0.49842107 0.063584663 6387623
1.6421525 0.50042027 0.063772485 6387620
1.6436071 0.50293976 0.063326545 6321824
