# .PCD v0.7 - Point Cloud Data file format
VERSION 0.7
FIELDS x y z rgba
SIZE 4 4 4 4
TYPE F F F U
COUNT 1 1 1 1
WIDTH 1206
HEIGHT 1
VIEWPOINT 0 0 0 1 0 0 0
POINTS 1206
DATA ascii
1.450375 0.55094779 0.21012139 2635880
1.4528196 0.55119151 0.21006763 2765930
1.4553263 0.55157274 0.21011943 2044747
1.4585192 0.55502135 0.20926005 2696549
1.4608461 0.55513036 0.20920229 2367562
1.4630197 0.55520087 0.20730805 2172735
1.4659261 0.55528295 0.20761931 1188923
1.3962829 0.53296852 0.22135258 1841194
1.3997662 0.53290159 0.22099662 1906728
1.4076892 0.53727305 0.2189188 2959906
1.410853 0.53695786 0.21877462 3024931
1.4235208 0.54396588 0.21530336 1187116
1.4261674 0.54374206 0.21433246 991505
1.4279841 0.54461324 0.21282065 1645576
1.432019 0.54606438 0.21270561 4341046
1.4345185 0.54582983 0.21310526 4866116
1.4407916 0.55141109 0.21068025 2501734
1.4432358 0.55114776 0.20986581 2833262
1.4457648 0.55193359 0.20971256 3225723
1.4482735 0.5520196 0.20912433 3553895
1.4516126 0.55472088 0.20757502 1847624
1.4541018 0.55470526 0.20747793 1910588
1.4572613 0.55520612 0.20715892 2108999
1.4600204 0.55549914 0.20665818 2172995
1.3848548 0.53196055 0.22237402 1972520
1.3866193 0.5312348 0.22150519 1972775
1.3893273 0.5320822 0.22066009 1776167
1.393132 0.53275841 0.22151434 1841700
1.4011017 0.5370447 0.21773899 2958385
1.4037678 0.53710121 0.2181502 2893355
1.4061033 0.53623438 0.21715039 2892839
1.4147691 0.543414 0.21486604 3418927
1.4164767 0.54353774 0.21440971 2762029
1.4203807 0.54435122 0.21358931 3025979
1.4226649 0.54437733 0.21273929 2304294
1.4254782 0.54607618 0.21273589 3552814
1.4285502 0.54604065 0.21177703 3489065
1.4336617 0.54989028 0.21004319 3292018
1.436255 0.55012578 0.2092241 3358347
1.4392996 0.55111194 0.20871663 2702181
1.4417334 0.55142939 0.20898402 3160660
1.4446701 0.55269909 0.20744091 2631488
1.4475245 0.55428982 0.20710564 1715536
1.4500608 0.55440378 0.20733577 1584995
1.3808265 0.53200579 0.22085381 1906980
1.3839738 0.53109133 0.22082448 1972771
1.38625 0.53408355 0.22065449 3156268
1.3893366 0.53501177 0.21873927 2958639
1.3939607 0.53718561 0.21710873 3156521
1.3969069 0.53705251 0.21725082 2893351
1.3992338 0.53682071 0.21718568 2958889
1.4092448 0.54364383 0.21380228 1581061
1.4136988 0.54383469 0.21266752 2040878
1.4169343 0.54421055 0.21217561 2499372
1.418503 0.54466522 0.21222508 1383462
1.4209647 0.54502738 0.21177751 4076356
1.4241486 0.54579139 0.21029073 3487029
1.4300764 0.55086309 0.2092191 3424874
1.4323478 0.55049527 0.2079227 2963007
1.4354395 0.55157483 0.20744717 2831180
1.4377989 0.55293256 0.20696181 2698585
1.4412975 0.55352378 0.20636702 2763349
1.4439363 0.55378449 0.20568842 2500647
1.3768885 0.53180224 0.21986139 1841449
1.3798901 0.53270489 0.21862662 2368046
1.3818336 0.53297675 0.21911693 2826805
1.3853 0.53451133 0.21752131 3089718
1.3880013 0.53460026 0.21790391 3090230
1.3919631 0.53641891 0.21586722 2761006
1.3929619 0.53680223 0.216488 2958637
1.3989629 0.54182476 0.21387935 665133
1.4007348 0.54164481 0.21321678 1056811
1.4039561 0.54216188 0.21299201 1120547
1.4065403 0.54336321 0.21223831 1252385
1.4096913 0.5443235 0.2114138 2368540
1.4118701 0.54437017 0.21207768 2828574
1.4155024 0.54437196 0.2104848 1644825
1.4231699 0.55048686 0.2074194 3359312
1.4257016 0.5509842 0.20807678 3814015
1.4287322 0.55125451 0.20692086 2766413
1.4314584 0.55150372 0.20672023 3096153
1.4341969 0.55321395 0.20534134 1846834
1.436808 0.55355185 0.20530498 2173236
1.3706217 0.5318045 0.21910638 1906982
1.3731633 0.53185004 0.21845627 2104103
1.3763231 0.53372371 0.21889609 2565679
1.3780594 0.5341211 0.21612263 3024938
1.3954204 0.54137397 0.21178657 1578535
1.3971188 0.54143864 0.2125175 1515300
1.4007421 0.54277617 0.21111482 1973539
1.4028095 0.54503655 0.21044242 2629416
1.4055376 0.54403722 0.21029407 2696235
1.4080886 0.54395425 0.21010679 1187114
1.4190835 0.55124205 0.20616639 3095897
1.4216287 0.55134165 0.20555341 3093831
1.4247843 0.55225462 0.20568204 3027544
1.4276049 0.55316746 0.20446539 2371148
1.430784 0.55359018 0.20422137 1846337
1.360899 0.53178984 0.21912616 1972519
1.3634515 0.53130913 0.21815515 1906726
1.3667068 0.53189349 0.21777558 2104357
1.3690257 0.53266752 0.2171306 2695978
1.3718127 0.53415012 0.215379 2959145
1.3743098 0.53440082 0.21607095 2959145
1.3883282 0.54251879 0.21200472 1384732
1.3903437 0.54197729 0.21088392 1515292
1.3933344 0.54254246 0.21069074 1644573
1.3954653 0.54363585 0.21001148 1708837
1.3983819 0.54394501 0.20954156 2103326
1.4139787 0.55067492 0.20657957 2765415
1.4157485 0.55122513 0.20497608 3225949
1.4183254 0.55102164 0.20549858 2764886
1.4215245 0.55401868 0.20493764 1581141
1.4233356 0.55346137 0.20334232 2566498
1.4268249 0.55472255 0.20324755 2304142
1.3539305 0.53093666 0.21854246 1972774
1.3566471 0.53099185 0.2171815 1906728
1.3596497 0.53166866 0.21692187 2235687
1.3618649 0.53300875 0.21617901 3090218
1.3650677 0.53282875 0.2162872 3091233
1.3840711 0.54237539 0.21045363 1970995
1.3864406 0.54213989 0.21010447 1775644
1.3893212 0.54297256 0.20964301 1971499
1.3919108 0.54341489 0.20891255 1840944
1.3973037 0.54413593 0.20772743 2300456
1.4034449 0.5500831 0.20533657 2437198
1.4054517 0.55042291 0.20530504 2436691
1.4084319 0.55073595 0.20446748 2698096
1.4113001 0.55116087 0.20437694 2764386
1.4135832 0.55101287 0.20398641 2568524
1.4165338 0.55395877 0.20205086 1978205
1.4200104 0.55402863 0.20198733 1714009
1.4223483 0.55364925 0.20152068 2104404
1.3449717 0.53015405 0.21802461 2103849
1.347483 0.53047162 0.21712208 2564393
1.3495221 0.53040034 0.21637374 1907238
1.3527031 0.53074294 0.21744716 1972517
1.355651 0.5330314 0.21544701 3090731
1.3585109 0.53427714 0.21406269 3352609
1.3671162 0.53848159 0.21291524 1384510
1.369097 0.53814209 0.21240216 1450036
1.3715889 0.53862959 0.21211892 1384735
1.3779355 0.54239756 0.21072733 1452061
1.3803318 0.54245102 0.20931309 1382679
1.3829433 0.54262954 0.20901412 1514276
1.3881631 0.54305643 0.2073471 2102068
1.3936764 0.5488022 0.20609099 2569021
1.3963373 0.54896867 0.20500517 2173283
1.3991964 0.54965597 0.20468694 2370643
1.4018663 0.54999703 0.20425278 2371396
1.4051384 0.55075723 0.20359683 2502720
1.4077637 0.55285442 0.20242 2106721
1.4101665 0.55307078 0.20129037 1975882
1.412884 0.55372316 0.20192254 2108221
1.3410385 0.52983135 0.2160306 2169127
1.3437171 0.5305956 0.2164166 2630444
1.3461717 0.53032768 0.21595013 2498856
1.3494649 0.53237599 0.21375549 3090480
1.3529291 0.53297257 0.21502995 3090735
1.3556137 0.53377175 0.21292305 2762020
1.3573112 0.53351325 0.2127192 3154716
1.365145 0.53918874 0.21125245 1449026
1.3675778 0.53926098 0.20969802 1514025
1.3707943 0.54079598 0.20940965 1710112
1.3737335 0.54221421 0.208166 1514774
1.3764461 0.54248929 0.20848697 1318427
1.3787985 0.54296726 0.20758533 1253913
1.3810017 0.54265994 0.20713001 1057303
1.3870203 0.54844767 0.20575988 1842786
1.3900317 0.5487864 0.20480078 2567502
1.3926713 0.54944611 0.20339644 2763861
1.3954432 0.5498634 0.20345235 2304853
1.3978133 0.55068725 0.20332038 2632260
1.400627 0.55236912 0.20145184 1844000
1.4034995 0.55295843 0.20139503 2171960
1.4061208 0.55299729 0.2013818 2565683
1.3320544 0.52959532 0.21653712 2959146
1.3347228 0.52993506 0.21541685 2038822
1.337123 0.53041154 0.21575451 2498345
1.3399937 0.53028846 0.21522272 2958633
1.3583887 0.53970337 0.20994967 1449236
1.3610841 0.53930944 0.2093699 1450027
1.3642038 0.54028463 0.20896864 1251884
1.3670614 0.54129493 0.20778644 1380398
1.3703187 0.54186147 0.20782554 1642781
1.3725878 0.54208624 0.20691109 1643029
1.3755294 0.54366553 0.20482713 1381406
1.3826946 0.54856783 0.20382625 1843531
1.3858423 0.54904401 0.20285285 2500167
1.3887603 0.5494566 0.20267504 2436176
1.3919083 0.55074465 0.20098674 1975637
1.3940456 0.55200535 0.20112705 2304582
1.3968222 0.55205905 0.20066094 2368605
1.3991271 0.55209649 0.20062608 2565180
1.3250446 0.52971083 0.21595299 3352866
1.3273931 0.5288679 0.21493018 3156011
1.3302798 0.52995938 0.21545601 2432810
1.3329209 0.53022796 0.21430898 2433316
1.3350841 0.52976865 0.21353626 2433063
1.3505234 0.53908783 0.20995343 1320718
1.3544456 0.53904903 0.20823616 1252113
1.3574135 0.5389846 0.20815146 1252129
1.3594676 0.53955829 0.2068696 857115
1.364507 0.54118639 0.20708287 1315868
1.3674179 0.54207301 0.20557266 1380405
1.3768313 0.54938734 0.20296818 1448515
1.3791076 0.55000687 0.20275718 1844796
1.3819351 0.54962748 0.20187873 2698024
1.384665 0.55052549 0.20133531 2172489
1.3871573 0.55128503 0.20062339 1909579
1.3902557 0.55194044 0.20002389 1449840
1.3925828 0.5523141 0.19964111 1648974
1.3207511 0.52937073 0.21475941 2630180
1.3236907 0.52932912 0.21428406 2367525
1.326311 0.52975798 0.21340263 2236197
1.3300092 0.52964097 0.21284044 2827828
1.3449233 0.53873253 0.20827806 1249828
1.347876 0.53915727 0.2083472 1250334
1.3509889 0.53954774 0.20768839 1251354
1.3528287 0.53974223 0.20830482 1318955
1.3725367 0.5491488 0.20144308 1975608
1.3753705 0.54963779 0.20099497 1778742
1.3780205 0.55004025 0.20025098 2171955
1.3808105 0.55094045 0.20008469 2106436
1.3833452 0.55179489 0.19914567 2434128
1.386282 0.55239701 0.19788802 2370625
1.3139864 0.52933413 0.21426171 2170150
1.3166625 0.52922237 0.21303272 2104103
1.3189205 0.52968955 0.21277207 2498856
1.3221107 0.52994585 0.21228933 2894369
1.3362756 0.53676885 0.20748973 1713465
1.3382602 0.53835022 0.20802343 1382438
1.3415458 0.53947014 0.20796096 1710620
1.344203 0.53905559 0.20654392 1316636
1.3469763 0.53936571 0.20632315 1249822
1.3489945 0.53910333 0.20563805 1711644
1.3657933 0.54874849 0.20066535 1908015
1.3688027 0.54850471 0.20065778 1317710
1.3711323 0.54926634 0.19954461 1975613
1.3743584 0.5513891 0.19912654 2106412
1.3766508 0.55270833 0.19840485 1580829
1.3794178 0.5524478 0.19791663 1777481
1.307526 0.52925593 0.21338022 2432808
1.3105451 0.52952772 0.21194696 2367015
1.3128408 0.52966297 0.21224481 2498854
1.3160242 0.53030205 0.21224546 2958632
1.3324376 0.53737998 0.20671517 1845541
1.3344065 0.53870237 0.20682639 857126
1.3378193 0.53976828 0.20492506 725282
1.3407428 0.53944665 0.20558619 1054998
1.3541377 0.54705125 0.20100796 2433842
1.3556423 0.54709816 0.20152253 2171186
1.3594198 0.54831803 0.20119888 2497316
1.3620631 0.54939121 0.19982374 1908277
1.3645922 0.54951525 0.19931346 2236984
1.3678132 0.55045831 0.19861436 1975352
1.3702255 0.55148512 0.19772655 989479
1.3734497 0.55217499 0.19742829 1514030
1.3758184 0.55209756 0.19693172 1842204
1.2862589 0.52325588 0.21611542 7893091
1.291976 0.52574843 0.21530843 2168859
1.2939262 0.52687317 0.21427852 2366759
1.3016256 0.52891219 0.21213269 2367270
1.3035109 0.52918077 0.21271467 2564392
1.3063626 0.52966571 0.21094644 2695724
1.30922 0.52981442 0.21134079 2630438
1.3142053 0.5316838 0.20864028 3089695
1.3252045 0.53839469 0.20661199 921608
1.3282518 0.53910649 0.20515943 1709329
1.3306051 0.53898621 0.20551491 1448472
1.3333263 0.53971142 0.20373297 790040
1.3366119 0.53950685 0.20424271 725281
1.3499386 0.54688025 0.20010364 1908777
1.3524876 0.54687244 0.2002399 1580337
1.3548487 0.54870403 0.19945967 1448001
1.3582298 0.54957843 0.19873023 1909047
1.3602731 0.55015522 0.19717681 1252143
1.3639276 0.55213022 0.19657886 924436
1.3663247 0.55186772 0.19687825 1186347
1.2807993 0.52303088 0.21497929 9930368
1.2830235 0.52303725 0.21486795 9930367
1.2864537 0.52307141 0.21437448 8812662
1.2885611 0.52476668 0.21378958 5523781
1.2913578 0.5259636 0.21317387 2168859
1.294687 0.5265947 0.21228391 2235434
1.2972583 0.527946 0.21253943 2367017
1.299504 0.52952141 0.21065634 2761511
1.302068 0.52936327 0.20987338 2892583
1.305073 0.52962494 0.20986629 3221290
1.3118908 0.53564227 0.20764852 1845291
1.3165083 0.53733432 0.20627815 985140
1.3182493 0.53682697 0.20575911 1053465
1.3207922 0.5384444 0.20510256 1580310
1.3238765 0.53832275 0.20427912 1514526
1.3271401 0.53909045 0.20399261 1710612
1.3411392 0.54684025 0.1997267 1777702
1.3437028 0.54678673 0.19890463 1712178
1.3460865 0.54747283 0.19893086 2170927
1.3484991 0.54785204 0.19816738 1580587
1.3512421 0.54955405 0.19761562 1580337
1.3541548 0.55023998 0.19710815 1580084
1.3569312 0.55085957 0.19642723 1121312
1.3598253 0.55163717 0.19579685 1120812
1.3621978 0.55221665 0.19608527 1123084
1.2798648 0.52287376 0.21408319 9732990
1.2888801 0.52599728 0.21167892 4669777
1.2908311 0.52825725 0.20975369 1774885
1.292704 0.52844524 0.21027255 2367264
1.2951174 0.52987355 0.20914006 2828325
1.2980636 0.52974051 0.20928216 2696991
1.3028167 0.5337553 0.2071768 2171693
1.3054932 0.53470492 0.20701987 1713185
1.3089794 0.53537929 0.20553684 1383707
1.3121005 0.53625017 0.20521665 1119768
1.3148718 0.53708404 0.20450926 1449521
1.3182917 0.53778809 0.20410693 1383198
1.3203015 0.53867871 0.20346141 1383713
1.3222836 0.5394308 0.20378524 594186
1.3372102 0.54707605 0.19933063 2234652
1.3385849 0.54677689 0.19807106 1711135
1.3422633 0.54755771 0.19741297 1514274
1.3448864 0.54856324 0.19690967 1843243
1.3478389 0.54995215 0.19589257 1646376
1.3502148 0.55011493 0.19613123 1317156
1.3533107 0.55047661 0.19526982 1055025
1.3552052 0.5508613 0.19485945 1186082
1.3000513 0.53401911 0.20543474 1715500
1.3033952 0.53505355 0.20477974 1579552
1.3059443 0.53558922 0.20465714 1316900
1.3093514 0.5364821 0.2031936 658964
1.3102608 0.5356949 0.20342475 1779748
1.3129071 0.53708696 0.20294636 1845040
1.3302835 0.5464347 0.19765949 1515558
1.3327565 0.54666197 0.19756597 1252635
1.3356421 0.54705817 0.19715929 1448737
1.3377655 0.54822004 0.19671559 1777713
1.3406675 0.54948533 0.1955837 1909028
1.3435172 0.55096465 0.19506264 1119244
1.3462322 0.55085588 0.19444835 988957
1.2776616 0.52835864 0.20782965 10326176
1.2787958 0.52902156 0.20897812 10326181
1.2820987 0.52977121 0.20812017 10261403
1.2851242 0.5305351 0.20670426 7104633
1.2876772 0.53207386 0.20677859 2040629
1.289207 0.53391588 0.20577973 2371126
1.2960013 0.53524613 0.20508283 1514276
1.2988228 0.53561008 0.20373446 1316382
1.3011218 0.5358789 0.20366323 1117719
1.3059788 0.53640056 0.20233971 986656
1.3230041 0.54609835 0.19688934 1839928
1.32631 0.54622233 0.19702458 1645354
1.3290905 0.54689056 0.19700521 1252632
1.3316548 0.54799861 0.19627827 1645357
1.3337306 0.54891872 0.19485086 1712172
1.3370489 0.55012017 0.1939711 1119780
1.3395447 0.55078518 0.19347662 1250315
1.34157 0.55063361 0.19364607 1381653
1.2779515 0.52948993 0.20589101 10326428
1.2803501 0.52923566 0.20629621 10326423
1.2895625 0.53446054 0.20320725 1909034
1.2921394 0.53516912 0.20316255 1974312
1.2950535 0.53597045 0.20223629 1777967
1.2968761 0.53639728 0.20331246 1249818
1.3193718 0.54615295 0.19603628 1709331
1.3216182 0.54609722 0.19662333 1709870
1.3240368 0.54835969 0.19481367 1711417
1.3275871 0.54871887 0.19420975 1317410
1.3304812 0.54938984 0.19460112 1841970
1.3326246 0.55161715 0.19357467 988183
1.3350936 0.55165887 0.19175458 791080
1.3130287 0.5464772 0.19518793 1644568
1.3154278 0.54680067 0.19494319 1578530
1.3177294 0.5478605 0.19404346 1513514
1.320989 0.54889733 0.19391859 1316645
1.3235683 0.54916722 0.19380313 1054506
1.3259422 0.55153489 0.19178671 856611
1.3288738 0.55191261 0.19102252 988706
1.331524 0.55213952 0.19119263 857626
1.2897505 0.53922099 0.1992994 9736345
1.30276 0.54614013 0.1956085 1973790
1.3057389 0.54570109 0.19453818 1644835
1.3087869 0.54641366 0.19436026 1512995
1.3114947 0.54740447 0.19363832 1316391
1.3141999 0.54805571 0.19260275 1382427
1.3168398 0.54909348 0.19284785 987427
1.3201098 0.55051142 0.19130123 1052955
1.3227847 0.55064654 0.19134074 790307
1.325372 0.55104983 0.19021463 1053217
1.2808805 0.53935039 0.19842333 8684954
1.2829359 0.53972143 0.19841492 8882079
1.2860476 0.54063195 0.19704038 10789280
1.2880909 0.54042029 0.19689411 8092021
1.2901202 0.54167646 0.19606185 921610
1.2995043 0.54585701 0.19436485 1318183
1.3018572 0.54636031 0.19377166 1514537
1.3044931 0.54710448 0.19302964 1316913
1.3074539 0.54753405 0.19255447 1053989
1.3094157 0.54790318 0.19122058 1382452
1.2793989 0.54076517 0.19686961 10790069
1.2815403 0.54076058 0.19612235 9934237
1.2842617 0.54112399 0.19578016 9736353
1.2863957 0.54288572 0.19467908 7697793
1.2886053 0.54438859 0.19460148 2434096
1.2927481 0.54565263 0.1933167 1578801
1.2952833 0.54633158 0.19257796 1578797
1.2981809 0.54648572 0.19225442 1513261
1.301231 0.5474658 0.19140726 1185319
1.3034387 0.54868805 0.19030553 856619
1.3062788 0.54864359 0.1899308 1053490
1.2756827 0.54148185 0.19454885 8421271
1.2778333 0.5413866 0.19470948 9475244
1.2801769 0.54184049 0.19424808 9210778
1.2873869 0.54376805 0.19252372 6974051
1.2891393 0.54524899 0.19186264 1776925
1.2911305 0.54621136 0.19174051 1382449
1.294015 0.54750943 0.19046026 1448237
1.2965481 0.54825252 0.19020683 1119776
1.2994027 0.54865324 0.19001019 922414
1.2716402 0.54211497 0.19313931 8620707
1.2737142 0.54186231 0.1934216 8685970
1.2766253 0.54246324 0.19285381 5201248
1.2786827 0.5434255 0.19369227 8947598
1.2919309 0.54736006 0.18850261 1579829
1.2936575 0.54833978 0.18855059 1185323
1.295505 0.54895711 0.18896616 1119497
1.2783271 0.54710943 0.19000781 3358271
1.2769074 0.54766345 0.19001693 4276545
1.2792 0.549106 0.18645233 4342586
1.2766889 0.54992348 0.18645966 4343627
1.2778907 0.54956871 0.18533748 4342851
1.2755122 0.55151296 0.18244225 6184543
1.276379 0.5520193 0.18360031 5395030
1.2743101 0.55233932 0.18212664 4407878
1.6600337 0.54421079 0.25510788 9799558
1.6579957 0.54350448 0.2537975 9930895
1.6602859 0.54403937 0.25212592 9406346
1.6638854 0.54579741 0.25249761 9077128
1.659181 0.54509127 0.25086197 9866386
1.6524637 0.54668152 0.2500405 10195365
1.663624 0.55098617 0.24638253 9472649
1.6661807 0.55135268 0.24623543 9669011
1.6486452 0.54756558 0.24968642 3686222
1.6522959 0.54865807 0.24639928 9931424
1.6608346 0.55091918 0.24574578 9670548
1.6617001 0.55252457 0.24485162 10130065
1.6453304 0.54924548 0.24649185 1513747
1.6478769 0.54885781 0.24618608 724751
1.6505985 0.54891652 0.2466031 7041143
1.6528471 0.55042034 0.245258 11117492
1.6549536 0.55230522 0.2440387 10130851
1.6609166 0.55369753 0.24154633 10196114
1.6409113 0.54944515 0.24627846 1447724
1.6434575 0.54905736 0.24597281 1710370
1.6498611 0.55256981 0.24485672 2696759
1.6509844 0.55271482 0.24352768 6117991
1.6539474 0.55364823 0.24236172 10459808
1.6391981 0.55098122 0.24289143 1447974
1.6415954 0.55134428 0.24277243 1710888
1.644966 0.55379575 0.24168283 2564394
1.6479055 0.55333197 0.24190772 1841189
1.6507901 0.55496591 0.2406013 9276538
1.6529118 0.5549835 0.24042672 10196377
1.6335442 0.55032778 0.24127722 1512991
1.6349542 0.55162752 0.24340087 1381412
1.6379408 0.5522024 0.24204579 2171180
1.6406523 0.55330223 0.2399559 2302769
1.6437227 0.55428749 0.24063468 2236717
1.6466405 0.55587316 0.23892564 1973021
1.6493626 0.55676442 0.23875165 1710632
1.6515944 0.55731666 0.23884648 7563619
1.6265736 0.55095112 0.24140409 1775395
1.6284194 0.55110943 0.24144122 2103583
1.6318284 0.55235815 0.24082637 2170920
1.6347586 0.55230671 0.24048096 2499633
1.6360582 0.55537844 0.23971862 2105376
1.6398785 0.55547786 0.23835242 2104360
1.6426219 0.5562712 0.2382232 2039588
1.6451871 0.55701864 0.23751199 2236971
1.6479402 0.55720234 0.23725808 1580080
1.6196128 0.55150247 0.24146217 1644825
1.6219839 0.55066824 0.24043375 1579032
1.6251248 0.55206072 0.240174 2300467
1.628292 0.55293292 0.2396622 2563888
1.6307982 0.55419463 0.23828125 1843243
1.6333026 0.55517328 0.23850447 1580848
1.6361674 0.55609924 0.2373096 1908263
1.6384581 0.55678725 0.23696858 2236975
1.6410428 0.55720854 0.23585969 2041136
1.6443262 0.55725479 0.23564667 2368548
1.614843 0.5508092 0.23980346 1186594
1.6181134 0.55100203 0.23976243 1775909
1.6212572 0.55356842 0.23867628 2434092
1.6237922 0.55336636 0.23904729 2695239
1.6266398 0.55493468 0.2368637 2104876
1.6287346 0.55520493 0.23709232 1777198
1.6312953 0.55612457 0.23619342 2105647
1.6348809 0.55774009 0.23565054 2368300
1.639468 0.55819416 0.23481297 2499635
1.6090583 0.55058581 0.23876244 1644326
1.6114199 0.55103004 0.23877162 1579300
1.61491 0.55295306 0.23786402 1646127
1.6175526 0.55313176 0.23705345 2368295
1.6203052 0.55456436 0.23647577 1777957
1.6227462 0.55509216 0.2360338 1908766
1.6251833 0.55622005 0.23518234 2105379
1.6285663 0.55654144 0.23472083 2302508
1.6324694 0.55732942 0.23409167 2368548
1.5956463 0.54867911 0.23982143 1710372
1.5992676 0.54859024 0.24009073 1579539
1.6024252 0.54942036 0.23903984 1578785
1.6053988 0.55049574 0.23821408 1644326
1.6077166 0.55226564 0.23671025 2237238
1.6110032 0.55168223 0.23679194 2170920
1.6127803 0.55393779 0.23627049 1711920
1.6154381 0.5547241 0.23532894 1645881
1.6186156 0.55607873 0.23470384 1974818
1.621231 0.55640531 0.23362398 2434341
1.624086 0.55699426 0.23348272 2302506
1.5904397 0.54817212 0.23846027 1709863
1.5929753 0.54860181 0.2393586 1513270
1.5954373 0.54768884 0.23835331 1252388
1.5977477 0.55078763 0.2371681 2369830
1.6012344 0.55346704 0.23652405 2699281
1.6033678 0.55233359 0.23562729 2631724
1.6058927 0.55214655 0.23598105 2565960
1.6090146 0.55479503 0.23449332 1842980
1.6123711 0.55553532 0.23398763 1973295
1.6149853 0.55699009 0.23292986 2695735
1.6180174 0.55667436 0.23203987 2630181
1.5839816 0.54852456 0.23824388 1512993
1.586683 0.54861343 0.23862648 1578529
1.5890743 0.54774904 0.23763242 1513239
1.5912325 0.55124986 0.23608941 2763316
1.5942261 0.5507437 0.23621649 2566455
1.6008226 0.55255067 0.23523915 2698015
1.6027822 0.55490959 0.23426592 1515792
1.6056751 0.55586505 0.23289913 1974040
1.6082002 0.55605626 0.23282135 2236204
1.6111627 0.55669892 0.23259157 2564917
1.5768405 0.5486654 0.23761362 1841958
1.5789906 0.54799908 0.23683718 1907748
1.5829625 0.54817122 0.23758858 1644324
1.5831261 0.55031395 0.23537403 1776411
1.5877459 0.55073333 0.23513994 2369062
1.5897517 0.55239779 0.23500836 1776934
1.5923589 0.55364162 0.23385507 1380442
1.5955343 0.55435932 0.23343319 1646105
1.598479 0.55503851 0.23254454 1843472
1.6015737 0.55624193 0.23130018 2368803
1.6041182 0.556952 0.23164025 2236959
1.5724324 0.54800975 0.236139 1841958
1.5756515 0.54782963 0.23620129 1841958
1.5814267 0.55105007 0.23425463 2565169
1.5839005 0.55112034 0.23399264 2828587
1.5866617 0.55307436 0.23272601 1578780
1.5891806 0.55382967 0.23243353 1710623
1.592129 0.55497122 0.23175302 2170155
1.5950118 0.5561251 0.23068619 2236196
1.5975134 0.55748701 0.23035103 2499355
1.5999476 0.55743533 0.23044068 2762787
1.5658088 0.54788154 0.23518848 1382689
1.568907 0.54824919 0.23604175 1579558
1.5715517 0.54974008 0.23424798 2696233
1.5736901 0.55043268 0.2337462 2959410
1.5769202 0.55144757 0.23323515 3025972
1.5799047 0.55248427 0.23242247 2236965
1.5822295 0.55352622 0.23224735 1644586
1.5847807 0.55469203 0.23133683 2170673
1.5878248 0.55569261 0.22972739 2368298
1.5911829 0.55551463 0.22917807 2433837
1.5938283 0.55622572 0.22962913 2302755
1.5954053 0.55728304 0.22832334 2368548
1.559672 0.54836982 0.23514459 2105376
1.5630871 0.54782271 0.23477143 1187355
1.5657727 0.55017686 0.23482031 2567739
1.5679609 0.55068493 0.23262861 2697515
1.5701731 0.5503968 0.23282325 3025966
1.572735 0.55306852 0.23191583 1053720
1.576355 0.55382395 0.23142397 1513744
1.5787745 0.55380988 0.23065424 2301986
1.5823735 0.55501771 0.22991061 2565680
1.5855764 0.55586541 0.22906625 2498874
1.5532244 0.54790485 0.23372421 1842204
1.5559461 0.54796356 0.23414123 1841702
1.5585387 0.54974997 0.23229748 3945034
1.5608672 0.54969579 0.23250753 3025198
1.5642359 0.55014521 0.23171622 2697010
1.5661869 0.55240196 0.23153919 1710621
1.5690273 0.55369061 0.23014349 922657
1.5724068 0.55432808 0.22902417 1776173
1.5748357 0.55416107 0.22946376 2105129
1.5406535 0.54577732 0.23450917 2234151
1.5434057 0.54584771 0.23484594 2168860
1.5462389 0.54852235 0.23378214 2168860
1.5486854 0.54766023 0.23279411 2168860
1.5513718 0.5476867 0.23323971 1447446
1.5544882 0.55039382 0.23203877 3551026
1.5569006 0.54982233 0.23179603 2827575
1.5599124 0.55259621 0.23006144 1514519
1.5624532 0.55338562 0.22900957 1513748
1.5652263 0.55361784 0.22900379 1514261
1.5678132 0.55456698 0.22762918 1777954
1.570509 0.55543017 0.22829244 2104896
1.5343916 0.54580051 0.23369676 2629411
1.5373513 0.54564738 0.23386186 2366239
1.5408385 0.54607296 0.23219219 2104121
1.5448383 0.54822946 0.2314803 2893100
1.5475597 0.55038869 0.2311565 3944518
1.5503178 0.55083859 0.23016703 2040104
1.5533391 0.55199552 0.22953939 1449754
1.5557325 0.55267417 0.22923899 1777202
1.5588591 0.55332655 0.22822028 1908002
1.5615151 0.55435795 0.22749031 1844271
1.5647473 0.55515099 0.22583485 2437421
1.5659119 0.55559838 0.22699496 2305835
1.5691047 0.55651796 0.2262193 2040872
1.5359917 0.54716748 0.23054403 1907746
1.5385379 0.54677969 0.23023841 1907997
1.5403118 0.54914403 0.23006791 3552319
1.5439473 0.55039138 0.22969425 1644834
1.546665 0.55143642 0.22844523 1318158
1.5492167 0.55242139 0.22826168 1775640
1.5518776 0.5528183 0.22762069 1777191
1.5545505 0.55424559 0.22660562 1778522
1.5572705 0.55516499 0.22695911 1845604
1.5595452 0.55541044 0.22555155 1780067
1.5074106 0.53894949 0.23668748 2499384
1.5092018 0.5387249 0.23471737 2236475
1.5253139 0.54656023 0.23111326 4012365
1.5298698 0.54766154 0.23056901 1972263
1.5321966 0.54742986 0.23050386 1972519
1.5352544 0.54957187 0.22930294 3946306
1.5373056 0.54969466 0.22878984 2369328
1.5400876 0.55128312 0.22765386 725301
1.5426782 0.55176032 0.22791535 987423
1.5451212 0.55288309 0.2272172 1318441
1.5479467 0.55372524 0.2266857 1975346
1.5512555 0.55475163 0.22525835 2565733
1.5017457 0.53995752 0.23493499 1908533
1.5124331 0.5445801 0.23286125 2696005
1.517199 0.545003 0.23058552 2563896
1.5195627 0.54612398 0.23134178 3157555
1.5228245 0.54708242 0.23046306 3550280
1.5252309 0.54702669 0.22965384 2302006
1.5281316 0.54815286 0.22934568 3682631
1.5307059 0.55010724 0.22821081 2433829
1.5331401 0.5506531 0.2275672 1909286
1.5352311 0.55065918 0.22758186 463901
1.5385706 0.55236977 0.22612602 1579297
1.5412167 0.5533483 0.22595501 1580353
1.5443219 0.55478251 0.22441047 1582922
1.5464374 0.55497444 0.22425866 1713772
1.5488946 0.55536091 0.2245605 2499386
1.4959493 0.53962857 0.23390543 2170676
1.4997212 0.53925723 0.23456517 2104634
1.5016677 0.53894174 0.23351294 2433097
1.5109068 0.54501462 0.22985339 2695226
1.5132221 0.54482889 0.22981095 2694966
1.5155544 0.54612088 0.22950661 3880264
1.5185151 0.54671776 0.22957161 4801359
1.5211254 0.54745132 0.22820061 2893377
1.5239544 0.5493291 0.22707224 2696785
1.5263654 0.55040431 0.22703519 989245
1.5295672 0.55092216 0.22673255 1119530
1.5325873 0.55218863 0.22573495 1382160
1.5345198 0.55376947 0.22470337 1516076
1.5371184 0.55455959 0.22455615 1713984
1.5400641 0.55510664 0.22375202 2042230
1.5428209 0.55519044 0.22310603 1714015
1.4898789 0.5389685 0.23361748 2104883
1.4927305 0.53973293 0.23358321 2105141
1.4951336 0.53954142 0.23205751 2105386
1.5039213 0.54563212 0.22991139 2565427
1.5060948 0.54494965 0.22920382 2564653
1.5092094 0.54527307 0.23005718 2498601
1.5113134 0.54690242 0.22791225 4736082
1.5139992 0.54836643 0.22797531 1910564
1.5174567 0.54983044 0.22681552 1974554
1.5203198 0.55071491 0.22640532 924174
1.5225728 0.55114973 0.22553718 1055004
1.5250399 0.55093539 0.22486496 661015
1.5300078 0.55206174 0.22402883 1775676
1.5315902 0.55458534 0.22308183 2109522
1.5338604 0.5540415 0.22282547 1978440
1.536363 0.55411625 0.22224805 1846589
1.4807472 0.53812045 0.23391765 2368047
1.4828767 0.53774929 0.23321754 2433070
1.486402 0.53872097 0.23297 2301489
1.487947 0.54011917 0.23147285 2499369
1.4942366 0.54343522 0.22916371 3418670
1.4960438 0.54363596 0.22965959 2959178
1.4991914 0.54487842 0.22832167 2499384
1.5027617 0.54480791 0.2286368 2565427
1.5053569 0.54814899 0.22807714 5063251
1.5075722 0.54807305 0.22714901 2958631
1.5106142 0.54880875 0.22580361 1384474
1.5136285 0.55015999 0.22477356 1446428
1.5157837 0.55041111 0.22443262 1118493
1.5184796 0.55103397 0.22451085 1119757
1.5209281 0.55100554 0.22348803 659743
1.5271786 0.55650407 0.22260019 3483767
1.5296038 0.556297 0.22216034 2501987
1.5312582 0.55613375 0.2203238 2109530
1.4744145 0.53811669 0.23343784 2433591
1.4763594 0.53762382 0.23218304 2367546
1.4787655 0.53796482 0.23191884 2302264
1.4843947 0.54105335 0.22984585 2957108
1.4864858 0.54198253 0.23156154 2631221
1.4900416 0.54344285 0.2286756 2433837
1.4923635 0.5432471 0.22864479 2630188
1.500869 0.5479424 0.22653332 5327680
1.5035768 0.54952776 0.22549859 1975587
1.5058554 0.54947257 0.22487813 2499379
1.5089314 0.54989386 0.22482392 2038833
1.5114727 0.55139637 0.22365707 2234431
1.5141542 0.55352092 0.22290304 2500694
1.5170385 0.55356574 0.22285008 2109773
1.5192926 0.5549199 0.22118959 1846100
1.5234138 0.55581713 0.22086653 1780307
1.526159 0.55674154 0.21977669 2369346
1.5288162 0.55697733 0.21987808 2042725
1.4669116 0.5374366 0.23208475 2171185
1.4695082 0.5376547 0.23148054 2367542
1.4727715 0.53778785 0.23113751 2367794
1.4756901 0.54178214 0.22987068 1977142
1.4780912 0.54090267 0.22889394 2565428
1.4809784 0.5414232 0.23001641 3153983
1.4867446 0.54268289 0.22708803 2694691
1.4915806 0.54733706 0.22672611 5919326
1.4940926 0.54833591 0.22532997 5525590
1.4971677 0.54877609 0.2255466 3553328
1.4999248 0.54945219 0.22397894 2041133
1.502488 0.55009073 0.22331017 2370353
1.5057168 0.55017447 0.22274277 1250837
1.5084128 0.55188894 0.22273466 2236982
1.5106759 0.5539664 0.22162825 1978174
1.5135304 0.55433989 0.2207911 1977685
1.5161457 0.55482954 0.21968782 1977679
1.518675 0.55536199 0.2185272 1714513
1.5216577 0.55627865 0.21954072 1977686
1.4607297 0.53824788 0.23147863 2171448
1.4634585 0.53808093 0.2305575 2302268
1.4652358 0.53709686 0.23146296 2237489
1.4713926 0.54116917 0.22846496 3156539
1.4745764 0.54097557 0.22858459 2957368
1.4883503 0.54897475 0.22467867 5722947
1.4905823 0.54837525 0.22380584 3750714
1.4930166 0.54805452 0.22368237 2567224
1.4960183 0.54974449 0.22222602 4143944
1.4988549 0.55082625 0.22225031 1517080
1.5007129 0.55090654 0.22166812 793856
1.5043024 0.55409849 0.22112143 2043221
1.5069473 0.55437303 0.22046566 1977685
1.5093595 0.55509984 0.21884209 1911883
1.5129473 0.55521226 0.21870214 1846588
1.4536906 0.53698915 0.23087204 2236463
1.4560728 0.53701735 0.22988915 2236211
1.4590354 0.53759706 0.22987035 2433079
1.4617938 0.53808546 0.22933522 2433339
1.4642687 0.54126602 0.22783476 2959666
1.4670978 0.54083508 0.22749516 2959180
1.4700272 0.54074609 0.22763723 3417915
1.4837554 0.54799175 0.22333831 4013128
1.4866564 0.54838061 0.22282958 4539462
1.4885101 0.54888242 0.22254539 1579032
1.4920081 0.55039787 0.22111988 4540009
1.4947101 0.55143267 0.22075641 2637968
1.4969339 0.55225694 0.21831238 1784957
1.5000143 0.55431628 0.21909142 1846336
1.5029098 0.55448985 0.21846944 1977917
1.5055089 0.55440634 0.21821719 2175047
1.4467391 0.53614122 0.22904965 2170685
1.4499511 0.53717059 0.22983396 2236467
1.4527059 0.536964 0.22968525 2236209
1.455651 0.54031265 0.22885463 3286328
1.4581468 0.53982991 0.22864071 3089199
1.4604564 0.54053575 0.22628462 3155498
1.4629368 0.54075474 0.22700715 3353384
1.4737511 0.54754472 0.22348732 3749446
1.4762191 0.54753029 0.22256187 2698043
1.47996 0.54866016 0.22202787 3748938
1.4817371 0.54855919 0.222673 990744
1.4850389 0.55094492 0.22026032 3683913
1.4880484 0.55197382 0.21981317 3291263
1.490423 0.55289328 0.21934223 2634607
1.4928428 0.55385518 0.21891111 2240093
1.4964409 0.55473077 0.21814984 1780545
1.4986874 0.55523634 0.21647835 1912880
1.4408941 0.53659052 0.22967151 2235955
1.4429357 0.53657705 0.22902066 2235955
1.4451628 0.53655946 0.22910434 2105140
1.4521409 0.54055434 0.22531617 3616557
1.4540139 0.5407424 0.22583514 3418925
1.4567357 0.54080129 0.22625214 3090213
1.4680105 0.54750228 0.22223976 1515527
1.4702048 0.54713631 0.2218172 3224631
1.4731259 0.54755843 0.2211262 3552336
1.476236 0.54830396 0.22008383 3484492
1.4783183 0.55033398 0.21954942 3290724
1.4817895 0.55081922 0.21948314 3094874
1.4841576 0.55208695 0.21841699 2961497
1.4871278 0.55249405 0.21816552 3223667
1.4895772 0.55483812 0.21660233 2240590
1.4921829 0.55459899 0.21610165 2372184
1.4950666 0.55464375 0.21604872 2304620
1.4332399 0.53573865 0.2281118 2301482
1.4360827 0.53663874 0.22832215 2170162
1.4391868 0.53645176 0.22762325 2236206
1.4426771 0.53882146 0.22527984 3221291
1.4474676 0.54078293 0.22515607 3287597
1.4504435 0.54081279 0.22551996 3419678
1.4640456 0.54760921 0.22040993 2828084
1.4664781 0.54762369 0.22103012 3421748
1.4688629 0.54680413 0.21997017 5525609
1.4750025 0.55150306 0.21917439 3096929
1.4771746 0.551633 0.2173996 3094105
1.4799596 0.55372924 0.21792662 2042456
1.482749 0.55386227 0.21626472 2500696
1.4864044 0.55446774 0.21632248 2303624
1.4272881 0.53565413 0.22793078 2169901
1.4303683 0.53564787 0.22792387 2104872
1.4325055 0.53541774 0.22644752 2104616
1.4359778 0.53989029 0.22607213 3023414
1.4384332 0.53946775 0.22578931 3155504
1.4409795 0.53907979 0.2254836 3155498
1.4449104 0.54020584 0.22402075 3353156
1.4535609 0.54502982 0.21939731 1381653
1.4567744 0.546956 0.22016603 2566970
1.4595671 0.54749811 0.21983653 3093057
1.4627001 0.54788089 0.22002 4340298
1.4654101 0.54797816 0.21808326 1973790
1.4685609 0.55213726 0.21682423 2375576
1.4707584 0.55281258 0.21679509 2899792
1.473516 0.55336493 0.21659189 2962058
1.476226 0.55358917 0.21610105 2568553
1.4790267 0.55364716 0.2158376 2108252
1.4178051 0.53558004 0.22815737 1908013
1.420509 0.53538436 0.22702023 2038825
1.4235986 0.53512305 0.22702688 2235437
1.4249307 0.53512704 0.22562182 2169647
1.4308366 0.53892797 0.22398478 2697012
1.4345776 0.53863221 0.22405177 2631219
1.4426371 0.54433107 0.22257006 859458
1.4451225 0.54475141 0.22075668 2105399
1.447524 0.54544425 0.22070223 3354932
1.4505694 0.54585314 0.22007215 2369841
1.4531232 0.5469954 0.21977431 4078922
1.455904 0.54698712 0.21886468 4341568
1.4614943 0.55076754 0.21681422 2240833
1.4640117 0.55126441 0.21620989 2901336
1.4668791 0.55209768 0.21586978 2440817
1.4695684 0.55356216 0.21468586 2568546
1.4723312 0.55332208 0.21463615 2699129
1.4744263 0.55688018 0.2136879 2564677
1.4773413 0.55675149 0.21233559 2366831
1.4789877 0.5577184 0.21298325 1318494
1.4107051 0.53497928 0.22743577 1907750
1.4134877 0.53456759 0.22628152 1973034
1.4166671 0.5347634 0.22617537 1907243
1.4248263 0.53871912 0.22301608 2631482
1.4277028 0.53925449 0.22412139 2501674
1.4380476 0.54424894 0.2203722 1447985
1.4411304 0.54484904 0.21987766 1447970
1.443186 0.54556054 0.21962237 3486521
1.4458851 0.54640359 0.21793216 5328708
1.4494761 0.54660594 0.218014 5657428
1.4544696 0.55094129 0.2171362 3687304
1.4574107 0.55145341 0.21587634 3422622
1.4597585 0.5520947 0.21499097 2832753
1.4629973 0.55295694 0.21489602 2569545
1.4655387 0.55357736 0.21501428 2437711
1.4685242 0.5567376 0.21230263 1318494
1.471189 0.55682874 0.21266699 2370866
1.4740438 0.55655831 0.2116096 2108217
1.4040297 0.53476804 0.22637045 1907239
1.4065658 0.53467911 0.22604167 1841708
1.4096953 0.53431249 0.22531629 1841703
1.4176903 0.53882402 0.22235149 3156011
1.4214064 0.53907484 0.22315231 2828846
1.4319988 0.54358464 0.22034633 1186095
1.4349526 0.54427958 0.21904266 1382997
1.436886 0.54598397 0.21729565 5259872
1.4396498 0.54704332 0.21776378 5393490
1.4425659 0.54722607 0.21706265 5393982
1.4509848 0.5511812 0.21471822 4208995
1.4535133 0.55179632 0.21443611 3422825
1.456416 0.55207527 0.21420598 2832751
1.458802 0.55388433 0.2132529 2239847
1.461678 0.55566114 0.21192896 2499929
1.4645081 0.55571771 0.21189719 2039621
1.4670978 0.55599332 0.21144277 1580612
1.4701627 0.55690944 0.21076787 1583682
1.3970208 0.53397501 0.22571793 1973031
1.4000597 0.53410333 0.22458297 1841450
1.4029876 0.53461993 0.22520655 1907241
1.4067364 0.5356009 0.22425586 2236461
1.4085063 0.53723818 0.22431135 3156011
1.4115143 0.53880435 0.22159657 2958632
1.4133669 0.53902245 0.22208109 3089972
1.4160384 0.53909987 0.22254384 3156011
1.424777 0.54486775 0.21927375 2763825
1.4276918 0.54412925 0.21924406 1055788
1.4304721 0.5450412 0.21733904 2040349
1.4328756 0.54662436 0.21708274 5389371
1.4353852 0.54643154 0.21747661 5782350
1.4438019 0.55154556 0.21389657 3353685
1.4468025 0.55245566 0.21416837 3029856
1.4493134 0.55291432 0.21314257 3225697
1.4520414 0.55314827 0.21214169 2699382
1.4545889 0.55576456 0.21167791 2564698
1.4577167 0.55582613 0.21086818 2501216
1.4601631 0.5556528 0.21078402 2498405
1.3918811 0.53306496 0.22488469 2038313
1.3941622 0.53378832 0.22558367 2038312
1.3963721 0.53406513 0.22370955 1906730
1.3993272 0.53542364 0.22287595 2236464
1.4018244 0.53692329 0.22306257 2567976
1.4052223 0.53881609 0.22086442 2829349
1.4075508 0.53861022 0.22084504 2894883
1.4105104 0.53845692 0.22101015 3090974
1.4189246 0.54516119 0.21831262 4405324
1.4210036 0.54447246 0.21721953 2566726
1.4235213 0.54521722 0.21699476 2370101
1.4266187 0.54615736 0.21652865 3289885
1.4292672 0.54658395 0.21524203 4604443
1.4333638 0.54720616 0.21454817 5257280
1.436675 0.5513519 0.21412677 2766711
1.4403679 0.55166811 0.21343827 2503019
1.4427546 0.55274838 0.21159047 3556462
1.4458281 0.55308926 0.21147096 3424873
1.4484531 0.5543685 0.21103787 3225437
1.4510908 0.55559498 0.21052349 2110273
1.4536612 0.55544758 0.20983517 1648974
1.4560701 0.55586189 0.20867091 2696517
1.3840841 0.53310567 0.2238979 1972522
1.3876164 0.53319108 0.22440791 1907239
1.3902307 0.53334045 0.22398734 1841447
1.3921064 0.53330052 0.22263664 1841700
1.3950189 0.53687692 0.2221691 3024178
1.3977203 0.53696579 0.22255164 2697266
1.4005178 0.5381099 0.2192288 3090475
1.4033694 0.53859776 0.22037995 2632990
1.4086571 0.54243958 0.21904409 1187088
1.4114513 0.5432061 0.21783578 1057294
1.414649 0.54458183 0.21693569 2435370
1.417462 0.54462719 0.21627182 2566440
1.419926 0.54514873 0.21597415 2106924
1.4252414 0.54682112 0.21533906 3815994
1.4313958 0.55076551 0.21169877 3624808
1.4334987 0.55141997 0.21198273 3161954
1.4360183 0.55167508 0.21151036 3227486
1.438833 0.55198663 0.21142268 3094644
1.4407392 0.55434418 0.2105642 2373994
1.4439299 0.55548936 0.2091403 2174014
1.4472656 0.55563176 0.20931923 2569022
1.4496706 0.55571967 0.20881045 2702162
1.3779598 0.533207 0.22338772 2367534
1.3803344 0.53303158 0.22347069 2629929
1.3827186 0.53253108 0.2230587 2695730
1.3853253 0.53489143 0.221708 3090226
1.3885715 0.53641188 0.22074866 3090728
1.3910688 0.5366627 0.22144055 3024936
1.3943114 0.53807855 0.2185542 3024682
1.3967818 0.53836954 0.21920013 2958636
1.4030279 0.54285562 0.2171886 1710618
1.4052929 0.54241759 0.21754777 1644825
1.4076914 0.54308879 0.21596819 1580046
1.4103189 0.54405648 0.21498513 1648391
1.4131347 0.54457575 0.21564758 2763561
1.4155002 0.54501939 0.21496958 1187866
1.4274305 0.55148017 0.21177846 2964583
1.4299338 0.55172741 0.21104103 3095416
1.4318373 0.55161434 0.20993257 2830705
1.435128 0.5546664 0.20914841 1846596
1.4378548 0.55448186 0.20936018 1977479
1.4410095 0.55514598 0.20848227 2762340
1.442773 0.5548178 0.2079975 2893895
1.3717464 0.53307235 0.22289285 2630189
1.3741307 0.53284949 0.22238034 2367531
1.37615 0.53284079 0.2224828 2367278
1.3783511 0.53438842 0.22010332 3090227
1.3925736 0.53839737 0.21868902 3156268
1.3989792 0.54315805 0.21575999 1055776
1.4012477 0.54267228 0.21612602 1252134
1.4035972 0.54337382 0.21455097 1579032
1.4068499 0.54636025 0.21322381 3024678
1.4093015 0.54612631 0.21365207 3222054
1.411829 0.54592144 0.21398866 3485729
1.4223498 0.55261105 0.2098757 2832721
1.4257262 0.55259067 0.20969975 2898273
1.4286567 0.55337363 0.20943749 2436952
1.4312167 0.55506599 0.20801443 1978926
1.4337327 0.55449647 0.20778519 1979184
1.364025 0.53276378 0.22225809 2367275
1.3674225 0.53288317 0.22136992 2169897
1.3704164 0.53296566 0.22188526 2301485
1.3729078 0.53427082 0.21926928 2829099
1.3871794 0.54155415 0.21734881 1253677
1.3895754 0.54224324 0.21567744 1255195
1.3918271 0.5430305 0.21599013 1318442
1.3945816 0.54355425 0.21439958 1121596
1.397198 0.54294783 0.21469635 1318186
1.3995305 0.54571486 0.21397018 2433315
1.4028088 0.54613769 0.21365374 2696735
1.4055547 0.54604006 0.21254146 3024928
1.4167078 0.55157208 0.20952231 2963301
1.4192533 0.55219382 0.20924413 3160410
1.4214151 0.553105 0.2080732 2437952
1.423864 0.55396593 0.20766795 2174005
1.4272096 0.55542886 0.20680761 1780042
1.4292785 0.55494738 0.20723152 1977924
1.3565917 0.53184611 0.22176939 1972779
1.3601606 0.53236097 0.22110918 2433836
1.363577 0.53234822 0.22091937 2499118
1.3669021 0.53473365 0.21927142 3090731
1.3691567 0.53452474 0.21924436 3024690
1.3819435 0.54030466 0.21671063 1909039
1.3848187 0.54141992 0.215276 1515070
1.3878014 0.54266042 0.21461356 1319461
1.390937 0.54325461 0.21322423 1514282
1.3934871 0.54502636 0.2128678 1842230
1.3959247 0.54525924 0.21238202 1973036
1.3988258 0.54628754 0.2110858 2105376
1.4014995 0.5458228 0.21124309 2434341
1.406315 0.55071938 0.20868623 3158595
1.4086924 0.55130178 0.20838368 3879777
1.4123498 0.55249751 0.20831645 3094626
1.414705 0.55278134 0.20781279 2699857
1.4178984 0.55386835 0.20710653 1846615
1.4204229 0.55450714 0.20666212 1845831
1.3503612 0.53176725 0.22048676 1973285
1.3533977 0.53182042 0.22083536 2038058
1.3569844 0.53213388 0.22026706 2235946
1.3594594 0.53316867 0.21856129 2368041
1.3613138 0.53406751 0.21768039 3156524
1.371902 0.53918082 0.21420681 1907997
1.3787547 0.542135 0.21475869 1450026
1.3811483 0.54132253 0.21421981 1712925
1.3839446 0.54315704 0.21260351 1775910
1.3865082 0.54352587 0.21264392 1775912
1.3894819 0.5448547 0.21271658 1511984
1.3921762 0.54520386 0.21127522 1709108
1.39649 0.54942894 0.20905441 2501228
1.4003692 0.54994136 0.20876503 2436191
1.4033796 0.55057859 0.20836323 2632783
1.4054799 0.55123836 0.2075693 2829893
1.4084979 0.55280048 0.20665288 2829385
1.4111707 0.55368078 0.2060734 2764599
1.4140379 0.55450183 0.20575196 2240312
1.4164057 0.55483413 0.2050671 1913445
1.3444591 0.53112108 0.22023344 2038312
1.3475962 0.53154027 0.21999168 2301733
1.3495547 0.53211933 0.21912611 2893603
1.3533846 0.53436089 0.21720946 3419172
1.3553228 0.53472561 0.21789283 3156519
1.3579457 0.53497207 0.21681452 2959915
1.3664405 0.54008001 0.21485198 1843761
1.3688924 0.53965592 0.21433401 1383462
1.3719718 0.54125166 0.21384662 1645080
1.3750758 0.54238331 0.21300578 1514800
1.3769127 0.54356688 0.21194118 1449264
1.3796141 0.54403812 0.21108079 1448224
1.3818827 0.54383522 0.21177644 1512992
1.3930488 0.54951805 0.20809937 2764110
1.3955024 0.55061966 0.206936 2960994
1.3986316 0.55127525 0.20716405 2961223
1.4015653 0.55250615 0.20592672 2041926
1.4043415 0.55334216 0.20555431 2302775
1.4076751 0.55378622 0.20519978 2435100
1.3375504 0.53119957 0.2197029 2104358
1.3406174 0.53112447 0.21895438 2433064
1.3426738 0.53217643 0.21808898 3156524
1.3457234 0.53236109 0.21868998 3091241
1.3507136 0.53428358 0.21674669 3287339
1.3627206 0.54088652 0.2128731 1709613
1.364957 0.54035926 0.21337318 1447737
1.3681265 0.54129058 0.21158481 1315356
1.3711212 0.54190779 0.2115317 1381149
1.3734806 0.5433408 0.21048313 1382415
1.3760004 0.54400337 0.21050572 1381653
1.3839959 0.5499413 0.20781946 1777249
1.3864329 0.54960263 0.20754796 2039647
1.3898611 0.55000097 0.20679581 2238790
1.3920792 0.55113244 0.20584822 3027007
1.3951277 0.55241668 0.20529306 2565964
1.3980793 0.55291134 0.20514357 1975608
1.4001722 0.55246264 0.20403433 1714235
1.3310755 0.53119123 0.21857673 2564652
1.3336519 0.53092849 0.21825379 2564649
1.3366675 0.53179944 0.21768439 2893103
1.3397285 0.53200656 0.21748817 3090732
1.3581171 0.54089594 0.21191722 1316635
1.3612267 0.54081112 0.2120958 1579048
1.3636231 0.54130542 0.21031624 1511195
1.3803619 0.55013728 0.20590967 1845284
1.3825614 0.55014634 0.20521033 2303825
1.38543 0.55049753 0.20523465 2436422
1.3881116 0.55172998 0.20503736 2368850
1.391042 0.55346841 0.20249444 1648706
1.3928536 0.55366319 0.2029537 1713995
1.3241791 0.53069383 0.21809244 2432809
1.327299 0.53063005 0.21726036 2498346
1.3299907 0.53107762 0.21773398 2301736
1.3488147 0.53985542 0.21231347 1186608
1.3517485 0.54048276 0.21161556 1383213
1.3546432 0.54105544 0.21101975 1251631
1.3567597 0.54003894 0.2103982 1251104
1.3732003 0.55011922 0.20568478 2434866
1.3760563 0.55032945 0.20526075 2173241
1.3789407 0.55124456 0.20449233 2107445
1.3812574 0.55178469 0.20410359 2041641
1.384639 0.55253071 0.20346487 2038603
1.3875816 0.5530256 0.2021262 1775434
1.3899118 0.55311066 0.20204556 2301028
1.3179715 0.5305987 0.21695137 2826794
1.3205509 0.53062165 0.21707565 2695721
1.3236214 0.53056705 0.21662724 2563877
1.3373275 0.53865361 0.21236551 1973790
1.3399948 0.5387665 0.21199095 1646122
1.3424603 0.53986144 0.21099621 1973790
1.3448905 0.54012954 0.21051514 1315615
1.3479849 0.5401448 0.21012807 1055277
1.3511443 0.5406881 0.20939153 1185583
1.3620083 0.54802769 0.20625007 2107151
1.3641403 0.548087 0.20606971 2236465
1.3664114 0.54892617 0.20535702 1974581
1.3693219 0.54944849 0.20488656 2106160
1.3723401 0.55005604 0.20422816 2040630
1.3751851 0.55066657 0.20303392 2107962
1.3776135 0.55237043 0.2025041 1516599
1.3807238 0.55309051 0.2021184 1908533
1.3829626 0.55256808 0.20179451 2368044
1.3103459 0.53021324 0.21643531 2235691
1.3138632 0.53063339 0.21662962 2498856
1.3164194 0.53067696 0.21601295 2499111
1.318177 0.5315454 0.21417522 3353380
1.3354235 0.53890622 0.21016014 1383977
1.3384652 0.5397054 0.20988524 922924
1.3411156 0.54022133 0.20981747 1381403
1.3436244 0.54060841 0.2090323 1843218
1.3602506 0.54873067 0.20452642 2105127
1.3629748 0.54916799 0.20395219 1513026
1.3657265 0.55004692 0.20284796 2105650
1.368798 0.5504806 0.20250499 1778227
1.3709068 0.55216748 0.20125699 1580322
1.3739632 0.55324084 0.20092356 1710888
1.3768879 0.55285215 0.20081013 1384504
1.3041199 0.52964431 0.21552002 2235689
1.3071367 0.53024 0.21578348 2564394
1.3098729 0.53045481 0.21526897 2695978
1.3123488 0.53173518 0.2138834 2893866
1.314782 0.53206241 0.2145828 3025708
1.3316448 0.53935045 0.20910352 1515037
1.334356 0.54028285 0.20879513 790565
1.3368877 0.54010928 0.20867062 461866
1.3505867 0.54796571 0.20424843 2496841
1.3534425 0.54810691 0.20329064 2104388
1.3560295 0.54863989 0.20341039 1973048
1.3589368 0.54909801 0.20340669 1973560
1.3618635 0.55029345 0.20180458 2302778
1.3646847 0.5518918 0.20128667 2039851
1.3670764 0.55252558 0.20058519 1383731
1.3694236 0.55233932 0.20052385 1055012
1.3720261 0.5526917 0.19938052 1973790
1.2807074 0.5240857 0.21958232 9732992
1.283608 0.52390885 0.21874559 9864832
1.28684 0.52455002 0.21793956 8154984
1.2898387 0.52609223 0.2168116 3944755
1.2920541 0.52653718 0.21682233 2168858
1.2952729 0.52840054 0.21598518 2367015
1.2978624 0.52917761 0.21551079 2367017
1.300629 0.529881 0.21481031 2367270
1.3033841 0.53017515 0.21438301 2761768
1.3055519 0.52981246 0.21381295 3154735
1.3200567 0.53794128 0.21082568 1779248
1.3207043 0.53913462 0.20952994 1317158
1.325582 0.54016912 0.20830369 1382692
1.3281239 0.54005754 0.20807236 1449240
1.3302925 0.5407542 0.2076968 921607
1.3325969 0.5398646 0.207196 986895
1.347048 0.54850143 0.20279753 2104876
1.3491273 0.54838896 0.20236588 2039108
1.3519121 0.54911512 0.20219094 1513523
1.3548248 0.55028266 0.20087451 2039622
1.3577899 0.55147237 0.20091134 1909300
1.3604838 0.55287814 0.19974977 1383205
1.3628806 0.55273128 0.19910979 1187853
1.2806665 0.52454746 0.21749431 10061185
1.282933 0.5241335 0.2173053 10390140
1.2893186 0.52624494 0.2155565 3354171
1.291374 0.52809197 0.2149508 2235171
1.2941029 0.5301578 0.21298105 2762023
1.296131 0.53082258 0.21418822 2893865
1.2993331 0.53126544 0.21286988 2762793
1.3026924 0.53424299 0.21224654 1648162
1.3044212 0.53433663 0.21138877 1713955
1.3069835 0.53439713 0.21146524 2042401
1.3097638 0.53630763 0.21114355 2566689
1.3125859 0.53722292 0.20932353 1645095
1.3152812 0.53841919 0.20895994 1712692
1.3181728 0.53854585 0.20789367 1251626
1.3213373 0.53991723 0.20696485 1383462
1.3236471 0.54019117 0.20682901 1383202
1.3377094 0.54757404 0.2029559 1907497
1.3399915 0.54765636 0.20199835 2170416
1.3432901 0.54846174 0.20200616 2104879
