# .PCD v0.7 - Point Cloud Data file format
VERSION 0.7
FIELDS x y z rgba
SIZE 4 4 4 4
TYPE F F F U
COUNT 1 1 1 1
WIDTH 1161
HEIGHT 1
VIEWPOINT 0 0 0 1 0 0 0
POINTS 1161
DATA ascii
1.7014441 0.34304178 0.02436769 2500122
1.6974897 0.3395015 0.022236705 1052425
1.6974684 0.34127545 0.022449851 1447182
1.6989577 0.34370798 0.022286117 2302744
1.695811 0.34021813 0.021114051 789510
1.6955538 0.34289622 0.020849526 1315597
1.6971524 0.34458399 0.020746946 2302744
1.6941775 0.34136033 0.019036055 723718
1.6938661 0.34404421 0.018887222 1118218
1.6945162 0.34622616 0.019244015 1907986
1.6922567 0.34487915 0.016868591 1184010
1.6927814 0.34742808 0.017404616 1381645
1.6932669 0.34993356 0.017673314 2236949
1.6905298 0.34653926 0.015341341 657927
1.691206 0.34874547 0.015187919 1250060
1.6918558 0.35101485 0.015778184 1710607
1.6890535 0.35018981 0.013376594 789514
1.6900408 0.35235792 0.01361239 1381903
1.6906329 0.35469615 0.013904095 1776656
1.6882948 0.35367477 0.011575937 1118733
1.6887331 0.35613656 0.011712968 1447698
1.6868033 0.35464096 0.0096565485 1053973
1.6873441 0.35753274 0.0097013712 1118991
1.6882241 0.36000431 0.010178983 1382416
1.6852865 0.35596925 0.0078210831 1117973
1.6859461 0.35851324 0.0080319643 987670
1.6865995 0.36117053 0.0079112649 1317148
1.6876514 0.36435056 0.0077322125 1580827
1.6849 0.35874957 0.0060292482 789523
1.6853735 0.36249846 0.0057418942 2633271
1.6866953 0.3641209 0.0058038831 2371381
1.6879306 0.36783147 0.004957974 1121566
1.6886327 0.36991519 0.0055211782 1713184
1.6849314 0.36577958 0.0036808252 5133399
1.6857386 0.36789429 0.004095912 5067861
1.6869833 0.37094355 0.0031267405 4148044
1.688452 0.37279969 0.0033527613 1714725
1.6790833 0.36179644 0.0019051433 8487802
1.6807606 0.36466354 0.0016396046 8356983
1.682367 0.36694956 0.0020614266 8948095
1.6838253 0.36957711 0.0018100142 9014148
1.6854229 0.37200415 0.0017207861 6909547
1.6862502 0.37493169 0.0014861822 6910316
1.687999 0.37666404 0.00081562996 5200996
1.6801031 0.36848146 0.00096088648 8028023
1.6821706 0.37082779 0.00035262108 9211263
1.6835352 0.37288672 -0.00051498413 9277061
1.6844506 0.37562555 -0.0001026392 8750981
1.68594 0.37845927 0.00011378527 8028026
1.6920575 0.38677424 -0.0010818243 1646618
1.6796724 0.37188578 -0.0014609098 7896178
1.681076 0.37460226 -0.001136899 8684920
1.682376 0.37727296 -0.0015712976 9210758
1.6837962 0.37961692 -0.0013689995 9210759
1.6788669 0.3759957 -0.0021208525 6777455
1.6810979 0.37794632 -0.0021793842 7763068
1.682225 0.38044262 -0.0023717284 8749703
1.730212 0.35230231 0.035354257 723720
1.730355 0.35374945 0.036232054 592391
1.732409 0.3559801 0.035525799 1250063
1.7343373 0.35885507 0.03529954 1513487
1.7350895 0.36167556 0.035367489 723461
1.7209342 0.34392905 0.035090327 2236706
1.7224445 0.34501761 0.035348356 1841952
1.7238961 0.34771681 0.035187542 1841950
1.7257278 0.35041988 0.035356402 1579033
1.7276639 0.35250306 0.03486228 1579032
1.7292087 0.35502255 0.034372807 1776408
1.7307122 0.35790813 0.034222662 1447440
1.7321814 0.36002606 0.033781171 1249805
1.7338001 0.36254203 0.033788145 1512974
1.735882 0.36492062 0.033675432 1052169
1.7380573 0.3672471 0.034012794 1052171
1.7150851 0.33941323 0.033866405 7962259
1.7166445 0.34181905 0.034631789 2765651
1.7183466 0.34408814 0.034999073 2567473
1.7203277 0.34635568 0.034485936 2763819
1.7220197 0.34880286 0.034331381 2565926
1.723515 0.3510288 0.033940852 2170912
1.7252929 0.35332161 0.033959568 1907995
1.7269993 0.35580277 0.033785105 1381395
1.7284284 0.35794616 0.03383112 1184015
1.7314155 0.36141902 0.033412635 1052178
1.7324822 0.36338365 0.033451676 1052430
1.711067 0.3392725 0.033448815 11053223
1.7132293 0.34036541 0.033937097 10066596
1.7146459 0.34311879 0.033732653 6384505
1.7166392 0.34528029 0.03322494 3094853
1.7181537 0.3473419 0.033179462 2829871
1.719991 0.34978116 0.033608437 2368293
1.7219909 0.35263443 0.03376472 1249817
1.7094746 0.33928967 0.032724082 9670255
1.7109647 0.34174925 0.032236397 10723482
1.7125325 0.34371817 0.031888604 7501201
1.7143276 0.34599346 0.033044398 4475483
1.70632 0.33865571 0.03078711 3092755
1.7069688 0.34007543 0.031452596 2170120
1.7085137 0.34253263 0.030828953 9669244
1.7100095 0.34440398 0.031556308 10394531
1.70363 0.33931953 0.029707074 1776404
1.705101 0.34159946 0.029240847 1907214
1.7064335 0.34336269 0.029689312 5657142
1.7010145 0.34062463 0.028255224 1447438
1.702751 0.34286815 0.028089464 1512974
1.7042398 0.34460378 0.028384387 2566422
1.6992488 0.34162092 0.026228547 1579024
1.7003706 0.34357047 0.026462615 1644302
1.7010405 0.34598279 0.026343346 2565658
1.6973827 0.34281719 0.024719536 1250060
1.6979327 0.34508419 0.02496928 1710351
1.6987984 0.34699678 0.02506572 2434328
1.6956048 0.34443194 0.023077786 1184268
1.695595 0.34616184 0.022889674 1512974
1.6959155 0.34842014 0.022488356 2302747
1.6936238 0.34575891 0.021287322 789511
1.6940753 0.3477689 0.0212816 1512974
1.6947509 0.34956288 0.020879567 2302745
1.6924033 0.34906858 0.019668698 1118473
1.6930974 0.35109055 0.019407153 1710611
1.6930017 0.35339767 0.019126058 2302999
1.6907818 0.34894156 0.017685831 657926
1.6914624 0.35230762 0.017597318 1315852
1.6918707 0.35489339 0.016971946 1908243
1.6899642 0.3538661 0.015606105 1118476
1.6903517 0.35614014 0.015521228 1513231
1.6889031 0.35700023 0.013874829 1447440
1.6897447 0.35943413 0.013945699 1842195
1.6875618 0.35918444 0.012142062 1250065
1.6879747 0.36103547 0.011645138 1184785
1.6885916 0.36262494 0.012350798 2237210
1.6866245 0.36274707 0.0095992684 593938
1.6873825 0.36427981 0.01013577 987923
1.6893196 0.36745816 0.0086960793 333073
1.6850966 0.36368388 0.0079561472 658457
1.6861216 0.365749 0.0084417462 1513760
1.6870608 0.36859518 0.0072691441 1976103
1.6885222 0.37115318 0.0074409842 857879
1.690145 0.37387538 0.0077118874 594186
1.6856525 0.36916101 0.0068165064 724504
1.686378 0.37213039 0.0050853491 4410701
1.6881852 0.37451082 0.005202055 1713952
1.6892083 0.37675679 0.0053613782 1582109
1.6905868 0.37915337 0.0048539639 1580825
1.6928139 0.38225251 0.0031990409 922389
1.6852462 0.3729673 0.0033590198 4739151
1.6862581 0.37595665 0.0033916235 5134162
1.6875701 0.37822235 0.0026217103 3555904
1.6887636 0.38090008 0.0032682419 2041893
1.6903772 0.38384533 0.0024237633 2172965
1.692428 0.38651842 0.0026826859 1974298
1.6787379 0.36989868 0.0018965006 7633783
1.6809194 0.37183821 0.0019406676 7895925
1.6823148 0.3741625 0.0018107891 9014143
1.6838647 0.37659836 0.0020803809 8225146
1.6853712 0.37979287 0.0012590885 6580845
1.6868927 0.38164985 0.001273632 5068116
1.6883155 0.38436544 0.0010198951 3423545
1.6903989 0.38670862 0.00078856945 2106916
1.6909392 0.38939196 -0.00015336275 2305056
1.6925402 0.39131939 -0.00036376715 2434845
1.6785004 0.37313008 0.0011695623 7633527
1.6798477 0.37583548 0.00097286701 7501682
1.6819506 0.37818092 0.00010108948 8882557
1.6836389 0.38071126 3.8266182e-05 9211269
1.6849976 0.38330215 -0.00017881393 7830393
1.6862192 0.38559973 -0.00035589933 5133395
1.68823 0.38837814 -0.00046527386 3751740
1.6897025 0.39053094 -0.00070250034 2633001
1.6909873 0.39213502 -0.00034081936 1579552
1.6944212 0.39834219 -0.0018422604 2302751
1.6792986 0.37942338 -0.0013614297 7699059
1.6813202 0.38194561 -0.0014044046 7961463
1.6825889 0.38450938 -0.0016231537 7960953
1.6842363 0.38717973 -0.0016642809 6316134
1.6862072 0.38850194 -0.0014193654 5395797
1.6877525 0.39124471 -0.0013480186 4870212
1.6787033 0.38342643 -0.0025017858 6711668
1.6804202 0.38496596 -0.0025469661 7106166
1.7318852 0.35847056 0.036783993 1776917
1.7330482 0.36104709 0.037237704 1842456
1.7360911 0.36273623 0.037092805 921098
1.735554 0.36485684 0.037008107 1052172
1.7236325 0.35150874 0.037113428 1645083
1.7257922 0.353378 0.036817312 1579030
1.7276995 0.35635805 0.036967933 1381649
1.7294593 0.35861266 0.037119269 1118478
1.7311057 0.36142987 0.037021101 1447186
1.7330494 0.36380702 0.035825312 1184013
1.7343128 0.36614388 0.034836352 1644563
1.7359704 0.36833817 0.034249365 1644560
1.7372116 0.37111974 0.034539223 1578514
1.7168343 0.34490597 0.03596729 2369327
1.7190092 0.34764224 0.036277056 2369064
1.7206082 0.35004222 0.036599755 2105379
1.7225873 0.35262084 0.036029339 2566439
1.7240856 0.35494608 0.035924077 2697765
1.7261629 0.35774213 0.035153508 2171679
1.727136 0.3597827 0.034726977 1315863
1.729284 0.36247504 0.034304559 1381395
1.7308272 0.36476839 0.034235358 1710098
1.7326375 0.36730766 0.034015059 1644562
1.7345803 0.37001485 0.033791542 2171160
1.7346396 0.37221044 0.034116566 2236695
1.7119925 0.34193915 0.034977674 10526379
1.713551 0.34463853 0.035845637 4738666
1.7152441 0.346398 0.035822868 2634822
1.7172457 0.34881181 0.035746157 2961456
1.7185068 0.35112327 0.034895778 2697770
1.7203188 0.35358346 0.03512156 2697771
1.721947 0.35573989 0.034933388 2631717
1.7240088 0.3582958 0.034638047 1315353
1.7242794 0.36064392 0.034832597 985633
1.727312 0.36330402 0.034419656 1579033
1.7288888 0.36648679 0.034139037 1775896
1.7332265 0.37118733 0.032780886 2434074
1.7097561 0.34299737 0.034631908 10262680
1.7116299 0.34537941 0.034290433 9737371
1.7130083 0.34778881 0.0341959 4804453
1.7148968 0.34997773 0.034050822 2698548
1.7166984 0.35241157 0.03465271 2236713
1.7064468 0.34191084 0.03292191 4209943
1.707463 0.34418964 0.033311129 8156509
1.7094357 0.34649235 0.032932878 9210007
1.7109022 0.34855437 0.033726454 6908538
1.7021151 0.34123808 0.030583799 986631
1.7038665 0.34256077 0.032146573 1776653
1.7052679 0.34514016 0.031308174 4603938
1.707062 0.34735107 0.032045901 8749417
1.7006929 0.34202963 0.029872417 855047
1.7014871 0.34417558 0.030314207 1578769
1.7031295 0.34600389 0.030153275 1973515
1.7037721 0.34841257 0.030238032 3289873
1.698611 0.34293425 0.028592408 1052683
1.6993624 0.34533238 0.028588176 1512977
1.700554 0.34747541 0.028557658 1973523
1.6962647 0.3447541 0.02657789 789512
1.6971688 0.34654909 0.02697891 1447181
1.6985606 0.34862137 0.02722472 2236693
1.695333 0.34763944 0.025252819 1447437
1.6961005 0.34944189 0.025152922 1907986
1.6936102 0.34904718 0.023239255 1118474
1.694006 0.35101378 0.023606658 1776401
1.6922015 0.35245377 0.021629393 1447181
1.6929367 0.35448384 0.021354675 2105367
1.690793 0.35376692 0.019414663 1184269
1.6914272 0.35605264 0.019668341 1776145
1.6922742 0.35898775 0.018949151 2434328
1.689616 0.357279 0.018172741 1183757
1.6908247 0.35947555 0.017375052 1973779
1.6885526 0.35804039 0.015913486 1117965
1.6889734 0.36079168 0.015572309 1315853
1.6894481 0.3636384 0.015819728 2105367
1.6879134 0.3624801 0.014016032 1382418
1.6886373 0.36496639 0.013613462 1447699
1.6889544 0.36735803 0.013728321 2303003
1.6872742 0.36607057 0.011644244 1184275
1.6875172 0.36822331 0.012275338 1381908
1.6890461 0.37054032 0.010392368 1712408
1.6859293 0.37019467 0.0094791651 986648
1.6873031 0.37177271 0.0096740723 1778463
1.6904819 0.37783122 0.0094575882 2369056
1.68574 0.37316287 0.0066586733 725784
1.6876845 0.37512016 0.007781446 1712159
1.6874793 0.37809086 0.006724596 2371628
1.6901145 0.38073611 0.007006824 2107165
1.6923741 0.38593411 0.0064030886 2369059
1.6868911 0.37958568 0.0044329166 4543055
1.6879003 0.38145608 0.0051582456 2172199
1.6903534 0.38527524 0.0051413774 2238246
1.6915541 0.38578832 0.0040544271 1579805
1.6927433 0.38814765 0.0042830706 1250324
1.6859472 0.38080901 0.0034985542 5857632
1.6862085 0.38277107 0.0031492114 4541259
1.6878376 0.38546199 0.002497375 3751744
1.6889482 0.38837945 0.0025765896 2699561
1.6905267 0.38998854 0.002946496 1842974
1.692264 0.39279479 0.0015721321 2040604
1.6785238 0.37649131 0.0017803311 7633527
1.680429 0.37919575 0.0016197562 7304051
1.6819743 0.38135415 0.0014716983 7896438
1.683778 0.38435292 0.0012795925 7830136
1.6852796 0.38719386 0.00074565411 6645862
1.6870143 0.38906986 0.00088489056 4343874
1.6885338 0.39179558 0.0007199049 3423285
1.6902361 0.39393187 0.00012385845 2566949
1.6923208 0.39666867 -0.00019288063 2369053
1.6930575 0.39826357 -0.00076377392 1842458
1.6944712 0.40184951 -0.00068324804 2500126
1.678187 0.38046324 0.0012671351 7501944
1.679871 0.38311958 0.0007764101 7304562
1.6816597 0.38563448 0.00012630224 7764596
1.6832927 0.38804322 0.00018811226 7304047
1.6848878 0.3905347 -0.00078326464 5396308
1.6868522 0.39305538 -0.00084924698 4015164
1.6877677 0.39547282 -0.00093531609 3093552
1.6895268 0.39739382 -0.00087177753 2763813
1.6916618 0.40059942 -0.0013691187 1842459
1.6934659 0.40248972 -0.0013313293 1974040
1.6792309 0.38670427 -0.001013279 7567476
1.6810977 0.38877511 -0.0017092228 7040116
1.6826246 0.3914116 -0.0018460751 6382697
1.6842697 0.39378858 -0.0015559196 4673363
1.6856099 0.39662588 -0.0021674633 2569021
1.6872548 0.39973682 -0.00222826 1908525
1.6894176 0.40109426 -0.0020899773 1709605
1.678715 0.39008087 -0.0024174452 6843255
1.6804461 0.39223313 -0.0025738478 6382716
1.6820986 0.39499754 -0.0026735663 4672875
1.685119 0.3989113 -0.0027354956 1253937
1.7266814 0.35831809 0.038105249 1776924
1.7280611 0.36046976 0.037597001 1315858
1.7297515 0.36253899 0.037886679 1842198
1.7319765 0.36561388 0.037335038 1447182
1.7335954 0.36724019 0.037604511 1381391
1.7350786 0.36815792 0.038074672 1644307
1.7177122 0.34896713 0.03761971 1973283
1.7195737 0.35116529 0.03817153 2171432
1.7212301 0.35386688 0.038458526 2698023
1.723268 0.35702407 0.038059473 2171681
1.7244523 0.35901642 0.037575185 1908253
1.726469 0.36134845 0.038035512 1447447
1.7280357 0.36341882 0.037809432 1250065
1.7296948 0.36566526 0.036798 1315343
1.7309906 0.36838943 0.03598392 1907221
1.7326825 0.3710596 0.036052704 2170906
1.7349451 0.3735429 0.034967184 2236700
1.7354548 0.37696683 0.035276532 2367775
1.713645 0.34811175 0.037103236 2371644
1.7153635 0.35006565 0.037240326 2566957
1.71736 0.35273063 0.037650824 3290161
1.7190176 0.3549968 0.037166715 3816244
1.7206345 0.35758382 0.036732078 3487278
1.7223768 0.35994428 0.036426961 3158319
1.7243009 0.36263281 0.035340846 1907998
1.725976 0.36498588 0.035281062 1776150
1.7271333 0.36756402 0.035384417 1775893
1.7291709 0.36977702 0.03476119 2039061
1.7307981 0.37196237 0.034591258 2236438
1.7324344 0.3744486 0.034754515 2434075
1.708869 0.3449285 0.035806477 8354182
1.7100861 0.34676379 0.036432505 8421515
1.7118077 0.348836 0.036557913 4803933
1.7133448 0.35137224 0.036321878 3291195
1.715317 0.35350358 0.035695553 3289649
1.7167413 0.3559894 0.03612268 3750193
1.7190263 0.35830486 0.035550177 2894887
1.7207639 0.36166579 0.035424054 2763044
1.7218461 0.36387545 0.035532653 2170392
1.7236838 0.36623299 0.035205841 1446168
1.729053 0.373366 0.034369051 2763034
1.7067982 0.34577757 0.035238683 7696738
1.7079622 0.34761226 0.035487771 9276041
1.7093729 0.34997809 0.034734368 7500413
1.7111216 0.35259277 0.03510797 3487303
1.7125139 0.3547318 0.035558939 2763312
1.7143247 0.35626328 0.03604871 2696490
1.7029561 0.34470481 0.032934606 1579278
1.7045267 0.34645092 0.034267545 4078879
1.7056816 0.34885389 0.033843875 7301470
1.7069511 0.35086209 0.034035683 8881541
1.7085651 0.35301411 0.034733415 9145744
1.7008481 0.34554744 0.032169759 1447183
1.7020102 0.34755045 0.032334328 1776140
1.7036679 0.34968275 0.032381892 4999202
1.7044699 0.35181659 0.032732129 7367489
1.6983917 0.34679788 0.031077325 1315854
1.6997406 0.34880972 0.030606389 1512975
1.7015374 0.35085106 0.031127572 2500111
1.6963871 0.3476789 0.029136419 1184269
1.6972635 0.3499245 0.029470563 1644559
1.6984785 0.35188007 0.029341638 2170903
1.6942964 0.34910518 0.027634144 1052426
1.6953028 0.35111332 0.027433991 1644817
1.696702 0.35381538 0.027874231 2368790
1.6930454 0.3524034 0.025963545 1447182
1.6944122 0.35474592 0.025727808 2171161
1.6919024 0.35355699 0.024060369 1315598
1.692488 0.35573357 0.023803353 2039577
1.6934488 0.35836494 0.023828983 2500379
1.6903532 0.35533369 0.022238314 1183505
1.6906074 0.35693496 0.022297025 1513233
1.6918437 0.3599444 0.022126913 2500123
1.6893106 0.35871619 0.020052493 1447182
1.6896498 0.36052537 0.020194411 1579281
1.690608 0.36330181 0.020521879 2697500
1.6878846 0.36047488 0.019496799 1118217
1.6879046 0.36238116 0.018000245 1184781
1.6895497 0.36452973 0.017997026 1907989
1.6899288 0.36648941 0.018510222 1908505
1.6875153 0.36572409 0.017960548 1645331
1.6886525 0.36826146 0.015790343 1776663
1.6871762 0.36969101 0.013384402 1315604
1.6885641 0.3724097 0.013905644 1907995
1.6857729 0.37036872 0.012171388 1052434
1.6882491 0.37540638 0.010981977 1908765
1.6882401 0.37834156 0.012251019 1974300
1.6882523 0.37969846 0.0093663931 1843738
1.6875751 0.38267875 0.0083476305 2436386
1.689461 0.38604057 0.0068842769 2172443
1.6910949 0.38773692 0.0066412091 2303008
1.6910496 0.3900075 0.0071660876 2039839
1.690347 0.39125109 0.0045982599 2040093
1.6915274 0.3943271 0.0041883588 1842201
1.6921778 0.39570081 0.003344357 1447700
1.6936119 0.39880449 0.0051884651 2105623
1.6874295 0.39364201 0.0015707016 2699555
1.6896768 0.39504683 0.0023579597 2500641
1.6910744 0.39770639 0.0026535988 2237214
1.691919 0.40033674 0.002252996 2237213
1.6927221 0.40256637 0.0020650625 2302753
1.695714 0.40523845 0.00098919868 2105623
1.6794921 0.38635492 0.0019691586 7436400
1.6817138 0.3891111 0.0010661483 6777969
1.6837312 0.39161491 0.0010176897 5528416
1.6853092 0.393888 0.0011529326 3555394
1.6865346 0.39632761 0.00083380938 2831670
1.6886334 0.39913642 0.00081193447 2961446
1.6901778 0.40121919 5.4895878e-05 2763558
1.6920414 0.40359622 -0.00030642748 2237216
1.6931945 0.40608931 -0.00076758862 1907993
1.6946505 0.40888375 -5.6624413e-05 2369054
1.6970946 0.41194898 -0.0015091896 1974036
1.6782559 0.38809907 0.00092428923 7633270
1.6795475 0.39021832 0.00043714046 7501686
1.6811829 0.39265156 0.00040626526 7172982
1.6833658 0.39562315 -2.9802322e-06 5791846
1.6849968 0.3976987 -0.00040364265 3686983
1.6866164 0.40014011 -0.00056040287 3028789
1.6886165 0.40266055 -0.00096511841 2632741
1.6899097 0.40531254 -0.00088340044 2369314
1.6916261 0.40768749 -0.00081199408 1710615
1.6965487 0.41484565 -0.0017355084 1908504
1.6975257 0.41697377 -0.0018199682 2039830
1.6779072 0.39184147 -0.0010806322 7764857
1.6797972 0.39410824 -0.0011506081 7699319
1.6814467 0.39671355 -0.001662612 6778486
1.6825402 0.399378 -0.0023095608 5528425
1.6844662 0.40188152 -0.002199769 3818317
1.6860085 0.4042874 -0.0024138689 3028029
1.6875503 0.40611744 -0.0022672415 2040106
1.6896851 0.40913725 -0.001773119 1710109
1.7000266 0.42552882 -0.0048013926 2434323
1.6776992 0.39541501 -0.0017380714 7566977
1.679302 0.39789081 -0.0021961927 7698552
1.6803322 0.40060204 -0.0026011467 7172222
1.682326 0.40412545 -0.0033629537 6185596
1.6845231 0.40523762 -0.0030878782 2173767
1.6854762 0.4075284 -0.0030207634 1909814
1.7241555 0.36018044 0.039006293 2105885
1.7248622 0.3622058 0.038659334 1842201
1.7264223 0.36460108 0.038908243 1842713
1.7288258 0.36810833 0.037502706 1710356
1.7299395 0.3699702 0.037857592 1512980
1.7318227 0.37212384 0.037592113 1841686
1.7328188 0.37435418 0.037466884 2170400
1.7156273 0.3536492 0.038445354 3289901
1.7180845 0.35624194 0.038818717 3618865
1.7198012 0.35868245 0.038969398 3750202
1.7211928 0.36084378 0.03894794 3355956
1.7226443 0.36326081 0.038034379 2697508
1.7244604 0.36536235 0.037926316 1710359
1.7260637 0.36830121 0.037475169 1578773
1.7280545 0.37090868 0.037023783 1841687
1.7292145 0.37311488 0.036478877 2368029
1.7313554 0.37608725 0.035894752 2828831
1.7326993 0.37856412 0.035832167 2433310
1.7111751 0.35035247 0.037937164 2895932
1.7121215 0.3527894 0.03850615 2566956
1.713959 0.35492057 0.038237572 3355182
1.7157111 0.35773927 0.037973464 3947306
1.7174115 0.35973012 0.037860632 4802111
1.7189276 0.36204541 0.037395954 4868162
1.7204491 0.36479104 0.037005067 3683888
1.7222843 0.36758143 0.036086679 2170905
1.7240727 0.36919874 0.036072373 1710101
1.7255501 0.37155318 0.035687566 2104855
1.7270887 0.37455851 0.034995675 2433820
1.7288239 0.37706953 0.035782456 2763037
1.7309412 0.37814748 0.035671473 2762785
1.7070293 0.34946704 0.037094057 7434355
1.7086029 0.35120821 0.037606835 6250857
1.710032 0.35365558 0.037060142 3487806
1.7118539 0.35632652 0.036820352 2697257
1.7140791 0.35856795 0.0363186 2894625
1.7149451 0.36072195 0.036811233 3552041
1.7166572 0.36305153 0.036158085 4538421
1.7188267 0.36607212 0.03642571 3354666
1.7204897 0.36972618 0.035834551 1512211
1.7233884 0.37221283 0.035107851 2565915
1.725214 0.37572408 0.034695506 2763294
1.7028034 0.34781915 0.035341382 1841678
1.7045746 0.35012835 0.03613925 6842202
1.7064228 0.35262871 0.035828412 6447204
1.7078059 0.3551845 0.035744429 4802899
1.7099853 0.35693526 0.036291718 1643804
1.7006205 0.3489545 0.034437537 1184009
1.7024592 0.35131311 0.034563422 4078630
1.7041508 0.3536973 0.034539819 6710106
1.6974144 0.34816915 0.03256321 855304
1.6989713 0.34990972 0.033204079 1512976
1.7000103 0.35228872 0.033095598 2236433
1.70137 0.35450149 0.033033371 4013089
1.6952426 0.34928614 0.031086981 921098
1.6964452 0.35141844 0.031392813 1446928
1.6977198 0.35345083 0.031549931 1776145
1.6985523 0.35583431 0.031179547 2434325
1.6937367 0.35071439 0.02905184 1052432
1.6947353 0.35280007 0.029437542 1578768
1.6954677 0.35472518 0.029903114 1776145
1.6926816 0.35352069 0.028234839 1645077
1.693349 0.35559374 0.028294861 1512978
1.6942835 0.35837489 0.028173566 2302999
1.6911974 0.35501122 0.026325464 1052428
1.6911963 0.35709131 0.026107192 1776405
1.6929734 0.35982639 0.025594473 2434586
1.689436 0.35905594 0.024888039 1381393
1.6909728 0.36137223 0.024284244 2434332
1.6887901 0.35954911 0.022877097 1974033
1.6886675 0.36225694 0.022644579 1776660
1.6901445 0.36436892 0.022162437 2500124
1.6872053 0.36421996 0.021704078 2632475
1.6887442 0.36556262 0.0204795 1513233
1.6893663 0.36892062 0.019110978 2171415
1.6870303 0.36761683 0.018953681 1052175
1.6873648 0.3696894 0.018211365 1842967
1.6888611 0.37138277 0.018631577 1974295
1.6899847 0.37327451 0.016184449 2565919
1.6880674 0.37348127 0.016693473 1644819
1.6888487 0.37465936 0.015442014 2500126
1.688623 0.3762961 0.014045358 1974299
1.6888587 0.37912738 0.014188766 1973785
1.6879194 0.38107616 0.011970222 1843223
1.6878812 0.38274843 0.012346506 1710105
1.6890984 0.38434446 0.01300329 2039582
1.6897094 0.38839525 0.011192858 2105372
1.6921413 0.39560866 0.0064071417 1908245
1.6927118 0.40356499 0.0025423169 1710874
1.695092 0.40610659 0.0029946566 2039580
1.6874753 0.40039712 0.0020470023 1778467
1.6894953 0.40299958 0.0021132231 1776926
1.6908026 0.40474534 0.0020360351 2236960
1.6925355 0.40752435 0.0025205612 2368542
1.6940269 0.41024578 0.0027381182 2368288
1.6782341 0.39158988 0.0034095049 5528916
1.6799521 0.39315271 0.002564311 6449246
1.6812587 0.39605999 0.0018934011 5264717
1.683892 0.39894605 0.0013888478 3687255
1.6857243 0.40156299 0.0012844801 2436917
1.6867561 0.40373653 0.0014389753 2502189
1.6886504 0.40644503 0.00092720985 2764326
1.6904688 0.4086957 0.00076472759 2566689
1.691765 0.4113993 0.00035041571 2171678
1.6930313 0.41490519 -0.00030946732 3158816
1.6949012 0.41653621 -0.00097286701 2698264
1.6971788 0.41962361 -0.0012218952 2237200
1.7048411 0.43024623 -0.0044195056 2895141
1.6781385 0.39553976 0.0010724664 6909799
1.6796935 0.39821428 0.00065308809 7041128
1.6820092 0.40036654 0.00052785873 6317674
1.6830683 0.4028374 0.00035870075 5725536
1.6846385 0.40531915 -0.00015819073 4607052
1.6867211 0.40776414 -0.00084656477 3488306
1.6881785 0.4101311 -0.00090044737 3224873
1.690026 0.41238564 -0.00091713667 2632223
1.6910714 0.41557157 -0.0010375381 2698264
1.6932309 0.41731781 -0.0011520386 1250846
1.6972971 0.42379141 -0.0021139383 3289889
1.6985309 0.42673945 -0.0028399825 3092764
1.7028146 0.43002969 -0.0037154555 3289636
1.6795164 0.40135461 -0.0014674664 7106399
1.68083 0.40409338 -0.0021132231 7369057
1.6825454 0.40629232 -0.0021851063 7237744
1.6839206 0.4087351 -0.0023975968 6185053
1.6860719 0.41071385 -0.0025024414 3093046
1.6875215 0.41425276 -0.0026245117 2632486
1.6781621 0.4026913 -0.0018212795 4409401
1.6786952 0.40544426 -0.0033068061 5328954
1.6799188 0.40758193 -0.0028213263 6315585
1.6821988 0.41018039 -0.003295064 7631203
1.6832504 0.41254103 -0.0036393404 6513268
1.6850529 0.41430533 -0.0036317706 4408402
1.6787388 0.40900916 -0.0040912628 3288859
1.6797099 0.41093224 -0.0039566755 4670997
1.7205451 0.36305994 0.03937 3026993
1.7215334 0.36486048 0.039573073 2106140
1.7231041 0.36781055 0.038766146 1908248
1.725203 0.37010825 0.038412809 1578517
1.7262027 0.3715812 0.038903236 1644566
1.7280354 0.37432641 0.038687527 1841684
1.729512 0.3755601 0.038190365 1973014
1.7115188 0.35456437 0.039408982 2104608
1.7121511 0.35591447 0.039478302 2303013
1.7141786 0.35838783 0.039409161 2566178
1.715925 0.36139923 0.039284408 3552044
1.7177112 0.36360592 0.039344788 3420974
1.7196624 0.36553925 0.038918197 2170908
1.7207695 0.36806798 0.038516641 1710359
1.7226224 0.37107909 0.038366497 1776152
1.7244591 0.37326199 0.037756681 1907736
1.7261374 0.37568754 0.03780067 2039321
1.7274034 0.37878555 0.037067235 2565662
1.7296154 0.37962133 0.036574483 2631457
1.7072945 0.35273659 0.038504004 4868946
1.7090615 0.35525656 0.03905493 2434859
1.7105961 0.35733658 0.039200127 2434595
1.7122905 0.3599667 0.038452327 2631713
1.714047 0.36264324 0.038434327 2499613
1.7159278 0.36502081 0.037765265 2894369
1.7172539 0.36723626 0.037564278 2368283
1.7187725 0.36970413 0.03711915 2171161
1.7204329 0.37198675 0.036669135 2236697
1.7224295 0.37466848 0.036189914 2236442
1.7237077 0.37712139 0.036088169 2433564
1.7261422 0.37878436 0.035951912 3026208
1.7040472 0.35200167 0.037778854 4999756
1.7053187 0.35363203 0.038044453 6513509
1.7068446 0.35631865 0.03773737 4079682
1.7086548 0.35866982 0.037469208 2565671
1.7099768 0.36083281 0.037181377 2368289
1.7119401 0.36354381 0.03720808 1775641
1.7133782 0.36592931 0.037532926 1973272
1.715148 0.36825275 0.037210166 2368537
1.7166998 0.37076551 0.036891699 2302231
1.7184795 0.37281615 0.036687195 2236695
1.7200762 0.37533635 0.036163986 2499865
1.7219313 0.37732607 0.036086679 2895386
1.7013328 0.35242361 0.036675513 3354915
1.7026591 0.35502011 0.036557198 5986639
1.7045949 0.35759878 0.036212385 4934475
1.7059827 0.35990995 0.03695327 2763055
1.7072687 0.36132854 0.036953092 3158835
1.6981564 0.35126776 0.034864187 986121
1.6991436 0.35378259 0.035178125 2302482
1.7004805 0.35626388 0.035170317 4276011
1.7020063 0.35855144 0.03555584 5789263
1.6959 0.35250682 0.033408642 855050
1.6970568 0.35493213 0.033603668 1710353
1.6985435 0.35714006 0.033603907 2565140
1.6935695 0.35414684 0.031983793 921100
1.6950417 0.35631377 0.0319888 1710355
1.6963451 0.35840684 0.032342017 1841682
1.6915531 0.35549802 0.029840648 1250063
1.6925406 0.35751534 0.030183375 1644818
1.6940117 0.35956943 0.030656695 1710611
1.6906471 0.35898936 0.028251708 1842197
1.6917977 0.36076301 0.028593421 1842453
1.6928556 0.36296016 0.028271675 2368794
1.6894157 0.36018807 0.02690959 1447443
1.6895218 0.36205083 0.026728272 2171419
1.6907648 0.36414278 0.025649071 2631967
1.6880782 0.36340016 0.025223255 1710613
1.6891686 0.36657709 0.024746597 2434591
1.687548 0.36667573 0.022366464 1578771
1.6880951 0.36897063 0.02263999 2039321
1.6860466 0.36878431 0.022428274 986892
1.6863842 0.37006068 0.01965946 920843
1.6885488 0.37270409 0.019836426 2237467
1.6886655 0.37484872 0.019631326 2105625
1.686393 0.37295997 0.019518137 1184008
1.6882824 0.37689406 0.017836988 2105369
1.6890137 0.37865716 0.016719937 2565920
1.6942945 0.41101253 0.0058509111 2565664
1.6892238 0.40674973 0.0034227371 2237988
1.6926708 0.41219437 0.0040615797 2631717
1.6975598 0.41659367 0.0020251274 2631964
1.696692 0.41911834 0.0026751757 3026215
1.6995035 0.42093235 0.001568079 2894882
1.6785429 0.39424264 0.0041409731 4278330
1.6873528 0.40715152 0.002563715 2370340
1.6896282 0.41025257 0.0023878813 2632484
1.6911867 0.41341752 0.0023600459 2369062
1.6917872 0.41525638 0.0026804209 3421731
1.6950214 0.41911846 0.00016736984 3355682
1.6970721 0.42312634 0.0011382103 3684650
1.6989645 0.42511857 0.00028842688 3553063
1.6801739 0.40107584 0.0019463897 3027739
1.6821945 0.40453929 0.00092351437 5330255
1.6845195 0.40628415 0.0013753176 3950154
1.6856811 0.40907824 0.0011925697 3817790
1.6871145 0.41103286 0.0013098717 3685687
1.6886892 0.41363788 0.0011370182 3356460
1.6901088 0.41662747 0.0004683733 3816749
1.6916945 0.41831648 -0.00035530329 3092767
1.6925029 0.42192435 -0.00024020672 4802861
1.6947372 0.4225477 -0.00019335747 3947553
1.696178 0.42570114 -0.0010412931 3881243
1.6987636 0.42975426 -0.00056231022 5066048
1.6783824 0.40235019 0.00077921152 7104594
1.6798669 0.40476388 0.00044643879 6776672
1.681814 0.40780073 0.00015842915 7237482
1.6832342 0.41033429 1.3947487e-05 7106664
1.6849048 0.41232204 -0.00043731928 6251095
1.6862838 0.41535127 -0.00070458651 6185040
1.6887813 0.41717428 -0.001437068 4014122
1.6896309 0.41966844 -0.0013011098 4079912
1.6906905 0.42266756 -0.0023306012 4474399
1.6921698 0.42458409 -0.0025542974 5263668
1.6947374 0.42860329 -0.004252553 3948331
1.6970371 0.42964971 -0.0024388433 4671528
1.678031 0.40691137 -0.00041121244 6577478
1.6794963 0.40886748 -0.0012676716 7236709
1.6808226 0.41122484 -0.0018378496 6513229
1.6822397 0.41366667 -0.0019278526 8026726
1.6844362 0.41604114 -0.0026558638 7303787
1.6859424 0.41854155 -0.0025452971 6580060
1.6875931 0.42131597 -0.0025900602 5724487
1.6884027 0.42409718 -0.0029237866 6448202
1.6773891 0.41020638 -0.0030064583 4538910
1.6792109 0.41237897 -0.0038992167 5327916
1.6804619 0.41501212 -0.0033929348 7828308
1.6820645 0.41750795 -0.0033077002 9407611
1.6830649 0.41993111 -0.0041120648 8486789
1.6849378 0.42291915 -0.0036582947 7764095
1.6779761 0.41625541 -0.0051167011 2959627
1.6786019 0.4192397 -0.0053452253 5064226
1.7165421 0.3651185 0.040553331 2039834
1.7231989 0.37471026 0.038830996 2105116
1.7246718 0.37718678 0.039028287 1973785
1.7080097 0.35695308 0.040183604 1710104
1.7088811 0.35838497 0.04063201 1775899
1.7102032 0.36014813 0.040245831 2039326
1.7128291 0.36326468 0.040029645 2105371
1.7142286 0.36606407 0.039990723 1842454
1.7161946 0.36800927 0.0399158 1973784
1.7179387 0.37085247 0.039127648 1973786
1.71907 0.37316471 0.03915596 1842201
1.7211516 0.37572122 0.038653851 1973526
1.7224064 0.37841016 0.03813237 2499868
1.7243674 0.37994927 0.038134694 2828830
1.7252803 0.38259512 0.037795901 2697247
1.7037261 0.35531676 0.038953781 5066318
1.7055669 0.357566 0.03995049 2763565
1.7073104 0.35958409 0.039855361 2434856
1.7092295 0.3623715 0.039284468 2565920
1.7107627 0.36475575 0.039381027 2434333
1.7119875 0.36685306 0.038532257 2434334
1.7135662 0.36914629 0.038122833 2302748
1.7154596 0.37173873 0.038044214 2434078
1.716697 0.37430423 0.03764534 2368284
1.7189916 0.37689263 0.037029266 2236443
1.7208472 0.37970912 0.036892116 2763037
1.7224503 0.38293964 0.036774158 3158046
1.7231011 0.38386112 0.036910832 3289379
1.7018716 0.35643804 0.038663685 5066056
1.7035809 0.35865557 0.03849417 4540227
1.7053258 0.36112547 0.038626075 2632233
1.7068453 0.36345792 0.038084626 2697506
1.7081332 0.36576897 0.038064182 2631456
1.7098638 0.36834067 0.0376665 2039066
1.7118862 0.37120897 0.037502527 2631456
1.7126024 0.37440652 0.036646605 2697251
1.7150707 0.37540376 0.036696434 2565664
1.7167263 0.37844253 0.03632009 2170909
1.7184732 0.38126808 0.036367655 2171162
1.7196405 0.38184816 0.035555482 1184015
1.6982322 0.35565245 0.036273599 2039315
1.6995854 0.35748863 0.037413657 4342067
1.701185 0.35982788 0.037198007 4671297
1.7028389 0.36234534 0.037207305 3223857
1.7042956 0.36460489 0.037673652 2170659
1.7061303 0.36646503 0.037528276 1709847
1.6960263 0.35645032 0.035513818 1051661
1.697444 0.35872614 0.03566134 2960411
1.6990132 0.36092871 0.03562808 4210737
1.6999273 0.36278498 0.036209404 5592395
1.6937535 0.35768926 0.033989549 1446929
1.6951246 0.35980785 0.034252167 1841681
1.6963487 0.36225235 0.034132302 2631704
1.6919889 0.35896122 0.032543302 1579025
1.692945 0.36140418 0.03249687 1776145
1.6944933 0.36300838 0.03258121 1973527
1.6896253 0.36035162 0.031386495 1381906
1.6907256 0.36240608 0.030608654 1710610
1.6923232 0.36468792 0.030919194 1973782
1.688833 0.36380166 0.029009461 1842196
1.6904395 0.36574727 0.028784811 2368797
1.6866348 0.36522257 0.026278973 2960413
1.6880703 0.36684543 0.027351916 1973785
1.6883781 0.36929291 0.026342034 2171418
1.6861228 0.36530447 0.025383949 1315091
1.6856158 0.36828095 0.025817513 1381649
1.6875327 0.37036419 0.025256515 2369051
1.6869636 0.37290496 0.024616838 2105625
1.6861534 0.37486529 0.023142993 2368537
1.6868703 0.37820536 0.02039659 2105624
1.6858635 0.37985545 0.019950986 1974043
1.6914648 0.40212578 0.0099285841 2105625
1.6929785 0.40523863 0.0091357231 2236957
1.6927273 0.41137165 0.0060096383 2697253
1.6933045 0.41419297 0.0055136085 2894628
1.6939206 0.41721922 0.0049360394 3158311
1.6921024 0.41631591 0.0037705898 3553062
1.6931508 0.41864812 0.003742218 3816492
1.6948044 0.42221212 0.0025531054 4145196
1.6875579 0.41422957 0.0024327636 3554109
1.6895729 0.4169811 0.0025247931 3750965
1.6904643 0.42041117 0.001578927 4737338
1.6923122 0.42236602 0.0016971827 5592129
1.6939889 0.42458278 0.0005723834 5328690
1.6960623 0.42632723 0.00084209442 5132347
1.6969335 0.42982572 -0.00026834011 6843227
1.6779435 0.40461022 0.0038709641 2895369
1.6821647 0.411255 0.00083613396 8027776
1.6841376 0.41375327 0.0013860464 7041136
1.6853728 0.41604471 0.0017006397 6843497
1.6868081 0.41816568 0.00091063976 6843230
1.6881655 0.42092419 0.00078237057 6514777
1.6899431 0.42343521 0.00036412477 6579796
1.6917042 0.4265911 -0.00031483173 6579797
1.6927816 0.42774111 -0.00074541569 4342859
1.6781321 0.41005462 -0.00016200542 7498584
1.679992 0.41206396 -9.5009804e-05 8553090
1.6811452 0.41485155 0.00017958879 8817029
1.6830978 0.4173184 0.00028151274 8619126
1.6848118 0.41989619 -0.00023490191 8882295
1.6859796 0.42205518 -8.0227852e-05 8882808
1.6883506 0.42456847 -0.0014801025 8487784
1.6897794 0.42714041 -0.0013725758 8816501
1.6912996 0.43016517 -0.0017789006 8750974
1.6775991 0.41364706 -0.0009354353 7762015
1.6791447 0.416161 -0.00084280968 9539719
1.6807685 0.41872197 -0.0017629862 7171403
1.6829565 0.42099577 -0.0021871328 9606275
1.6842353 0.42349899 -0.0022667646 9540742
1.6855844 0.42594802 -0.00232023 9343110
1.6876364 0.42898375 -0.0023294687 10066830
1.6771183 0.41691256 -0.0031970739 6117431
1.6790664 0.41964298 -0.0032137632 7565129
1.680243 0.42226076 -0.0036641359 9802097
1.6814635 0.4246164 -0.0035479069 10000010
1.6826093 0.42733783 -0.0038534403 9474184
1.6852516 0.42957431 -0.00342834 9277069
1.6771643 0.42112082 -0.0054143667 2170117
1.6777544 0.42410141 -0.0046769381 6117149
1.679467 0.42638648 -0.0048466325 9800813
1.6769559 0.42668438 -0.0060249567 4274456
1.7182405 0.37496769 0.039948821 2434080
1.7198997 0.37665844 0.040408671 1776406
1.7064849 0.36112708 0.041103959 1644315
1.7074833 0.36345196 0.041196585 1644567
1.7091053 0.36606818 0.040958405 2236958
1.7111305 0.36849099 0.040810108 2105370
1.7124131 0.37106931 0.040375412 2236701
1.7139666 0.37325919 0.039952755 2302494
1.7160845 0.37596297 0.040306807 2039836
1.7179949 0.37823278 0.039869368 1710358
1.7191206 0.38092625 0.037738562 2236952
1.7207159 0.38321453 0.038732648 2171416
1.7229183 0.38475496 0.037902057 2105886
1.7006807 0.35855186 0.039618969 3619117
1.7021432 0.35961944 0.039924741 3158314
1.7035552 0.36198634 0.040257573 2105377
1.7057855 0.36455524 0.040406585 2171167
1.7066933 0.36718446 0.039921761 2565919
1.7084589 0.36879689 0.039616644 2631967
1.7102947 0.37184513 0.039386868 2499871
1.7119962 0.3745575 0.038610458 2500126
1.7138898 0.37714428 0.037870646 2565918
1.7156416 0.3797459 0.037686169 2500125
1.7167392 0.3823123 0.036919296 2236954
1.7188655 0.38445699 0.037625611 2302746
1.700151 0.36130697 0.039085507 3882549
1.7018406 0.36360949 0.039289117 3224366
1.7035804 0.36621517 0.03856945 2631971
1.7048469 0.36835176 0.03843832 2434077
1.7070568 0.37079024 0.03788662 2368028
1.7086955 0.37386137 0.037755787 2500126
1.7100422 0.37661129 0.036938608 2894880
1.7116013 0.37804389 0.036941051 2434078
1.7134278 0.38059884 0.036698341 2631454
1.7150519 0.38279945 0.037240505 1644565
1.7173021 0.38522083 0.036778331 1841943
1.6970255 0.36017323 0.037663639 2368539
1.6980939 0.36235762 0.037448406 4210739
1.6997004 0.36457205 0.037409425 3618864
1.7009525 0.36760122 0.037367404 3223850
1.7021669 0.36995769 0.03717804 2039068
1.7047136 0.37233138 0.03716594 2302238
1.7068169 0.37490028 0.037127256 2631455
1.707936 0.37770438 0.036537528 2631452
1.7090318 0.37946528 0.036569178 3289633
1.6945167 0.36141092 0.036268711 1447182
1.6957002 0.36348534 0.03599751 2894621
1.6972121 0.36569011 0.036346078 4210481
1.6984032 0.36846226 0.036242008 3157803
1.6921668 0.36204374 0.034822106 1183756
1.6935072 0.3647052 0.034311295 1973008
1.6946372 0.36706048 0.034833908 2960152
1.6899235 0.36349982 0.033509195 1118476
1.6913216 0.3656466 0.032847643 1249291
1.6921575 0.36821312 0.033104539 1907726
1.6876049 0.36477518 0.031993508 1184779
1.6891658 0.36722106 0.031238854 1184269
1.6902497 0.36906183 0.031043291 1907986
1.6870539 0.36879754 0.029131174 1513487
1.6879245 0.37097412 0.029669762 1974039
1.6849926 0.3696329 0.028398812 1184784
1.6865594 0.37226999 0.027299166 2303004
1.683362 0.37057328 0.026748776 1184271
1.6856171 0.37403673 0.025960505 2171675
1.6851814 0.3756777 0.025977731 2302747
1.6847463 0.37857091 0.023924947 2039834
1.6843076 0.38053435 0.022143841 2105369
1.6897435 0.42694825 0.0011236668 7830129
1.6838717 0.42065197 0.0012466908 8882820
1.6852198 0.42354774 0.0010567307 9211781
1.6869606 0.42573076 0.00096082687 9343366
1.6884043 0.42840934 0.00080931187 9672588
1.6782969 0.41777217 -0.00040310621 9342340
1.6799686 0.41955835 0.00024670362 9408906
1.6816685 0.42232615 0.00029551983 9474429
1.6829324 0.42518836 0.000451684 10000780
1.6842426 0.42726374 0.00031143427 10198416
1.6863368 0.42935932 -0.00094044209 10461843
1.6770744 0.42142433 -0.00079786777 9341821
1.6789346 0.42347133 -0.0006710887 7434579
1.6808755 0.42560333 -0.0017177463 10461319
1.682554 0.4282338 -0.0024721622 10987673
1.677125 0.42502791 -0.0028452277 7828812
1.6782463 0.42688781 -0.003934443 8551756
1.6800745 0.42960125 -0.0033701062 10855311
1.7162857 0.37898821 0.041384041 2105371
1.7200639 0.38559341 0.039388716 1907743
1.7208898 0.38686037 0.040138602 2565157
1.7043581 0.36742347 0.041300714 2698021
1.707233 0.36995006 0.040907145 2105114
1.7093732 0.37333488 0.040743589 2302494
1.7119123 0.37605166 0.040160894 2565920
1.7131486 0.37743145 0.040376306 2434078
1.7147136 0.38076311 0.039329112 2500385
1.7162342 0.38322693 0.039393723 1907995
1.7178504 0.38578832 0.038829565 3026459
1.7183043 0.38702458 0.039141476 2302242
1.7005912 0.36483669 0.040138721 2697769
1.7021029 0.36707658 0.040986717 2236962
1.7040541 0.36973733 0.040748477 2302750
1.7054183 0.3723368 0.040681183 2368285
1.7071646 0.37481499 0.03995961 2829089
1.7087934 0.37711561 0.039478123 2565661
1.7106931 0.37958193 0.038752198 2960673
1.7122419 0.38174379 0.038179219 2829345
1.7140241 0.38444674 0.037636042 2302752
1.7155514 0.38639909 0.037964582 2763297
1.7165334 0.38915694 0.037974834 2697247
1.6975379 0.36385578 0.039021194 3816501
1.6982147 0.36594081 0.039593041 3553329
1.6999258 0.36780447 0.039911032 2631717
1.7013856 0.37039518 0.039475322 1973534
1.7034638 0.37364751 0.038547337 2236445
1.7053293 0.3759715 0.038128912 2631710
1.7064635 0.37802607 0.037873268 2697245
1.7077298 0.38047069 0.037423968 2697245
1.7100515 0.38302022 0.037117481 2763296
1.711592 0.38583821 0.036652088 3092261
1.712985 0.3873933 0.036964655 2894629
1.714658 0.3910259 0.036661923 3421480
1.6946032 0.36471349 0.037636638 2236695
1.6960402 0.36710644 0.03835696 3553066
1.6978936 0.36979008 0.03772068 3421226
1.6994462 0.37187511 0.037055969 2894634
1.701607 0.37417281 0.036854148 2236447
1.7026676 0.37673241 0.03704524 2302236
1.7044775 0.37966263 0.036746264 2763037
1.7060983 0.38233298 0.036537707 2894623
1.7077901 0.38518614 0.036170542 2894625
1.7099104 0.38679564 0.03595233 3026213
1.7116425 0.38917625 0.035927296 2960423
1.7131399 0.39120603 0.035535932 3026214
1.6912066 0.36398888 0.035650611 591621
1.6925027 0.36596537 0.036604226 1249804
1.6940014 0.36846292 0.036662102 2894620
1.6954406 0.37075329 0.036192298 3947055
1.6968286 0.37371856 0.035970688 3420721
1.6987197 0.37593502 0.036254883 2500134
1.7002175 0.37752318 0.036535084 2499871
1.7026358 0.38100654 0.036180377 2762781
1.6883838 0.36589897 0.034077883 460806
1.690145 0.36706305 0.035012126 1118477
1.691901 0.36936533 0.034790754 1775632
1.6929686 0.37172067 0.034815311 2762777
1.6945403 0.37470329 0.035200953 3223596
1.6866595 0.36671197 0.032602787 921868
1.6878123 0.36873841 0.033842981 526345
1.6895564 0.37086159 0.03312844 1315340
1.6908957 0.37309778 0.033760667 1906961
1.6858268 0.36983001 0.032918453 790029
1.6877365 0.37162 0.031482279 1250062
1.6881031 0.37381738 0.0317626 1249808
1.6854041 0.37334287 0.030049264 1184527
1.6865268 0.37560827 0.030035973 1710868
1.6834965 0.37205929 0.028210402 1184786
1.6830603 0.37456 0.028514326 1118739
1.6844219 0.37647218 0.028337121 2039835
1.6855782 0.37847847 0.028379083 1974038
1.6823673 0.37671047 0.027327895 1578533
1.6844362 0.38026762 0.025766492 2039831
1.6834205 0.38288933 0.02468884 2105365
1.6881725 0.39844668 0.018637121 2236953
1.6831251 0.42803913 0.00078731775 9869458
1.6780944 0.42497569 -8.4459782e-05 10066579
1.6797893 0.42693603 0.00017958879 9803393
1.6814213 0.42974377 0.00016009808 10395277
1.6773803 0.4284637 -0.00028729439 9736834
1.70293 0.37178528 0.041143894 1973018
1.7058923 0.37510747 0.040949166 2038809
1.7069306 0.37752241 0.040632486 2104855
1.7144455 0.38852608 0.039179981 2829350
1.6988293 0.36962312 0.040705323 2500390
1.7004395 0.37125313 0.040958762 2302753
1.7021098 0.37421465 0.040753782 2236445
1.7038801 0.37692958 0.039981604 2631455
1.7061799 0.3784613 0.03950572 2960676
1.7073383 0.38099909 0.039247751 2499614
1.7085922 0.3845216 0.037703633 2763298
1.7102196 0.38832456 0.038266718 3355179
1.7117558 0.38927019 0.038505971 3289645
1.6960052 0.36881793 0.039308846 3487278
1.6968062 0.37094122 0.04034698 3487537
1.6977754 0.37388128 0.039861083 2303009
1.6998301 0.37517464 0.03944087 2302496
1.7010293 0.37835628 0.03894788 2565667
1.7036539 0.38048923 0.038307428 2631455
1.7050819 0.38241225 0.038192451 2828832
1.7064846 0.38526762 0.037350595 2697248
1.7080735 0.38803977 0.036781311 3026214
1.7096441 0.39015609 0.036605299 3289384
1.7115304 0.39265919 0.036534309 3355178
1.6935316 0.36963969 0.038134754 2565917
1.694656 0.37188327 0.038708508 3224361
1.6954949 0.37483293 0.038523138 2566180
1.698395 0.37739086 0.038874984 2368546
1.6994302 0.37962341 0.037098289 2434080
1.7011752 0.38266009 0.037061691 2696992
1.7031631 0.38444942 0.036818266 2762788
1.7041541 0.38671374 0.036364675 3026212
1.7058871 0.38931435 0.03626895 3091748
1.7077577 0.39193743 0.035912931 3552811
1.7090545 0.39363366 0.03601259 3487021
1.7107358 0.3959986 0.035323322 3289388
1.7132339 0.39994901 0.033786952 3619128
1.6909583 0.37090039 0.036612272 1381132
1.6922667 0.37288898 0.037200212 2434330
1.6936567 0.37625343 0.036703408 3421227
1.6959336 0.37800246 0.036031961 2894891
1.6971617 0.38071448 0.036123991 2301989
1.6989207 0.38356668 0.036265492 2565152
1.7005507 0.38577437 0.035770059 2960165
1.7021716 0.38831103 0.034501791 3289384
1.7037091 0.39042699 0.034816086 3421224
1.7055836 0.39270294 0.034516573 3355689
1.7064869 0.39599383 0.034525037 3750445
1.7119591 0.40063769 0.033439934 3422254
1.6884826 0.37258238 0.035392106 723465
1.6901062 0.37416661 0.035494268 1841681
1.6915703 0.37645036 0.034835815 2696991
1.6932001 0.37950319 0.03499788 3618351
1.6948323 0.38141292 0.035424054 3421232
1.6968048 0.38438928 0.035405576 3289643
1.6993073 0.3879962 0.034849107 3092782
1.7005699 0.39049417 0.034478784 3158310
1.7026863 0.39128464 0.033172727 3289637
1.7033879 0.39296001 0.033662379 3290143
1.7046503 0.39545804 0.033292115 3421736
1.6860595 0.37111378 0.033919752 526605
1.6858552 0.37301761 0.034021378 592654
1.6880825 0.37581533 0.033323228 1315596
1.6894276 0.37786746 0.033683598 1644305
1.6900885 0.38096386 0.033501387 2894884
1.6919577 0.38240945 0.034273863 3157297
1.6843839 0.37408894 0.032946706 1185049
1.6861417 0.37653857 0.031423092 1250318
1.6866729 0.37906659 0.032171607 1184270
1.6883762 0.38184607 0.032696187 2038803
1.6841171 0.37803215 0.03019768 1447700
1.6852211 0.38059241 0.030570209 1052687
1.685421 0.38316488 0.030681252 1184014
1.6828804 0.38200974 0.028561473 592401
1.6841333 0.38419944 0.02876246 1711123
1.6825607 0.38482326 0.027008176 1776662
1.7114375 0.39106023 0.039943695 3816247
1.6947542 0.37571108 0.039333105 3487540
1.6969833 0.37837517 0.039531112 2895406
1.6999004 0.38419187 0.03797096 2104858
1.7037009 0.38899112 0.036851048 2564897
1.7047107 0.39111865 0.036904156 2631207
1.7068269 0.39329404 0.036619186 3815982
1.7087431 0.39374882 0.037687361 3618610
1.6909323 0.37528831 0.0379951 1710871
1.6928005 0.37705743 0.038214147 3289901
1.6948998 0.37965822 0.038550377 3026987
1.6963068 0.38164276 0.038027942 1842462
1.6980318 0.38410389 0.037110269 2039324
1.6997286 0.38755143 0.037274003 2631201
1.70131 0.388762 0.036697149 2828580
1.7017684 0.3911314 0.036931634 3223591
1.7035203 0.393484 0.035958767 2633254
1.706013 0.39543068 0.035340488 3290410
1.7075136 0.398736 0.033920944 3619113
1.6890625 0.37544531 0.037135243 722954
1.6907861 0.37828743 0.037062287 2566177
1.6920898 0.38066524 0.037256241 3224364
1.6940734 0.38295841 0.036485195 2434338
1.6961279 0.38583767 0.035898387 2697254
1.697129 0.38776511 0.036033154 2565410
1.6986598 0.39030337 0.035833657 2895141
1.7009709 0.39288473 0.034351349 3355685
1.7028019 0.39524144 0.03424418 3223848
1.7038274 0.39740962 0.034548283 3487788
1.7063117 0.39938444 0.03362906 3487785
1.6872194 0.37716913 0.035763383 525833
1.6886008 0.37940407 0.035676599 1512978
1.6901428 0.38171172 0.035816908 3092260
1.6919272 0.3842237 0.034994125 3486770
1.6931021 0.38631618 0.03488034 3026217
1.6948848 0.38952851 0.034023106 1710367
1.6998878 0.39551133 0.034726024 3619118
1.6849221 0.37743491 0.034279108 394512
1.6861987 0.38078016 0.033834517 1184527
1.687623 0.38321853 0.033796132 1841683
1.6897964 0.3861323 0.032861412 3815726
1.6906072 0.38758868 0.034027457 3552303
1.6831837 0.37980258 0.0317927 1645594
1.684402 0.38192266 0.032678783 724500
1.6855563 0.38478887 0.031867683 1446929
1.6874154 0.38691169 0.031783223 2499608
1.6886699 0.38927001 0.031932712 3092262
1.682956 0.38306862 0.031418025 1645081
1.683728 0.38551426 0.02966249 987154
1.6848817 0.38784236 0.030253649 1249299
1.686213 0.39018512 0.030397296 2236703
1.6880151 0.39248508 0.0309515 2830119
1.6820632 0.38613594 0.02851212 855322
1.6830568 0.38883358 0.0290066 525851
1.6846187 0.39136428 0.028400838 1644822
1.6858029 0.39257014 0.026683092 2105113
1.6992071 0.38879955 0.038656235 3683882
1.6991668 0.39059311 0.039397001 3750187
1.6934929 0.38438517 0.03787291 2632223
1.6940665 0.38710368 0.037668467 2631967
1.6965114 0.3895545 0.03783232 3355688
1.6984423 0.39255542 0.037539005 1713180
1.6890998 0.38265324 0.036596537 2894884
1.6907806 0.38534701 0.036180735 3618612
1.6917274 0.38792974 0.036217272 3158318
1.6933705 0.38956028 0.03691721 2829352
1.6955767 0.39177066 0.035970747 2434074
1.6972677 0.39447314 0.036152601 3684399
1.6995654 0.39691514 0.035642743 3815984
1.685074 0.38274205 0.034545064 132361
1.6872585 0.38440424 0.035151482 1447191
1.688699 0.38634539 0.035200775 3092007
1.689667 0.38924497 0.035145462 3158313
1.6912731 0.39109832 0.035339952 2960935
1.6853347 0.38526237 0.034124315 724252
1.686245 0.38803393 0.033562779 1250335
1.6878308 0.39043975 0.033598661 3158568
1.6890354 0.39226609 0.032887638 3290409
1.6910837 0.39390057 0.033381283 3882037
1.6860121 0.39201635 0.031831086 3092001
1.6867042 0.39402843 0.031463325 2895396
1.6886046 0.39588791 0.031592965 3553838
