# .PCD v0.7 - Point Cloud Data file format
VERSION 0.7
FIELDS x y z rgba
SIZE 4 4 4 4
TYPE F F F U
COUNT 1 1 1 1
WIDTH 1175
HEIGHT 1
VIEWPOINT 0 0 0 1 0 0 0
POINTS 1175
DATA ascii
1.629128 0.36869323 0.0061014891 2701149
1.6331251 0.36933893 0.0059564114 1385297
1.6174388 0.35131556 0.0063265562 4473915
1.6188678 0.35366893 0.0079684258 6118240
1.6160862 0.35471445 0.0065860152 3091490
1.6172285 0.35673583 0.0068157911 5131335
1.6707572 0.34593111 0.039716244 657676
1.6709778 0.34756297 0.040152907 591882
1.6723373 0.34961402 0.039707601 460297
1.6757137 0.35569054 0.037820458 592929
1.6775143 0.35753179 0.037454307 329757
1.6660221 0.34427816 0.038645506 986643
1.6678783 0.34583038 0.039432347 920592
1.6690223 0.3487395 0.038158655 921120
1.6706147 0.35167259 0.036823213 855854
1.6729583 0.3538096 0.037295997 658728
1.674207 0.35591626 0.038006723 724260
1.6760139 0.35918099 0.03660661 1119535
1.6773145 0.36135322 0.03566134 987949
1.678751 0.36393541 0.034881949 1120046
1.6804919 0.36628598 0.034518838 1317426
1.682448 0.36889791 0.033516645 1382706
1.6835504 0.37066758 0.033406377 1382962
1.6588104 0.33775914 0.03864938 1973027
1.6605971 0.33973879 0.038634598 1644574
1.6626332 0.3424651 0.038635612 1381657
1.6640327 0.34462929 0.038182497 1381667
1.6651947 0.34720004 0.036760211 1382710
1.6670917 0.3494584 0.03699404 1119283
1.6685467 0.35211951 0.035840094 1975100
1.6701633 0.3550055 0.035504699 2567748
1.6718688 0.35740864 0.035006404 2896968
1.6736038 0.35963768 0.034891725 1844028
1.6751788 0.36242551 0.034700155 1646135
1.6770831 0.36470985 0.034032643 1317166
1.678614 0.36719275 0.033676267 1251372
1.6802492 0.36951321 0.033355474 1251372
1.6815629 0.37204593 0.033163428 1514543
1.6839592 0.37462884 0.032232583 1448749
1.684901 0.37768632 0.031440258 1646385
1.6864409 0.37993675 0.030347705 1777718
1.6878567 0.38167393 0.03033644 1975095
1.6886051 0.38536704 0.030097663 2304062
1.6911044 0.38633424 0.029112637 2172221
1.6540505 0.33426297 0.037428379 2893364
1.6554681 0.33614063 0.038347781 2367020
1.6561732 0.33813268 0.039246798 2301739
1.6597886 0.34388739 0.035986066 1975621
1.6616662 0.34600121 0.035931945 2041154
1.6637146 0.34895915 0.035409391 2566978
1.665076 0.35113913 0.035090864 2632769
1.6670027 0.35372359 0.035140216 2502211
1.6685376 0.35582328 0.035092235 3423571
1.6701658 0.35858977 0.034266829 2765384
1.671371 0.3612712 0.033546269 1317687
1.6728359 0.36337394 0.033138514 857132
1.6743667 0.36591285 0.032670379 856875
1.6762052 0.36923987 0.032828033 988202
1.6781576 0.36970294 0.03115803 857384
1.6847531 0.38075715 0.030814409 1974840
1.6863825 0.3839047 0.030082345 2106682
1.6884725 0.38862401 0.029036283 2501697
1.6499114 0.33298856 0.036354065 5985361
1.6517036 0.33425117 0.037446141 5393231
1.6543515 0.34110898 0.034861326 5725050
1.6561841 0.34231192 0.035554051 3357791
1.6579149 0.34475505 0.034844756 3424099
1.6596439 0.34722525 0.034174204 3029596
1.661114 0.34970886 0.034223437 2305349
1.6626475 0.35194856 0.033899784 2304575
1.6646285 0.35485309 0.032984734 2238785
1.666134 0.3571133 0.032626629 2502724
1.6675522 0.35912931 0.033045888 2371395
1.6694384 0.36180133 0.032581806 1712951
1.6476171 0.33310193 0.035953283 3682603
1.6524217 0.34068531 0.034130096 5132384
1.6546454 0.34352118 0.033563972 5066859
1.655679 0.34574157 0.032981098 5001835
1.6570954 0.3481369 0.033006668 4476784
1.6588019 0.35062504 0.032310128 2372436
1.6605785 0.35319507 0.031544626 1976386
1.662231 0.35559124 0.032268643 2238785
1.6639951 0.35788798 0.032833755 3488846
1.6440966 0.33249474 0.034534216 1511956
1.6456522 0.33335185 0.035546005 1314832
1.6492825 0.34004891 0.032115936 856353
1.6498648 0.34136432 0.033056378 1974821
1.6524025 0.34458983 0.031773984 2763822
1.6537321 0.34690285 0.031584322 3948623
1.6549852 0.34954393 0.031233788 4871281
1.6567416 0.35144567 0.030825019 3818859
1.6577998 0.35365069 0.031716764 2108493
1.64149 0.33269346 0.033071041 1906455
1.6470096 0.34064835 0.031059146 1579567
1.6472696 0.34239888 0.031822205 1447983
1.6499116 0.34547055 0.030345619 2500148
1.6511319 0.34775907 0.030181229 2632499
1.6530282 0.35038745 0.029740572 4739435
1.6387933 0.33247924 0.030822694 2563867
1.6386435 0.33397746 0.03202492 2629917
1.6447748 0.34145373 0.029639363 2171444
1.645905 0.34454542 0.02902782 2434356
1.647795 0.34663844 0.028582215 2763312
1.6489146 0.34900963 0.028380513 2303789
1.6505698 0.35139143 0.028790116 3291973
1.6365175 0.33533919 0.029447079 3352351
1.6421955 0.34257776 0.027784467 2500147
1.6443884 0.34565693 0.026403546 2500143
1.6452579 0.34789634 0.026990592 2500139
1.6466656 0.35018206 0.026566088 2369327
1.6479989 0.35220462 0.027395248 2434613
1.6346686 0.33674324 0.027363896 3746074
1.6400366 0.34401637 0.026087403 2236972
1.6432786 0.34678251 0.025403023 2171690
1.643316 0.3491202 0.025387585 1908259
1.6443944 0.35117948 0.025220454 2435117
1.645305 0.35305887 0.025632799 2895154
1.6325741 0.33812517 0.025962591 3942423
1.6382217 0.34534127 0.024454117 1907748
1.6379254 0.34704483 0.025090396 1776419
1.6415689 0.35017413 0.023722231 1908260
1.6422491 0.35252845 0.023059547 1974311
1.642766 0.354662 0.0236848 1974311
1.6312706 0.33779746 0.0242939 4666650
1.6309737 0.34109831 0.024560332 3877144
1.6371477 0.34592354 0.022952557 2039078
1.6366429 0.34837556 0.022509634 1973543
1.6394994 0.35129416 0.021782637 2171435
1.6405693 0.35366499 0.021398902 1908260
1.6409041 0.35553306 0.021481276 1645603
1.6304518 0.34008241 0.022780418 4732951
1.629616 0.34279346 0.02240169 4207635
1.6355391 0.35046297 0.021304965 2171176
1.635103 0.35198849 0.021289349 2236462
1.638495 0.35462415 0.019813538 2237225
1.6395348 0.35740286 0.019623697 1645602
1.6397271 0.35886741 0.018990517 1579810
1.6283789 0.34291124 0.020310044 3812898
1.6288707 0.34578496 0.020794928 3945247
1.6284934 0.34821004 0.020223856 3155741
1.6341865 0.35300803 0.019150317 2631470
1.6373016 0.3552354 0.018005371 2500142
1.6379738 0.35852116 0.017386138 1842982
1.6386502 0.36045724 0.017154813 1514275
1.6386263 0.36362839 0.017172158 1318448
1.6273212 0.3466053 0.018784225 2037529
1.6329496 0.35486013 0.016917348 2171691
1.6329024 0.35742295 0.016806066 1908264
1.6360863 0.36009902 0.014790118 1777190
1.6373863 0.36216456 0.015732527 1645861
1.6374757 0.36437035 0.014845729 1580068
1.6133564 0.33059031 0.020399511 1711908
1.6250365 0.34584218 0.016427279 1117465
1.6249013 0.34769338 0.017054796 1051670
1.6315607 0.35744905 0.014660954 1053470
1.6318377 0.36068118 0.014518976 1119006
1.6347306 0.36294234 0.013738275 1185576
1.6367385 0.36549389 0.013236523 1448740
1.6368328 0.36789691 0.013732493 1514535
1.6129459 0.33388078 0.017969787 987934
1.6147172 0.33663678 0.016690493 1186843
1.6238449 0.34958416 0.015577614 657430
1.6235152 0.3517198 0.014299452 591899
1.6305304 0.35844851 0.012660325 790556
1.6305085 0.36189049 0.012294292 658720
1.6313155 0.36408395 0.0132218 987425
1.634552 0.36468315 0.012174487 988200
1.6359265 0.36971927 0.011232615 1054763
1.6364517 0.37195688 0.010603487 1448484
1.6367739 0.37436044 0.011000872 1318708
1.6233134 0.35348183 0.012151301 1447724
1.6232581 0.35538363 0.012283206 2369072
1.6237419 0.35829878 0.01228261 1843243
1.6304755 0.36514223 0.010916471 395816
1.6302849 0.36795664 0.010176301 198955
1.6356936 0.37227964 0.0087158084 1120300
1.6360193 0.37457371 0.0084840059 988711
1.6382908 0.37864912 0.0077060461 1515574
1.6223879 0.35727906 0.0099935532 5921893
1.6231641 0.35930288 0.009950161 5395544
1.6240164 0.36171502 0.010603666 3685448
1.6297026 0.36640811 0.0086603761 265779
1.6297076 0.36991519 0.0068634152 1648465
1.6303196 0.37168998 0.0084006786 726587
1.6357329 0.3765226 0.0068854094 726054
1.6356919 0.37806064 0.0084479451 923166
1.6201317 0.35694975 0.0085628033 6447459
1.6212988 0.35967165 0.0085986853 6579560
1.6222264 0.36289978 0.0089932084 6579821
1.6236904 0.36379743 0.0093750358 5658717
1.630024 0.37402242 0.0057705641 3424615
1.631457 0.3777892 0.0060145259 2240604
1.6367078 0.38278222 0.0050935745 660777
1.6172497 0.35866529 0.0068789721 4802628
1.6182442 0.36118978 0.00723809 5658201
1.6198772 0.36338007 0.0078986287 6184549
1.6213748 0.36504322 0.0080882311 6711148
1.6711977 0.35146302 0.041388154 657671
1.6665592 0.34782898 0.040481806 986640
1.6679124 0.34980488 0.04107368 920592
1.6696243 0.35148144 0.041525364 855054
1.6712654 0.3544873 0.04134202 854796
1.6729429 0.35683173 0.038510323 724267
1.6740193 0.35905719 0.038020432 724521
1.6594436 0.34162867 0.039551556 1841696
1.6604596 0.34405822 0.039908528 1578524
1.6627905 0.34619915 0.040544748 1184022
1.6652354 0.34850025 0.041081429 1051924
1.6651888 0.35123497 0.037937939 1382967
1.6677816 0.35404688 0.037851632 1382965
1.6690598 0.356592 0.038196445 1777728
1.6710428 0.35854191 0.037577987 1777729
1.6717317 0.36163312 0.037046313 1514815
1.6739591 0.36368406 0.036303997 1580604
1.6758604 0.36603433 0.03591013 1382707
1.6769977 0.36843646 0.035217643 1448501
1.6784705 0.37099952 0.034817517 1316915
1.680082 0.37384719 0.033794522 1843509
1.6818838 0.37602687 0.033343792 1777715
1.6843133 0.3817181 0.033662796 2369336
1.6544938 0.33809417 0.039667606 2236204
1.6561882 0.33987832 0.039585114 2236202
1.6573167 0.34244388 0.039927661 2104359
1.6590912 0.34478498 0.040335059 1841697
1.6605382 0.34800088 0.037495017 2106178
1.6622266 0.35005605 0.038006604 1843263
1.6637712 0.35260999 0.037443399 2172995
1.6653748 0.35449195 0.036581516 2830665
1.6667044 0.35735101 0.036316216 4015453
1.6684669 0.3596521 0.036184072 3226707
1.6699824 0.36197996 0.035734177 3291991
1.6719291 0.36464 0.035723388 2107974
1.6735836 0.36734903 0.034977078 1777978
1.6754596 0.369937 0.034477115 1646390
1.6769265 0.37213165 0.034003377 1646390
1.6783586 0.37472683 0.033877671 1843511
1.6797056 0.37717611 0.03366667 1843511
1.6816611 0.37960225 0.032761097 1974837
1.6829432 0.38206488 0.031829953 2106423
1.6846615 0.38552719 0.030530334 2238010
1.6864376 0.38651448 0.030344963 2369854
1.650274 0.33669537 0.038617551 6116950
1.6516476 0.33788043 0.039408505 4275783
1.653933 0.34056532 0.040271044 2170669
1.6569496 0.34588116 0.036797941 1845325
1.6580989 0.34846061 0.036949277 2239566
1.6598749 0.35126001 0.03633517 2501705
1.6614802 0.35349673 0.035974503 2698822
1.6629272 0.35599142 0.035857856 3686226
1.6649067 0.35864621 0.035254359 4147034
1.6666234 0.36120546 0.034836292 3818076
1.6679859 0.36345118 0.034493029 2963027
1.6697723 0.36533171 0.034001589 1845057
1.6709814 0.36825937 0.033155322 1384245
1.672503 0.37107068 0.032976151 1317176
1.6741621 0.37267125 0.033027887 1383478
1.675426 0.37598652 0.032357097 1843254
1.6822406 0.38409317 0.031548023 2106679
1.6829896 0.3858676 0.031373858 2238010
1.6843424 0.38822949 0.03033638 2369853
1.6863217 0.38987303 0.029239535 2632767
1.6465554 0.33497369 0.037161589 3419681
1.6483653 0.33649611 0.038014472 5722182
1.6529851 0.34496427 0.036178231 5133174
1.6546323 0.34726208 0.03599304 4344692
1.6562836 0.34965128 0.034826636 4608117
1.6577693 0.35179907 0.034766018 3095647
1.6592134 0.3542735 0.034856915 2305610
1.6607795 0.35699469 0.032937884 2831178
1.6624736 0.35957563 0.033658087 3489877
1.6638854 0.36142683 0.033908367 3622232
1.6715856 0.37310338 0.032684505 1580344
1.6431134 0.33396232 0.035211444 1774613
1.6441556 0.33547878 0.036540627 1380624
1.6453452 0.33711898 0.037755966 2498839
1.649698 0.34321463 0.033946991 2829867
1.6508681 0.34547937 0.034587026 4342858
1.6525021 0.3483184 0.034319162 4803940
1.6536995 0.35069543 0.033561826 5002607
1.6555579 0.35299468 0.033757329 3950960
1.6572366 0.35598379 0.032398462 2043467
1.6587561 0.35803938 0.032949507 2634572
1.6601305 0.35981685 0.03362447 3029328
1.6408758 0.33429867 0.034470558 1972505
1.6417609 0.33595926 0.036016464 1972248
1.647104 0.34438014 0.032768905 1513262
1.6484059 0.34675479 0.032844782 2171182
1.6502335 0.34926456 0.03230238 3026999
1.6513705 0.35153812 0.03229171 4080466
1.6533102 0.35409933 0.031303704 5134464
1.6546991 0.35631448 0.031941772 3753584
1.6387074 0.33566839 0.033069968 2629917
1.6392555 0.33707374 0.034356236 2629657
1.6444805 0.34541589 0.031405687 2170932
1.6463668 0.34804761 0.030860186 2434355
1.6479158 0.35031116 0.030771196 2763567
1.6493087 0.35277629 0.030277252 3291199
1.6501187 0.35535067 0.030442119 5068139
1.637445 0.33664417 0.031723738 3024159
1.6371173 0.33845848 0.032206059 2958108
1.6420226 0.34642124 0.03014791 2236974
1.6447283 0.34929752 0.029282629 2302768
1.6453986 0.351318 0.029232264 2434344
1.6469235 0.35397744 0.028731406 2303789
1.6476049 0.35615861 0.029037237 2501678
1.6349065 0.33823311 0.028986037 3220251
1.6351652 0.33965278 0.030623555 2826522
1.639428 0.34565586 0.027277827 1973800
1.6399577 0.34782267 0.028798103 1776679
1.6424471 0.35051662 0.026942909 1842724
1.6432621 0.35256928 0.027175248 1908515
1.6447501 0.35504621 0.027246773 2369326
1.632833 0.34099627 0.028634429 2628629
1.6381764 0.34860533 0.026652098 1579553
1.6406422 0.35200173 0.024864197 1842983
1.6410704 0.35390866 0.025992095 1842725
1.6428037 0.35596693 0.025373936 2106154
1.6432133 0.35812497 0.026421547 2434346
1.6312993 0.34244895 0.026736438 2825752
1.6372216 0.35022438 0.02483058 1645347
1.6367071 0.35188448 0.024830103 1645091
1.6393747 0.35499084 0.023881674 2040107
1.6408021 0.35729355 0.023945332 1645603
1.6407595 0.35956639 0.023412526 1513761
1.6300197 0.34528834 0.02468133 3221015
1.635298 0.35405952 0.022653461 1842214
1.6369672 0.35616338 0.022578597 1908261
1.6387572 0.35848278 0.02203995 1711656
1.6392007 0.36067015 0.021474719 1382689
1.6291847 0.34722614 0.022417963 3419413
1.6291578 0.34954143 0.022443652 3090197
1.634644 0.35469562 0.020656228 2171176
1.6340902 0.35710627 0.020251155 1973795
1.637475 0.35953087 0.019567072 1908779
1.6378695 0.36190259 0.019672751 1580069
1.6379361 0.36422467 0.019176602 1251361
1.6259502 0.34941548 0.019213974 1248786
1.6272101 0.35059571 0.020405471 1971991
1.6336409 0.35958338 0.018882096 1776421
1.6355495 0.3631357 0.018212438 1777194
1.6369598 0.36568129 0.017409682 1514278
1.6370965 0.36805218 0.017769337 1382690
1.6128945 0.33260906 0.020927846 1908774
1.6253064 0.35196298 0.018541217 1051663
1.6258242 0.35479832 0.018966436 1117453
1.6329567 0.36125332 0.017137051 1644581
1.6327016 0.36414409 0.016264439 1447715
1.6349596 0.36508787 0.016215563 1645612
1.6368271 0.3685621 0.015719235 1317156
1.6366775 0.37200302 0.014677763 1448487
1.624301 0.35147011 0.016858399 854546
1.6245904 0.35551989 0.016722202 789010
1.62589 0.35876441 0.017454743 1051666
1.6318421 0.36547369 0.014975786 1184803
1.6317976 0.36809361 0.014959157 1119269
1.6363112 0.37291116 0.013377309 1448487
1.6364751 0.37396061 0.011672378 1317412
1.6378424 0.37711358 0.011953592 1909821
1.6246731 0.35852724 0.015506089 591637
1.6249344 0.36185509 0.013845563 592411
1.6311195 0.36663753 0.012674034 856104
1.6308377 0.37006825 0.011388779 264484
1.6308775 0.37072563 0.013033867 396071
1.6356862 0.37610883 0.011286378 1120549
1.6350309 0.37893492 0.011354566 1120552
1.6250896 0.36508948 0.012384951 1448744
1.6256404 0.36963797 0.01175344 2435383
1.6307833 0.37353921 0.0098266602 134712
1.6315472 0.37523997 0.0099430084 199731
1.6324403 0.37751108 0.010627627 199473
1.635534 0.37886131 0.0095541477 989219
1.6351585 0.38225102 0.0083666444 660015
1.6361238 0.38457447 0.0086304545 1054509
1.6235939 0.36559916 0.0096299648 5527652
1.624583 0.36809129 0.010064423 4606549
1.6255362 0.37218052 0.0099069476 4737623
1.6322498 0.37995696 0.0067641735 1516367
1.6337811 0.38319379 0.0061630011 661058
1.6357039 0.38585019 0.0063587427 660025
1.6369765 0.38829583 0.0054842234 791612
1.6178149 0.36405993 0.0073333979 5986911
1.6204611 0.36676002 0.0079849958 6119016
1.6220837 0.36962873 0.0081695318 6447982
1.6239963 0.37232029 0.007892549 6184811
1.6251549 0.37543869 0.0081297755 5790311
1.6249936 0.37731016 0.007499218 5987691
1.6175815 0.36914164 0.0074023008 5855072
1.620312 0.371216 0.0073429346 5658725
1.6215792 0.37424833 0.0067782402 5724519
1.622345 0.37633228 0.0066988468 5659239
1.6184398 0.37280226 0.0065902472 5855845
1.6671458 0.35231912 0.042760074 920850
1.6681795 0.35403115 0.043003201 920593
1.6704326 0.35657895 0.042190313 855054
1.6722701 0.35999167 0.041342616 986385
1.6616061 0.34758294 0.041362524 1315608
1.6628196 0.34983426 0.042325139 1578778
1.6654611 0.35125738 0.042353868 1117972
1.6699409 0.36013311 0.040534019 986910
1.671741 0.36214119 0.041329145 1052430
1.6739564 0.36627901 0.03771925 1777729
1.6749628 0.36869323 0.036729991 1712191
1.6777666 0.37253237 0.03662926 1184562
1.6553853 0.34382892 0.040782452 2235690
1.6576653 0.34629905 0.041515112 1972771
1.6599054 0.34848988 0.042024016 1710111
1.6619455 0.35493523 0.039352119 3488848
1.6641986 0.35601324 0.039354563 2699592
1.6655214 0.35859913 0.039181113 2567756
1.6673707 0.36078554 0.038207889 2765135
1.6690284 0.3636052 0.037527204 3226460
1.6702622 0.3659476 0.037201822 2173770
1.6719937 0.36821306 0.03675288 1844033
1.6738276 0.37085921 0.035919368 1711930
1.6753693 0.37348121 0.035792112 1712185
1.6772481 0.37635863 0.034733415 2106683
1.6781552 0.37821591 0.034425855 1975103
1.6795044 0.38033861 0.033233285 1975094
1.6824688 0.38312232 0.033201039 2369082
1.6512411 0.33979392 0.040386021 3749703
1.652393 0.34231997 0.040760398 2434359
1.6534076 0.34476131 0.041172028 2039339
1.6565893 0.35044289 0.038471699 1910340
1.6587918 0.35242474 0.038795352 2304070
1.6604553 0.35458016 0.038409114 3225166
1.6622703 0.35715663 0.037436724 4474717
1.6634833 0.35971648 0.036963582 4475487
1.6652354 0.36229455 0.037042141 6382717
1.6668403 0.36489886 0.036548376 5265269
1.6682812 0.36754894 0.036468446 2766164
1.6700563 0.36954147 0.036140025 2173508
1.6714139 0.37218201 0.035294533 2041407
1.673102 0.37455314 0.035088539 2107455
1.675043 0.37689477 0.034555018 2041149
1.676461 0.37930989 0.034203172 2040892
1.6780709 0.38162184 0.033759475 1975097
1.6795655 0.38463807 0.032999814 2172218
1.6810174 0.38699919 0.032338619 2238011
1.6829214 0.38944751 0.031251669 2566974
1.683512 0.3909573 0.030123472 2567231
1.6470459 0.3391698 0.039551616 5656137
1.6487205 0.34098119 0.040592611 5788505
1.6530689 0.34851193 0.037629604 3753073
1.6544149 0.35089391 0.037723422 3095399
1.6566455 0.35375178 0.036413431 2635359
1.6582872 0.35595185 0.0365659 2765903
1.6597948 0.358316 0.036527574 3225936
1.6615651 0.36074084 0.036370516 3291985
1.6632847 0.36314946 0.035523474 5067627
1.6643652 0.36572367 0.034791887 5067881
1.6663564 0.36772966 0.034640789 3160404
1.6677659 0.37036681 0.034296095 1646660
1.6691041 0.37388849 0.033229053 1778239
1.6714473 0.37521583 0.033158064 1515323
1.6727028 0.37770325 0.033368111 1974845
1.6792841 0.38787007 0.032450438 2435132
1.6433556 0.3375867 0.037580729 1578003
1.6442182 0.33909667 0.038714409 2761495
1.6494273 0.34695679 0.035942137 4672086
1.6509777 0.34945589 0.036260486 5001584
1.6525326 0.35235351 0.036000252 5200002
1.6543204 0.3544457 0.035473824 4674425
1.6558371 0.35657436 0.03599906 2964578
1.6572757 0.35928673 0.034537673 2569295
1.6593082 0.3617962 0.034302592 2635083
1.6610919 0.3641842 0.03470248 3687514
1.6627054 0.36749536 0.034508467 3554903
1.6654011 0.37033707 0.033885002 2830154
1.6665509 0.37313926 0.033503175 1910084
1.6409373 0.33808362 0.036290169 2234905
1.6417668 0.34018463 0.037695289 2103322
1.6474454 0.34834486 0.035335302 3289918
1.6486552 0.35101718 0.035074115 3751226
1.6505535 0.35311741 0.034091473 5001572
1.6517997 0.35504037 0.034604907 5200504
1.6535072 0.35824889 0.032985926 3490929
1.6552641 0.36051536 0.033552229 2241364
1.6567131 0.3620711 0.033854842 2438223
1.6387944 0.33964342 0.034712672 2695198
1.6394081 0.3414892 0.035846055 2563614
1.6446562 0.34889454 0.033829331 1973809
1.6470106 0.35201132 0.032789648 2566192
1.648222 0.35396481 0.032910645 3421755
1.6500752 0.35665375 0.032130718 5002610
1.6511226 0.35928941 0.03251332 5398157
1.6366985 0.34065437 0.032795548 2892314
1.6371615 0.34234506 0.034026504 2694938
1.6417134 0.34814864 0.030925214 2171178
1.6422708 0.3496986 0.032520175 2171182
1.6446418 0.3532995 0.031157374 2499884
1.6456418 0.35533082 0.031481862 2631721
1.647727 0.35749918 0.030857444 4147799
1.649014 0.35929817 0.031860709 5726341
1.6345112 0.34227908 0.032174826 2431507
1.6401405 0.34932959 0.030220747 1842470
1.6402702 0.35093647 0.03136158 1842216
1.6427613 0.35402548 0.029498696 2105125
1.6435723 0.35640502 0.029430866 1908259
1.6453071 0.35837394 0.029204071 2436144
1.632586 0.34356576 0.030588567 2168848
1.63214 0.34475315 0.030659914 2103056
1.6383644 0.35203791 0.028786302 1447967
1.6410899 0.3555007 0.027828097 1842725
1.641453 0.35746241 0.02794373 1777189
1.6428398 0.3596881 0.027628779 2434862
1.6308678 0.34592289 0.028422296 2365971
1.6371517 0.35407108 0.026686907 1316639
1.6377819 0.3561461 0.026422977 1514021
1.6393354 0.35865062 0.02592504 1711656
1.6409211 0.3611117 0.025863111 1645349
1.6297466 0.34709418 0.026074052 2892055
1.6302259 0.34971112 0.026643753 2431764
1.6358216 0.35456198 0.025106549 1447969
1.6353543 0.35738128 0.025638461 1250595
1.6377282 0.35999346 0.024422526 1974571
1.6392007 0.36195141 0.024003863 1317153
1.6391237 0.36396319 0.023623824 1250845
1.6295946 0.35081178 0.023908079 2760980
1.6290936 0.35342354 0.024345994 2365972
1.6346186 0.35900199 0.022850573 1513508
1.6351894 0.36077738 0.022915423 1645094
1.6371619 0.3632074 0.022219121 1646121
1.6376212 0.36562973 0.021993399 1251362
1.6278182 0.35366029 0.021593809 2168852
1.6281719 0.35610563 0.022516727 2103057
1.6340783 0.36129177 0.020428777 1644580
1.6346735 0.36447233 0.020561576 1645355
1.6365278 0.36662364 0.020001531 1580586
1.6370764 0.36898029 0.019675434 1251362
1.6270456 0.35605705 0.020393193 1511950
1.6270435 0.35830247 0.020638704 1511695
1.6332691 0.36597395 0.017628729 1513764
1.6329843 0.36805886 0.0185045 1382439
1.6366482 0.37103802 0.017877579 1316900
1.6362772 0.37291741 0.017262697 1382951
1.6261142 0.35990059 0.018454134 1182994
1.62639 0.36216378 0.017980576 1117712
1.6266272 0.36427051 0.017813742 986638
1.6319318 0.37018329 0.016836047 1251107
1.635601 0.37430501 0.014868855 1382951
1.6353302 0.37633824 0.015115678 1317673
1.6257849 0.36175585 0.016359031 854549
1.6260459 0.36539716 0.015478015 592146
1.6267631 0.36742699 0.016506433 789525
1.6313736 0.37219626 0.014792681 658978
1.6345057 0.37936914 0.013695121 1317675
1.6261892 0.36894357 0.014751136 592662
1.6263769 0.37174624 0.012628555 1645355
1.6271119 0.3740527 0.013278604 1053730
1.634948 0.38346964 0.011440754 1251888
1.6267133 0.37548256 0.01063168 3882316
1.6274469 0.37761414 0.011616111 3027267
1.6282765 0.37972075 0.011556447 2303288
1.6263411 0.37887275 0.0079119802 5461348
1.6275791 0.3812207 0.0082769394 4869468
1.6282254 0.38408387 0.0081889033 4803678
1.6234877 0.37924695 0.006716013 5593447
1.6247517 0.38214487 0.0067399144 5527398
1.6258515 0.38517684 0.0063384771 5461606
1.6282358 0.38725156 0.0069368482 5264228
1.6187594 0.3751092 0.006177187 5921637
1.6197656 0.37790614 0.0060136914 5658981
1.6210277 0.38014692 0.0064249039 5462120
1.6220332 0.38301015 0.0061864257 5461864
1.6241554 0.38607156 0.0060269237 5396072
1.6269541 0.38913506 0.0059536695 5198435
1.6190262 0.38138795 0.0061536431 5922666
1.6620822 0.35187232 0.043894053 1973280
1.6638834 0.35370892 0.044123471 1183520
1.6653416 0.35594571 0.04403007 855067
1.6680598 0.36115098 0.04199034 1051672
1.6706262 0.3633275 0.041859269 1117713
1.6706712 0.36589658 0.042393148 1446166
1.6730928 0.37078363 0.040626585 1841180
1.658217 0.35030872 0.043174267 2696747
1.6600521 0.35226822 0.04414463 2433829
1.6633546 0.35826391 0.04005444 2896194
1.6647491 0.35998392 0.041738451 1776684
1.6662762 0.36225134 0.040794373 1777716
1.6678927 0.36417156 0.042075872 1183511
1.6707566 0.36925721 0.038053095 2041673
1.6721973 0.37242985 0.03744024 1580602
1.6739917 0.37445915 0.038017273 1448240
1.6753541 0.37712729 0.038115621 1777207
1.6528901 0.34653652 0.042061627 2367789
1.6547264 0.34835911 0.042489409 2367274
1.6560552 0.35017645 0.043682218 3157043
1.6589583 0.35583466 0.039630294 3883605
1.6606839 0.35820836 0.039702415 3883096
1.6620276 0.3609432 0.040113032 5263461
1.6639993 0.36358279 0.038838625 5987712
1.6655686 0.36593264 0.038513124 3949675
1.6670775 0.36851138 0.038170755 2239310
1.668563 0.37089759 0.037646174 2239304
1.6701331 0.37344992 0.036900282 2107459
1.6721673 0.37655604 0.036579132 1975358
1.673587 0.37841356 0.035298824 2107201
1.6749165 0.3808403 0.035487235 2106687
1.6765552 0.38342667 0.034339488 2041150
1.677991 0.38558722 0.034090161 2040633
1.680187 0.38836098 0.033010483 2303550
1.6812811 0.39086276 0.032142222 2501439
1.647015 0.34257179 0.041238248 5788758
1.6494186 0.34458625 0.04159081 4144715
1.6503311 0.34705216 0.042409837 2565427
1.6537254 0.35269004 0.039366245 1648714
1.655304 0.35419577 0.039686799 2633547
1.6570314 0.35698855 0.039072454 3093842
1.6585129 0.35923702 0.038432479 3422548
1.660008 0.36206442 0.037778139 3225682
1.6616896 0.36433059 0.037705362 3620698
1.6635066 0.36675507 0.037653744 3687005
1.6650293 0.36923945 0.037264049 2832207
1.6664827 0.37186766 0.036765099 2305610
1.6687498 0.37453455 0.035912871 2107716
1.6699663 0.37700653 0.035660326 2173508
1.6713924 0.37921321 0.035424888 2239042
1.6731107 0.38161343 0.034800291 2172993
1.6747104 0.38422662 0.034058571 2041148
1.6764288 0.38711327 0.033489883 2106683
1.6775019 0.38932854 0.033402264 2238011
1.6794088 0.39157778 0.032695055 2435647
1.6796083 0.39380234 0.032387793 2436672
1.6444021 0.34105057 0.0399369 4405797
1.6449047 0.34345961 0.040714443 5393223
1.6460614 0.34544814 0.041379213 5722972
1.6507953 0.35067707 0.038100004 4804990
1.6511779 0.35336828 0.038812816 3424115
1.6534514 0.35548049 0.037043333 4542596
1.6546547 0.3581295 0.037090838 3161707
1.6562715 0.36041951 0.037200332 2964057
1.6578045 0.36317509 0.037045181 3292506
1.6594931 0.36532736 0.035943091 2700624
1.6611278 0.367625 0.034995317 2700881
1.6630349 0.37036413 0.035087705 2239817
1.6647207 0.37359768 0.033963025 2042439
1.6660881 0.37562704 0.034295142 1910598
1.6678011 0.37789887 0.034415603 1975620
1.6692996 0.38040185 0.034685969 2106947
1.6721761 0.38440204 0.034415722 2172732
1.6776564 0.39431757 0.031654596 2369856
1.6787186 0.39562869 0.031381488 2239298
1.6418998 0.3419292 0.038624048 2168852
1.6421808 0.34414959 0.03949368 2958106
1.6480278 0.35192263 0.037417054 5330295
1.6492562 0.35396463 0.036556244 5264757
1.6509236 0.35661262 0.036132455 5660551
1.6523715 0.35895151 0.03621614 4675461
1.6543121 0.36169684 0.035524487 2636385
1.6556364 0.36406904 0.034651756 2701397
1.6572138 0.36691213 0.034701705 2766933
1.6591935 0.3696698 0.034757853 2569554
1.6602869 0.37199092 0.034693182 2372176
1.6623061 0.37408578 0.033875048 2372174
1.6642835 0.37665349 0.03348887 2371658
1.6397829 0.34305918 0.037248909 2432283
1.6398349 0.34521884 0.03812921 2497310
1.6446514 0.35095054 0.03522563 2171184
1.6455266 0.35240787 0.036318958 3881793
1.6473901 0.35549784 0.034582376 3948611
1.6484346 0.35778546 0.035029173 5462381
1.6504002 0.3600933 0.034495711 5333132
1.6516197 0.36284369 0.03392601 3623296
1.6535227 0.36505532 0.034404993 2636895
1.655319 0.36780822 0.034519672 2965084
1.6368982 0.34451067 0.036006212 2432536
1.6422093 0.35178822 0.033595264 2171182
1.6427886 0.35344285 0.03487134 1974054
1.6449277 0.35681254 0.033363581 2763308
1.6463088 0.35870808 0.033365071 3553594
1.6482774 0.36136794 0.032331288 6056084
1.6492214 0.36283892 0.033172011 6122661
1.6341883 0.34506249 0.034206927 2103057
1.640435 0.3528617 0.03290832 2104874
1.6401055 0.3544805 0.03269279 1908009
1.6427705 0.35763443 0.031664491 2368552
1.6442646 0.35969955 0.031561613 2500911
1.6456518 0.36210895 0.031292915 4411229
1.6327395 0.34590536 0.03236717 1905936
1.6318986 0.34892619 0.032693863 1577486
1.6387256 0.35374069 0.030206323 1513252
1.6381803 0.3560887 0.031156421 1381923
1.6408085 0.35890144 0.030058622 1776677
1.6423517 0.36106098 0.029644012 1975084
1.6434371 0.36345732 0.030371189 2831414
1.6313384 0.34752077 0.030645013 1906193
1.6311164 0.34947222 0.031047702 1708815
1.6367753 0.35638273 0.028525829 1185055
1.6385007 0.36039722 0.028459311 2040368
1.6398207 0.36194557 0.027774096 1514279
1.641088 0.36425233 0.028244257 2303532
1.630523 0.35133588 0.028532147 1840144
1.6303649 0.3534348 0.028768063 1643024
1.6349661 0.35909593 0.027573466 1250852
1.6369807 0.360645 0.026726305 2238001
1.6376076 0.36273021 0.026271403 1580329
1.6389325 0.3656165 0.025895834 1053211
1.6294978 0.35499984 0.026598275 1840145
1.6292307 0.356646 0.026317596 1774356
1.6340244 0.36227649 0.025294721 1250858
1.6363575 0.36415851 0.025353372 1778227
1.6371596 0.36710674 0.02413702 1185569
1.6366013 0.36943084 0.024117708 922401
1.628543 0.35750741 0.024126768 1971730
1.6281909 0.36052203 0.024185777 1840399
1.6333992 0.36610949 0.023388863 1382187
1.6358304 0.36727554 0.022268295 1975095
1.6363857 0.37086004 0.021893978 1119778
1.6279175 0.3617515 0.022316575 1709072
1.6331675 0.36846477 0.020778537 1447977
1.6323028 0.37191087 0.020732164 1382695
1.6351063 0.37393832 0.020109296 1448743
1.6268823 0.36245269 0.019853294 1446670
1.6273253 0.36480296 0.020173669 1315342
1.6278176 0.3678391 0.019328237 1118221
1.631966 0.37235689 0.017884374 1119272
1.6333869 0.3748697 0.017845631 1382447
1.6351185 0.37700886 0.017231464 1383462
1.6271731 0.36884344 0.017085314 789779
1.6276121 0.37108636 0.017458975 920853
1.627964 0.37443244 0.01742816 986132
1.6338522 0.38004142 0.017445207 1580590
1.634115 0.38168854 0.015318573 1515057
1.6276176 0.374466 0.015216589 724249
1.6283849 0.37802947 0.01468575 920862
1.6339585 0.38264573 0.013830543 1514548
1.6343906 0.38518983 0.015313804 1712694
1.6341166 0.38734561 0.013705134 1581884
1.6286376 0.38139057 0.013269424 1513514
1.632515 0.38952917 0.011552036 1644064
1.6341373 0.39268857 0.010237932 1972518
1.6294427 0.38519043 0.010059476 3290179
1.6299063 0.38669002 0.010622263 2764348
1.6304758 0.38952082 0.008877337 3816782
1.632098 0.39230514 0.0093503594 2500153
1.6341199 0.39576733 0.0092631578 1907757
1.6366043 0.39718169 0.0074281096 2104358
1.6364998 0.40042353 0.0073082447 2104620
1.6380885 0.40382874 0.0068328381 2301739
1.6288164 0.39126515 0.0071666837 5001056
1.6295381 0.39366281 0.0074158907 4737628
1.6320845 0.3961392 0.0078265071 2961477
1.6344745 0.39940715 0.0074473619 1974579
1.6366646 0.40462828 0.0062134266 2236971
1.6395499 0.40673935 0.0055673122 2301481
1.622292 0.38547885 0.0057830811 5659242
1.6232361 0.38750648 0.0056975484 5659241
1.6246632 0.38929254 0.0059735775 5659240
1.6261618 0.39186704 0.0063216686 5593449
1.6275189 0.39448553 0.0067985058 5790314
1.62953 0.3958261 0.007344842 5001316
1.6201305 0.38519239 0.0056034923 6185582
1.621069 0.38866198 0.0054705739 6449007
1.6227109 0.3904646 0.0061298609 6317424
1.6566732 0.35155493 0.044137478 3552304
1.658108 0.35358304 0.045059741 3026220
1.6598755 0.35569072 0.045021057 2828336
1.6620388 0.35786331 0.044152141 1710881
1.6632884 0.36144936 0.043171942 1249567
1.6649344 0.36337852 0.043206036 1183261
1.6671208 0.36630929 0.04305321 1380632
1.6682198 0.3685227 0.042989552 1643801
1.6697869 0.37116086 0.042120099 1972508
1.6717741 0.37308431 0.042069256 2235680
1.6528592 0.34976709 0.043363929 3024943
1.6544838 0.351973 0.044466019 3749172
1.6560218 0.35431153 0.045592546 5327440
1.6572454 0.35666072 0.044988871 5786966
1.6594869 0.35971493 0.044155657 4077886
1.6618271 0.36203581 0.043808758 1315355
1.670073 0.37516642 0.038242936 1448505
1.672183 0.37933689 0.038571596 1908286
1.6747347 0.3815304 0.038066804 2171713
1.6490076 0.3489033 0.043078959 2696759
1.6511203 0.35044807 0.044030428 2959407
1.6544116 0.35656995 0.04008472 2567757
1.6551756 0.3582707 0.040201068 2566983
1.657443 0.36050045 0.040711522 3618387
1.6587206 0.36336541 0.040704012 3553883
1.66045 0.3658365 0.040086508 3028566
1.661948 0.36831713 0.038887143 2963032
1.6635165 0.37050825 0.038615823 2634067
1.6652673 0.37286443 0.038196206 2634319
1.6670725 0.37543446 0.037715435 2173513
1.6684365 0.37801647 0.037121177 1910339
1.6700003 0.38057756 0.036613166 2172992
1.6715777 0.38340795 0.036348879 2370117
1.6734314 0.38590014 0.035583019 2238532
1.6748046 0.38761258 0.034428656 2106687
1.6770151 0.39022768 0.034541726 2566716
1.6453855 0.34710693 0.04182744 5656923
1.6469979 0.34871608 0.042882204 4473173
1.6519848 0.35656005 0.039724886 1845847
1.6536713 0.35977203 0.039942563 2436690
1.6552856 0.36192465 0.039193273 3029084
1.6563942 0.36420625 0.038172126 3555426
1.6583788 0.36665434 0.038268387 3555425
1.6599333 0.36934066 0.03825587 3424095
1.6616704 0.3720848 0.037901402 3095128
1.663142 0.37422556 0.037526369 3095383
1.6650997 0.37696964 0.037068725 2635088
1.6664083 0.37929231 0.03603375 2239818
1.6678129 0.38168162 0.036029994 2041923
1.6693358 0.38384587 0.035681725 1844543
1.6713235 0.38690454 0.034598827 1844022
1.6736264 0.38913691 0.033905745 2172733
1.6746812 0.39169085 0.033379793 2369854
1.675226 0.3940022 0.033013701 2567489
1.6416397 0.34644157 0.039861262 3156247
1.6429741 0.34783924 0.041395009 5393481
1.648186 0.3554334 0.038834095 5002372
1.6495461 0.35807705 0.038244605 4871305
1.6514637 0.36041719 0.038048863 4411525
1.6527512 0.36335546 0.037644863 3426166
1.654386 0.36525357 0.037690222 3621994
1.6560596 0.3680917 0.03762114 3687272
1.6578646 0.37018144 0.037055969 3227230
1.659204 0.3730225 0.036545217 2964056
1.6608856 0.37509668 0.035070717 2701139
1.6628485 0.37741989 0.034516573 2503757
1.6638615 0.38026166 0.034590483 2372170
1.6651524 0.38276219 0.034650266 1977671
1.6675274 0.38409364 0.034128785 1058631
1.6689444 0.38736027 0.03453964 857131
1.6707723 0.39190066 0.032945216 1778481
1.672259 0.39264929 0.032555878 2172986
1.6730356 0.39524293 0.032424927 2567746
1.6742191 0.39740074 0.031327248 2436674
1.6393385 0.34674114 0.039091468 2432025
1.6406085 0.34842372 0.041036308 4208931
1.6446067 0.35429156 0.036740303 3882559
1.6456748 0.35647678 0.03799665 5462396
1.6475191 0.35946047 0.036394238 6054787
1.6489283 0.36151439 0.036592722 6385047
1.6504281 0.3639527 0.036707222 4873877
1.6524386 0.36654198 0.035184562 2834537
1.6544027 0.36917889 0.034592807 3096417
1.6555629 0.37145644 0.034700036 3096159
1.6569794 0.37427354 0.034196377 3095132
1.6585165 0.37633663 0.034016192 2767705
1.6605537 0.37886214 0.034151316 2767188
1.6616728 0.38026613 0.033459723 2636628
1.6696935 0.39305413 0.032191217 1514808
1.6709921 0.39673662 0.030940294 2370112
1.6359332 0.34646708 0.037165582 2366231
1.6371045 0.34757274 0.038425326 2497817
1.6423032 0.35606813 0.035432518 1974300
1.6430087 0.35734361 0.036781013 3619387
1.6454506 0.36020309 0.035249949 4606287
1.6464872 0.36252826 0.03529954 6318209
1.6485262 0.36484343 0.034191072 6254249
1.6496996 0.36730802 0.034262776 3887761
1.6510843 0.36968696 0.034602225 2572912
1.6528676 0.37219477 0.034345627 3162984
1.6549714 0.37519473 0.03380996 3359331
1.6564163 0.37835342 0.033451736 3030879
1.6346676 0.34650832 0.036276996 2168852
1.6343844 0.34842473 0.036708355 2103314
1.6402879 0.35659391 0.034386754 2105384
1.6422925 0.35893232 0.034305334 2368554
1.6430752 0.36140382 0.033569336 2960941
1.6447717 0.36383891 0.03334415 4870242
1.6461165 0.36657429 0.033082306 7438779
1.6480975 0.36852133 0.034038544 5400752
1.6326326 0.34783459 0.033860028 1708815
1.6325611 0.34983104 0.034886062 1643535
1.6384572 0.35788959 0.033159435 1710119
1.6389923 0.36046696 0.031650364 1645096
1.6406167 0.36222577 0.032064319 1908265
1.6422882 0.36482155 0.031530857 2502195
1.64323 0.36726499 0.031881452 5135215
1.6313851 0.35141778 0.033248425 1446414
1.6311843 0.35355818 0.032010794 1380621
1.6361635 0.35898155 0.030796766 1119265
1.6369455 0.36108428 0.031022608 1776938
1.6384366 0.36326665 0.030542135 1712179
1.6401708 0.36633086 0.02979362 2435377
1.6406937 0.36808074 0.030287623 3093294
1.6300113 0.35554796 0.031312883 1314832
1.6342542 0.361857 0.029262185 1185062
1.6361933 0.36472523 0.028948367 2172471
1.6382852 0.36747795 0.027956128 1908530
1.6383692 0.36980051 0.02840358 2368557
1.6291684 0.35838407 0.028462112 1511954
1.633745 0.36307019 0.027817011 1250858
1.6343056 0.36613673 0.02696085 1514799
1.637547 0.36873662 0.026165545 1447207
1.6370087 0.37060261 0.026257753 2828855
1.6285739 0.35874951 0.026264787 1774610
1.6281612 0.361619 0.026307285 1577745
1.6328357 0.3689537 0.024964929 1382442
1.6357203 0.37202793 0.024118721 1710889
1.635507 0.37397367 0.024602175 2697524
1.6280029 0.36571693 0.023595333 1512209
1.6285719 0.3687492 0.024323106 1578001
1.6316361 0.37118083 0.02323252 1447979
1.6344637 0.37520272 0.02229321 1448744
1.6271927 0.36821258 0.022570968 1315087
1.628504 0.3706491 0.02208817 1446417
1.6333064 0.37728286 0.02190429 1844019
1.6338086 0.37782359 0.020156264 1514795
1.6284392 0.37289947 0.019184351 1314582
1.6283636 0.37558925 0.019525528 1380376
1.6339471 0.38133007 0.018180132 1646383
1.6287361 0.37965995 0.01647532 1052192
1.6294889 0.38186955 0.017306447 1446429
1.6298623 0.38425958 0.016877234 1512734
1.6289985 0.38306028 0.014982343 1184542
1.6325388 0.39927703 0.0077893138 3291465
1.634305 0.40162891 0.0074510574 2632501
1.6347649 0.40430462 0.0069175959 2829879
1.6368184 0.40727413 0.0068330169 2631474
1.6261308 0.39509124 0.0065413713 6251377
1.6285204 0.39771163 0.0068623424 5725289
1.6307198 0.40040582 0.0069293976 5067615
1.6316869 0.40259725 0.0068324804 4607066
1.6328535 0.40519392 0.0063804984 4080724
1.6344175 0.4085508 0.0060405135 3750728
1.6370623 0.41113746 0.0062588453 2828846
1.6215284 0.39147162 0.0061359406 6777717
1.6231166 0.39404649 0.0064544678 6777719
1.6246172 0.39653403 0.0066518784 6712185
1.6255505 0.39926124 0.0065089464 6777979
1.6272902 0.4013449 0.0063564777 6383224
1.6291721 0.40364599 0.0060396194 5857140
1.631444 0.40711534 0.0056831837 5330796
1.6209126 0.39566964 0.0064395666 7501435
1.6223731 0.39755934 0.0067400932 7370109
1.6689556 0.37321895 0.043109 2235941
1.6703471 0.37557185 0.042463183 2433320
1.6551466 0.35579032 0.04532367 5656400
1.6569365 0.35909528 0.044692039 6247779
1.6579399 0.36115927 0.044371724 3880515
1.6596262 0.36353958 0.044429183 1512482
1.661688 0.36567223 0.04435873 1381148
1.6633244 0.36821431 0.044411063 1578524
1.664716 0.37144089 0.043450058 1775901
1.666908 0.37382513 0.042834163 2104353
1.6681963 0.37609792 0.04236269 2367270
1.649601 0.35217881 0.045051455 2762542
1.6533093 0.35678422 0.045566618 4077112
1.6542563 0.35878861 0.04537183 4143419
1.6565427 0.36176842 0.045028269 2762284
1.6605612 0.36950123 0.040153682 2040902
1.6643461 0.37389845 0.043070436 1973026
1.6662281 0.37796265 0.038598299 1580609
1.6668477 0.37914306 0.039278686 1843263
1.6687475 0.38112086 0.039320707 1908797
1.6700604 0.38426942 0.038473189 2171970
1.6717553 0.38626367 0.037301958 2370119
1.6462376 0.3507458 0.043757081 4013137
1.6472104 0.35274267 0.045050919 2631734
1.6537151 0.36328071 0.041247249 2830673
1.6559238 0.36533326 0.040687084 2699601
1.6566895 0.36781716 0.040545523 2896983
1.6582682 0.37039655 0.040112734 2831704
1.6597645 0.37308872 0.03997618 2568529
1.6620095 0.37517005 0.03865242 2963031
1.6633922 0.37776643 0.038640738 2502479
1.6650903 0.38031042 0.037938476 2502734
1.6664973 0.3832072 0.036530733 2042434
1.6681421 0.38505661 0.036908209 1647164
1.6698203 0.38813192 0.036569893 1778747
1.6722573 0.38845819 0.036300302 2370118
1.6421285 0.35013241 0.042665064 5919579
1.6438618 0.35113579 0.043656707 5657701
1.6485734 0.3595435 0.040105402 3293048
1.6501076 0.36227357 0.040419936 2372708
1.6519814 0.36372381 0.040249348 2898275
1.6532648 0.36651969 0.039305687 3621484
1.6548649 0.36926347 0.039335907 3753067
1.6566927 0.37178278 0.038411975 3818600
1.65815 0.3740589 0.038551927 3687014
1.6599288 0.3764388 0.037790537 3292509
1.6614065 0.37929153 0.037517786 3160920
1.6627047 0.38179272 0.037124693 3029591
1.6645194 0.38402736 0.036437929 2371660
1.6660721 0.38663894 0.036222637 1712963
1.6675112 0.38935167 0.035226047 1383479
1.6700938 0.39238054 0.03408289 2370622
1.6714134 0.39355803 0.03490454 2830147
1.6726291 0.3964386 0.03328824 3159110
1.6724964 0.39862257 0.034146965 3290957
1.6396148 0.3504172 0.041569591 4208678
1.6453546 0.3583104 0.038787663 5857677
1.6457816 0.36016977 0.039712012 5660571
1.648 0.36314887 0.038955212 5661349
1.6493444 0.36500752 0.038248479 5398946
1.6508119 0.36772692 0.038046777 3623810
1.6526856 0.37032926 0.037784994 3950960
1.6542073 0.37316447 0.037808657 3884648
1.6557245 0.37502569 0.037395179 3226712
1.6573606 0.37789726 0.036775291 3095126
1.6589416 0.38017952 0.036332488 3095123
1.6608384 0.38275886 0.035959125 2832206
1.6629045 0.38576376 0.036029041 2963283
1.6643034 0.38780576 0.035669029 2042693
1.6659315 0.39087445 0.0343225 2107969
1.6670269 0.39268833 0.033712208 2107456
1.6688045 0.39549261 0.032312572 2567232
1.6703038 0.39823222 0.032073379 2699074
1.6709338 0.3999328 0.031357288 2370368
1.6368333 0.34991568 0.039886951 2629148
1.6368337 0.35077596 0.039967179 2366487
1.6432627 0.35917377 0.03772521 5067620
1.6432972 0.36139959 0.037908792 5791346
1.646055 0.36354476 0.037013888 6777999
1.6473267 0.36620468 0.037012696 7306672
1.6486659 0.36898458 0.03682518 5004951
1.6497518 0.37216377 0.036540687 3556464
1.652006 0.37374842 0.034198403 3097710
1.6536808 0.3760522 0.034085095 3293285
1.6548675 0.37835169 0.034081638 2964316
1.6587704 0.38381886 0.034319818 2766417
1.6657989 0.39475685 0.032960534 2698820
1.6663703 0.39711827 0.031498313 2436419
1.6684022 0.39926368 0.03051734 2502210
1.6694348 0.40159148 0.030873477 2633798
1.6718869 0.40268004 0.030661762 3686230
1.6349251 0.34970933 0.038073421 2300435
1.6346667 0.3525781 0.038314581 2300436
1.6405368 0.35999602 0.0365358 2764327
1.6426474 0.36307597 0.03507328 3158310
1.6436275 0.36503619 0.035600781 5592926
1.6446223 0.36736858 0.035830855 7371157
1.646853 0.36974633 0.034542978 6649781
1.6489801 0.3726657 0.033981919 3296910
1.6500449 0.37560743 0.033764899 2835056
1.651186 0.37768435 0.03382051 3030630
1.652252 0.37942433 0.033799291 3226457
1.6663637 0.39973891 0.030682206 2436933
1.6330297 0.35154605 0.036260664 1709070
1.632431 0.35399783 0.036947191 1577486
1.6381629 0.36098993 0.035374165 1908258
1.6399107 0.36405689 0.033506811 1974064
1.6412921 0.36603147 0.034185648 3487029
1.6425865 0.3688544 0.033489466 6120826
1.6445185 0.37123579 0.03330934 8491980
1.645607 0.37399668 0.033440053 6848195
1.6476383 0.37617153 0.033384204 3887503
1.648942 0.37857884 0.033341944 2507898
1.6311929 0.35524321 0.035208941 1380621
1.6354573 0.36264044 0.033602238 1249828
1.6377175 0.36501443 0.032179713 2106424
1.6388403 0.36744183 0.032600284 3618373
1.6403856 0.36962491 0.031983972 3489081
1.6419261 0.37221557 0.032319427 7241369
1.6302338 0.3560915 0.033596814 1249295
1.6294209 0.35828125 0.032850742 1314833
1.6340384 0.36355406 0.031883955 1184295
1.634958 0.36641639 0.031460285 1974845
1.6367553 0.36830866 0.031342506 2633024
1.6387889 0.3714692 0.029749393 2960684
1.6392025 0.3732785 0.030496538 3489589
1.628824 0.35981363 0.030687511 1445907
1.6330198 0.36692458 0.029457629 1382705
1.6341746 0.36924231 0.029418051 1515835
1.6365628 0.37264222 0.02766484 2828851
1.6368532 0.37422264 0.028603613 1842217
1.6273347 0.36333269 0.028947353 1577491
1.6325769 0.37014228 0.027723968 1844542
1.6351891 0.37580395 0.026567698 987426
1.6273386 0.36782575 0.027870834 1643795
1.6312788 0.3714503 0.026108027 1644842
1.630875 0.37334281 0.023957253 1513781
1.633743 0.37661004 0.02467227 1448746
1.6339183 0.3786605 0.025423884 856616
1.6279149 0.37085271 0.024270236 1578003
1.6284528 0.37231511 0.024888575 1643542
1.6288226 0.37518191 0.021636665 1708826
1.6329119 0.3797586 0.022648335 1581360
1.6284974 0.37788838 0.020824313 1709083
1.6314114 0.38118958 0.021115243 1910330
1.6316221 0.38292402 0.022353053 2041916
1.6348413 0.41147906 0.0062185526 4343116
1.6266634 0.40359426 0.0061210394 6778496
1.6284522 0.40583563 0.0062183738 6251899
1.6303388 0.40826976 0.0057743192 5790838
1.6319153 0.41025573 0.0057145357 5658734
1.6213505 0.39898503 0.0069473982 7896195
1.6232564 0.40156835 0.0067122579 7699076
1.624373 0.40395957 0.0062796474 7567751
1.6254406 0.40625459 0.0061178207 7436166
1.6272728 0.40868276 0.0057725906 7041154
1.6291218 0.41168398 0.0054281354 7171712
1.6225166 0.40545666 0.0062551498 8159373
1.6269457 0.41154355 0.0051255822 7764106
1.6515079 0.3579579 0.045612335 2368037
1.6537108 0.36083657 0.045402408 2433573
1.6548669 0.36348134 0.045625925 2039335
1.6568291 0.36595809 0.045289099 1841702
1.6578734 0.36805296 0.045054793 1841444
1.6589839 0.37028283 0.044702053 1775908
1.6611083 0.37324864 0.044265628 1841441
1.6632409 0.37505299 0.043161631 2038561
1.6645243 0.37753624 0.042927384 2301219
1.6447341 0.35264969 0.044821799 3750739
1.6459594 0.3545801 0.045374215 2566455
1.648052 0.35653776 0.045684814 2959925
1.6489847 0.35985351 0.045576811 3091253
1.6511765 0.36205268 0.045556724 2762545
1.6540663 0.36679649 0.045586169 2434094
1.658819 0.37308329 0.044697165 1907241
1.6602378 0.37699491 0.040382266 2239310
1.6619055 0.37983423 0.040052116 1778764
1.6632581 0.3812415 0.039994895 1646660
1.6666085 0.38283443 0.040088773 2040642
1.6424603 0.35333639 0.044363797 5723498
1.6438565 0.35549861 0.045382261 3355982
1.6499348 0.36480981 0.041507721 2964070
1.6519487 0.36743605 0.04123199 3095393
1.6540036 0.370758 0.040946841 2964061
1.655453 0.37295109 0.03998208 3358311
1.65677 0.37546748 0.040111363 3095392
1.6583897 0.37757766 0.040544629 2700628
1.659668 0.3803817 0.040081978 2502998
1.6686416 0.39317912 0.036557674 2633546
1.6686047 0.39521265 0.037786365 2699853
1.6389464 0.35299963 0.042901039 5919300
1.6407351 0.35416597 0.0436728 6446443
1.640357 0.35613 0.043828547 6906486
1.6464155 0.36371857 0.040746331 3622545
1.6480149 0.36667854 0.04132247 2702959
1.6498442 0.36972767 0.040314078 3294327
1.6514142 0.37133658 0.039799571 3950711
1.6529531 0.37380099 0.03925097 3818607
1.6545281 0.3763079 0.038902462 3226722
1.6563883 0.37909013 0.037982285 3292252
1.657896 0.381558 0.037547052 3226461
1.6596925 0.38375777 0.036806226 3226455
1.6612694 0.38644773 0.036693871 3160663
1.6626593 0.38833386 0.036157489 2897746
1.6639113 0.3908574 0.035167992 2502477
1.6662109 0.39363664 0.034645557 2567498
1.6675524 0.39690357 0.034929395 2699086
1.6374177 0.35304153 0.041555643 3353110
1.637428 0.35485435 0.042634189 4932143
1.6430836 0.36309701 0.039509058 6975657
1.6444939 0.36506724 0.040724993 5333168
1.6464005 0.3682819 0.038213849 7635395
1.6476228 0.37058717 0.038535476 5400750
1.6493924 0.37239939 0.038137674 3754879
1.650735 0.37510651 0.038057566 3753324
1.6526101 0.37732595 0.037491679 3555426
1.6540293 0.37992525 0.036973298 3160663
1.6555023 0.38264179 0.036731482 2963538
1.6575303 0.38526875 0.036047339 3094865
1.6586864 0.38790333 0.035801828 3029071
1.6603167 0.38990867 0.035506248 3094866
1.6618679 0.39306474 0.034145296 3291995
1.6636112 0.39454544 0.033816099 3028562
1.6656339 0.39804816 0.033080101 2698829
1.6671525 0.40058434 0.03268075 3554125
1.6693714 0.40233439 0.031994581 3423057
1.6696802 0.40500844 0.031571805 2172991
1.6350675 0.35463852 0.04046005 2760726
1.635577 0.35650325 0.041655302 3155980
1.6404352 0.36380309 0.038785398 5330542
1.6418622 0.36672169 0.036312938 4934199
1.6439211 0.36863148 0.037404776 7897257
1.6453941 0.37131572 0.037015319 7438258
1.6470673 0.37410682 0.036677599 4412037
1.6488763 0.37640053 0.037187397 3424616
1.6500826 0.37874264 0.036721945 3029593
1.6515825 0.38131815 0.035985947 3029332
1.6534038 0.3836444 0.03538996 2766414
1.6548088 0.3862614 0.035336077 2831948
1.6556134 0.38840497 0.034892559 3028813
1.6580167 0.3908053 0.033615708 3225935
1.6596305 0.39397293 0.033397317 3226198
1.6614366 0.39627355 0.033391118 3225939
1.6626109 0.39905053 0.032036543 3225423
1.6646991 0.40111691 0.031610429 3224393
1.6662637 0.40269786 0.031445801 5526368
1.6328235 0.3556245 0.038544297 1971217
