# .PCD v0.7 - Point Cloud Data file format
VERSION 0.7
FIELDS x y z rgba
SIZE 4 4 4 4
TYPE F F F U
COUNT 1 1 1 1
WIDTH 1179
HEIGHT 1
VIEWPOINT 0 0 0 1 0 0 0
POINTS 1179
DATA ascii
1.6633551 0.38119543 0.048247039 8818068
1.6646566 0.38378316 0.047965765 9080981
1.6667221 0.38544071 0.047444999 9080980
1.6692353 0.38785195 0.047380805 9146772
1.6707468 0.3907721 0.047753513 9146775
1.6717756 0.39200163 0.048193872 9015195
1.7179971 0.44750506 0.042813361 2500147
1.6677585 0.39009786 0.046693921 9212565
1.7170093 0.36378521 0.088627815 263953
1.71979 0.36686313 0.089215517 855576
1.72112 0.36894351 0.090138137 395027
1.708919 0.35711789 0.087942302 724256
1.7099392 0.35800499 0.088428378 592923
1.7121607 0.36044699 0.08823055 790044
1.7137995 0.36293429 0.088343859 855579
1.7160492 0.36567688 0.088064492 986912
1.7177849 0.36755329 0.088322818 723992
1.7190045 0.3700664 0.088577092 789785
1.721384 0.37289149 0.086565733 1908520
1.7233012 0.37326247 0.087124646 724246
1.7015119 0.35162795 0.086278975 792125
1.7025435 0.35354453 0.086963654 1187142
1.7045183 0.35539168 0.086890638 1318462
1.7066245 0.3572222 0.086981475 1579825
1.7087591 0.35972494 0.086828649 1710895
1.710387 0.36180627 0.086975753 1513515
1.7117354 0.36425847 0.086865306 1579565
1.7137359 0.36662871 0.086387694 1250343
1.7158101 0.36878866 0.085974276 1119010
1.7177433 0.37129134 0.086544216 1184541
1.71956 0.37405443 0.08611083 1316127
1.7219387 0.37676018 0.086422503 1513251
1.7230953 0.37901825 0.085977495 1710375
1.6968429 0.34974074 0.084910691 9014712
1.6990044 0.35134095 0.085688293 5398663
1.7006118 0.35411346 0.08613354 2439256
1.7028154 0.35656941 0.085404754 1845569
1.7049762 0.35847467 0.085533857 2237242
1.706821 0.36108422 0.085401177 2303033
1.7083387 0.36355978 0.085274518 1974322
1.7100379 0.36564749 0.084735215 2500919
1.7120671 0.36765289 0.08528173 1974063
1.7147223 0.37025845 0.08525902 1250594
1.7154667 0.37250358 0.08555305 1711150
1.7172549 0.37566233 0.083857358 1447967
1.7191184 0.37867725 0.083217204 1776417
1.721827 0.38062173 0.084158897 1907494
1.6934167 0.3493191 0.083854616 9343649
1.6954435 0.35087711 0.08425796 10591649
1.6971998 0.3532809 0.084437013 9473964
1.6991882 0.35511339 0.08411485 6909579
1.7006592 0.358046 0.084015548 2372958
1.7026449 0.35997367 0.083750725 2830146
1.7047627 0.36267263 0.084316015 2566205
1.7068073 0.36471742 0.083935797 2698302
1.7160373 0.37594557 0.083225012 1710629
1.716819 0.37802023 0.083345234 1776424
1.6904397 0.34827155 0.081739783 593180
1.6912724 0.35004264 0.082649827 1053723
1.6935023 0.35210812 0.082524061 4933182
1.6952034 0.35475004 0.082144678 9537923
1.6969545 0.35683751 0.082488656 10263206
1.6987126 0.35874707 0.082752287 6449034
1.6878499 0.34915906 0.081143737 1053216
1.690105 0.35140485 0.080227792 1118747
1.6914384 0.35333782 0.081008613 1052688
1.6930051 0.35590374 0.08053869 4603433
1.6952717 0.35806984 0.081894517 10656933
1.6849636 0.34883332 0.077914894 724246
1.6859362 0.35078126 0.079271317 987160
1.6878945 0.35322547 0.079039276 1315611
1.6894255 0.35495031 0.079027414 1447452
1.6907413 0.35687208 0.079192698 1052424
1.683759 0.35183579 0.077632844 658451
1.6858897 0.35402465 0.076968253 1052949
1.6876922 0.35638756 0.076990545 1842207
1.6882422 0.3581562 0.077703297 2236965
1.681937 0.35299432 0.075589478 592658
1.6840351 0.35557216 0.07555747 921620
1.6854348 0.35832906 0.075447559 1645085
1.6863744 0.36001372 0.076341212 2105892
1.6802459 0.35483646 0.073245943 461072
1.681555 0.35674387 0.073940933 724499
1.6836245 0.35900152 0.073676169 1447964
1.6837776 0.36172181 0.073147714 2040102
1.6789098 0.35624301 0.071256995 461073
1.6797049 0.3580358 0.071905196 724244
1.6820307 0.36049646 0.071667969 1382173
1.6825621 0.36269611 0.071472526 2040106
1.6782351 0.35968959 0.069890678 724243
1.6800115 0.3625266 0.069816887 1382172
1.6809084 0.36442703 0.070419252 1579554
1.6769638 0.36167628 0.068329036 658450
1.6774445 0.3632462 0.068264067 921877
1.6795371 0.36602181 0.068010271 1711136
1.6759338 0.36264324 0.066823184 526609
1.6760273 0.36488503 0.066179931 790037
1.677525 0.36781514 0.065864742 1579296
1.6792297 0.36887205 0.066496789 1842724
1.6744841 0.36685395 0.064072967 724247
1.6757305 0.36901212 0.064139187 1250847
1.6775483 0.37093902 0.064265072 1645348
1.672895 0.36738926 0.061825097 592411
1.6737645 0.36975956 0.062701643 724253
1.6761253 0.37245035 0.062040985 987940
1.6764591 0.37441397 0.062600851 1316646
1.6725315 0.37139934 0.060675204 395296
1.6733522 0.37423676 0.061237156 330787
1.6753037 0.37669736 0.060094774 264490
1.6775959 0.37766302 0.060911238 1975343
1.7374371 0.4536851 0.054885805 790040
1.6723442 0.37536305 0.058930457 396848
1.6727028 0.37767583 0.058568537 593712
1.6758628 0.37992132 0.058397472 989490
1.6760033 0.38175905 0.058427155 397873
1.7356935 0.45532787 0.052804649 7498080
1.6714803 0.37642539 0.057029009 2041928
1.6720653 0.37945503 0.056236446 3357786
1.6734023 0.3812393 0.057127059 2240582
1.6754582 0.38390249 0.056398094 2569803
1.6763533 0.386419 0.056792915 1057585
1.7297831 0.45272845 0.05004853 10129021
1.73191 0.45482266 0.049901605 6971472
1.6707919 0.38074762 0.054637432 6318205
1.6723368 0.38267571 0.054639757 6910083
1.673316 0.38518697 0.054372251 6713475
1.6749189 0.38814402 0.054235041 5201270
1.676934 0.39004117 0.053970635 1912899
1.6780443 0.39282626 0.054252923 1253678
1.726122 0.45143342 0.048934639 7234137
1.7278457 0.45329916 0.04922998 6051662
1.729419 0.45562094 0.049656749 7761244
1.6620879 0.37461758 0.052563071 7109002
1.6643336 0.377303 0.052460551 7635605
1.6658957 0.37974811 0.052572548 7964052
1.6679072 0.38212371 0.052687287 8095382
1.6700056 0.38428807 0.052792847 7963540
1.6712021 0.38621366 0.052862942 7700115
1.6730981 0.38919342 0.052979469 6516617
1.6754577 0.39151591 0.052802682 4346732
1.6766288 0.39470464 0.052253425 3228506
1.6787627 0.39825368 0.052241027 1974833
1.720062 0.4470911 0.047429085 2302764
1.7217779 0.4501158 0.047955334 3222063
1.7236531 0.452923 0.048556149 4867659
1.7255776 0.45433491 0.048396766 7630177
1.6600437 0.37634343 0.051598012 7832210
1.6619666 0.37866592 0.051845014 7964051
1.6638436 0.38072729 0.051402509 8029329
1.6654634 0.38321245 0.051375449 7963789
1.6676708 0.38564843 0.051471889 8160913
1.6699268 0.3881315 0.051333547 8226195
1.6709146 0.39056593 0.051618218 7831960
1.6729735 0.39243633 0.050577283 7569047
1.6754117 0.39505726 0.049925268 5399166
1.6758409 0.39770359 0.050235331 4149615
1.6829052 0.40673149 0.050435543 2567493
1.7184033 0.44882786 0.046996653 2236967
1.7190168 0.45128506 0.04701525 2039595
1.7219315 0.45327854 0.047356844 2039598
1.6600237 0.37998444 0.050293267 7897486
1.6618879 0.38214147 0.04947412 8094862
1.6641752 0.38496512 0.049735427 8160654
1.6660335 0.38739032 0.049571574 8554898
1.6674626 0.38959754 0.049619198 8423571
1.6695526 0.39154983 0.04970032 8554900
1.6717196 0.3936817 0.048240244 8752281
1.6730998 0.39675701 0.048867762 7766169
1.6744428 0.39879268 0.049319208 5858956
1.6601703 0.38389337 0.048380256 8883860
1.6619554 0.38603032 0.048466027 8883861
1.6636817 0.38818997 0.04802072 9278103
1.665532 0.3908751 0.047536135 9409688
1.6671454 0.39331132 0.047210991 9409688
1.6690855 0.39555728 0.047527194 9015192
1.6709878 0.39776665 0.047847331 8423577
1.6724364 0.39906424 0.048694313 7042969
1.6629567 0.39190179 0.047116935 9606810
1.6652625 0.39364272 0.046999872 9475738
1.7218044 0.37238437 0.090380311 461075
1.708998 0.35959738 0.089470446 658713
1.7116789 0.36258084 0.089424789 527381
1.7131377 0.36483228 0.089704275 592407
1.7141436 0.36704946 0.089833796 789792
1.7163849 0.36896425 0.090152681 658204
1.7189007 0.37138379 0.08972317 1184293
1.7194226 0.3730526 0.090221107 1184543
1.7207587 0.37579024 0.089681566 1184796
1.7225666 0.37825495 0.089669049 855322
1.703752 0.35627908 0.088516891 1184816
1.7052641 0.35880417 0.088989675 1185580
1.7069715 0.36071646 0.088838041 1447724
1.708827 0.36335987 0.089237273 1579563
1.7108867 0.36597282 0.089108646 1645099
1.7129664 0.36835325 0.089598119 921381
1.7146428 0.36990541 0.088205636 855837
1.716295 0.37228298 0.088819981 1052701
1.7176454 0.37443787 0.088932216 1184027
1.7192824 0.37707841 0.087700665 1842216
1.721776 0.37809181 0.087559938 1249826
1.7233661 0.38159704 0.086265981 2236975
1.69779 0.35359126 0.087218821 2241641
1.6997302 0.35516804 0.088011086 1846351
1.7013848 0.35730326 0.087886751 1188158
1.7030488 0.35962248 0.087622285 1777720
1.7051338 0.36216265 0.087870657 1974326
1.7070208 0.36449569 0.087426543 2961473
1.7087464 0.36665052 0.087375343 2566716
1.7107493 0.36917186 0.087132573 1777460
1.7128869 0.37178421 0.086759746 1382444
1.714433 0.3738941 0.087474763 1316392
1.7165176 0.37631828 0.086232722 1513510
1.718092 0.37852931 0.086400509 1447717
1.7204083 0.38119167 0.085946918 1973546
1.7215877 0.38402694 0.08613199 2434353
1.6946317 0.35245752 0.086342633 9606852
1.69561 0.35432547 0.086162746 8619164
1.6976402 0.35670352 0.086196005 6383490
1.6992574 0.3592397 0.086260378 3029337
1.7012408 0.36130869 0.086172402 2370369
1.7032523 0.36340594 0.085756242 2566462
1.7053814 0.36585867 0.08608973 2830144
1.7073323 0.36827159 0.085535586 3224899
1.7092201 0.37078422 0.086582839 2238011
1.7105887 0.37295997 0.086416662 1777203
1.7133578 0.37575555 0.085628688 1776689
1.7148094 0.37869388 0.084705532 1710890
1.7162504 0.38027978 0.084731758 1908010
1.7179878 0.38242668 0.08515662 2170923
1.7199504 0.38565379 0.085298181 2368557
1.6898293 0.35128343 0.083928525 198161
1.6920311 0.3533715 0.084747016 6381674
1.6938756 0.35579044 0.084710658 7564667
1.6954974 0.35813469 0.084568202 8289428
1.6968827 0.36057675 0.084221959 6711945
1.6996014 0.36262268 0.08452636 2567760
1.701336 0.36486268 0.085027277 3355970
1.7034123 0.36722571 0.085090399 4211019
1.7234221 0.39126253 0.082463026 2301743
1.724153 0.39253652 0.083342195 2433587
1.6881962 0.35242492 0.082917809 658717
1.6902629 0.35497177 0.08273679 1053199
1.6921504 0.35711724 0.083050549 4867636
1.6939639 0.35892957 0.082930565 8946052
1.6948349 0.36160392 0.083472848 9473442
1.6858232 0.35213614 0.080831647 855832
1.6863382 0.35376543 0.081889033 987418
1.6883107 0.35632575 0.081429362 1053209
1.6902854 0.35852718 0.080775976 2302222
1.6915467 0.36049348 0.081844211 5064500
1.6838036 0.35351145 0.078504801 921364
1.6846509 0.35535467 0.079551637 855572
1.6861317 0.35752982 0.079766691 1250073
1.688261 0.36020315 0.07937324 1710874
1.6895239 0.36144489 0.081237316 2762245
1.6823132 0.35462373 0.077483833 592400
1.6824633 0.35650474 0.077854693 723984
1.6837311 0.35896462 0.077587068 1052951
1.6860979 0.36141604 0.077864885 1908257
1.6807104 0.35848397 0.075853288 592657
1.6823783 0.3605991 0.075856149 1053209
1.6841767 0.36275429 0.075888574 1842463
1.6794372 0.36011738 0.073996961 658452
1.6801919 0.36173397 0.074036598 1053209
1.6819609 0.36450708 0.074220121 1842723
1.6780689 0.3611778 0.071829438 592657
1.6780121 0.36331052 0.072212756 855829
1.6803689 0.3661083 0.072097957 1711138
1.6769699 0.36525005 0.070461452 855571
1.6783803 0.36728787 0.070056021 1842721
1.6795862 0.36917597 0.070350468 1842724
1.6759773 0.36583221 0.068030119 658193
1.676051 0.36812449 0.068885028 987160
1.6780791 0.37109154 0.068201005 1776930
1.6749597 0.3700183 0.066476405 855831
1.6753488 0.37218672 0.067114055 1053211
1.6776842 0.37443113 0.066003144 1842727
1.6743963 0.37162632 0.064367354 921371
1.6742721 0.37388867 0.064444125 790044
1.6760416 0.37546772 0.063902676 1185831
1.6772994 0.3781991 0.065067112 1974569
1.6737597 0.37430757 0.062575519 724513
1.6737287 0.37751818 0.062769115 462626
1.6764084 0.380126 0.06287396 1120044
1.6767074 0.38149858 0.063462913 1910065
1.6730332 0.37753487 0.061142743 395299
1.6737093 0.38118362 0.06091851 528935
1.6766435 0.38295305 0.060299635 660781
1.6728809 0.38192391 0.059087098 595247
1.6732892 0.38682878 0.058832049 859948
1.6762856 0.38742727 0.058359444 1253946
1.6776061 0.38804752 0.05947119 1713466
1.6796212 0.39291888 0.056959331 2107443
1.6728499 0.3861174 0.056547403 2700877
1.6732314 0.3884325 0.056765258 2372945
1.6763308 0.39074135 0.056128085 2768221
1.6775515 0.39282233 0.056446731 1780032
1.6792648 0.39587533 0.056748092 1779005
1.6713126 0.38761061 0.054076612 6647427
1.6724677 0.38965994 0.0542413 5529731
1.6736072 0.39205343 0.054697037 3556964
1.676182 0.39455229 0.054590583 2964570
1.677319 0.39706129 0.054559529 1977415
1.6791134 0.3994137 0.054440379 2173762
1.7203584 0.45119268 0.048996866 3877949
1.7232631 0.45442671 0.049573302 10128768
1.7248008 0.45614505 0.04954356 7432287
1.6627322 0.38232499 0.052504182 8161431
1.6648297 0.38421488 0.05289501 8621207
1.6664236 0.38691109 0.052728474 8227223
1.6685736 0.38892353 0.052582681 8292762
1.6701286 0.39097905 0.052854776 7963288
1.6720345 0.39384198 0.052727997 5990281
1.6739552 0.3958112 0.05305022 3885933
1.6753386 0.39851987 0.052657425 3096414
1.6776252 0.40095568 0.052654743 2635349
1.6785568 0.40329498 0.052421451 2107973
1.683497 0.40860039 0.05093205 2699328
1.7189949 0.45323515 0.048069894 4008760
1.7207227 0.45472473 0.048996866 6314328
1.6608129 0.38348508 0.052066624 8489879
1.6626906 0.38606793 0.052025259 8490136
1.6646891 0.38840395 0.051802874 8424602
1.6664271 0.390679 0.051736116 8292501
1.6681447 0.39273381 0.051589966 8095382
1.6699557 0.39514917 0.051095128 7568274
1.6717026 0.3973639 0.051722884 6121865
1.6735907 0.39968514 0.051104248 5070465
1.6760581 0.40217537 0.051034629 3359845
1.6778476 0.40553731 0.05083549 2963793
1.679472 0.40755671 0.050615609 3160652
1.6813568 0.40914285 0.050219357 2830916
1.682457 0.41098797 0.051260531 2699330
1.716149 0.45353323 0.047425747 2893107
1.7187619 0.45580161 0.048252642 1382437
1.6605723 0.38714069 0.05021584 8160914
1.662563 0.38953578 0.049970508 8555156
1.6641083 0.3919428 0.050240815 8423830
1.6661203 0.39411759 0.050176859 8292242
1.6678169 0.39706117 0.049812138 7963281
1.670049 0.39883405 0.050085247 7502996
1.6723399 0.40094137 0.048805296 7174294
1.6736584 0.40376616 0.049715221 5267331
1.6757358 0.40713155 0.049640417 3820914
1.6780849 0.40873456 0.049868643 3227485
1.6790669 0.41150993 0.049489677 3292248
1.6605281 0.39086783 0.048826039 9146777
1.6625112 0.39307904 0.048220873 9541274
1.6645997 0.39588594 0.04726696 9475738
1.666223 0.39811468 0.047542751 9278364
1.6683767 0.40060931 0.047681391 8686489
1.6696382 0.40301472 0.048185945 8357785
1.6711726 0.40473527 0.048591912 7765917
1.7102586 0.45304173 0.044830978 4342090
1.6613569 0.39559227 0.046904981 9738652
1.6628604 0.39719397 0.047542751 9738652
1.6636888 0.39975947 0.046998203 9475740
1.6657865 0.40117544 0.047183335 9081242
1.7055848 0.36256975 0.090648115 1448746
1.7077713 0.36541593 0.091526926 987177
1.7100806 0.36672693 0.091110349 1053223
1.7111074 0.36978126 0.090908289 1118764
1.7134583 0.37130171 0.090821922 986658
1.7144849 0.37384272 0.090619326 1184295
1.7171543 0.37581199 0.090137303 1447204
1.7188411 0.37861782 0.090500891 1710374
1.7214096 0.38011068 0.090205789 1579049
1.6982924 0.35656589 0.089040697 793664
1.7000827 0.35966957 0.090298772 1316917
1.7021241 0.36082602 0.089813113 1383991
1.7033885 0.36380517 0.089854896 2632509
1.7058213 0.36587137 0.089752734 2829884
1.7078474 0.36850387 0.089687169 2369339
1.7093245 0.37061977 0.089711189 1514038
1.7112498 0.37318736 0.089465499 1184560
1.7130501 0.37532687 0.089594781 1315367
1.7148051 0.37757653 0.089188814 1447462
1.716309 0.38099957 0.088843882 1973287
1.7195485 0.38493079 0.088579595 2105393
1.7221235 0.3862862 0.087869823 2039860
1.6946964 0.3556422 0.088023126 5660824
1.6963615 0.35791528 0.088536799 4213868
1.6983659 0.36038512 0.088755846 1977424
1.7000575 0.36252201 0.088455021 2040894
1.7019272 0.36503994 0.087795615 2961472
1.7038527 0.36709529 0.088137746 3356482
1.7053072 0.3694098 0.087937772 3751244
1.707472 0.37220073 0.087199092 3553366
1.7093614 0.37493098 0.087602973 2303803
1.7112958 0.37663656 0.087636769 1776946
1.713119 0.37939578 0.087021828 1842733
1.7150909 0.3809396 0.086998522 1776421
1.7174985 0.38386577 0.086335778 2105385
1.7186987 0.38588089 0.085991681 2434096
1.7202601 0.38797826 0.086156368 2697269
1.7217597 0.39105344 0.086505473 3027001
1.6907923 0.35502887 0.086581349 7698320
1.6926602 0.35667485 0.087194681 8026259
1.6941993 0.35930276 0.086850107 7500427
1.6961954 0.36159092 0.086468518 4277607
1.6978928 0.36453414 0.086624444 3093584
1.7000536 0.36602902 0.086885035 3290437
1.7016501 0.36860967 0.086755693 3947588
1.7036339 0.37079936 0.08691293 4473939
1.7054067 0.37314022 0.086752236 4934748
1.7078123 0.37618589 0.087190628 3487816
1.7117826 0.38006079 0.085872948 2040114
1.7130966 0.38301551 0.085610807 2303028
1.7150235 0.3845908 0.085410655 2171180
1.7167161 0.38744479 0.085593879 2499631
1.7194433 0.38996273 0.085311532 2565678
1.7204165 0.39226806 0.085711956 2960694
1.7233782 0.39426339 0.084532797 2565686
1.6881484 0.35402292 0.084723711 264470
1.6886547 0.35600764 0.085498393 1975070
1.6904997 0.3584305 0.085072875 4079161
1.6923692 0.36056679 0.08492583 6776186
1.694191 0.36340564 0.085050762 6382467
1.696188 0.36547071 0.085162163 3422558
1.697904 0.36681467 0.085757494 2896196
1.6997633 0.36976182 0.085901797 3091777
1.7127411 0.38574773 0.085139215 2368556
1.7161583 0.39016944 0.084763229 2630705
1.6855747 0.35564435 0.083686769 789789
1.6868215 0.35746336 0.083396971 724245
1.6885376 0.35983813 0.083570898 1908252
1.6906593 0.36245877 0.083365321 5854542
1.691654 0.36447978 0.083366573 7236220
1.6836832 0.3571769 0.081845284 789779
1.6850294 0.3590889 0.081744492 1118487
1.6861336 0.36076003 0.082247734 1052694
1.6882777 0.3635332 0.081573784 2500373
1.6892302 0.36535072 0.08245343 5196863
1.6820726 0.35818148 0.08013612 592657
1.6829388 0.36018491 0.079842687 855827
1.6847144 0.36271721 0.079751432 1381911
1.6861646 0.36444044 0.080375552 1776669
1.6802394 0.35977048 0.078037083 461071
1.6808399 0.36165398 0.078283489 724500
1.6826007 0.36382818 0.077949107 1316379
1.6841521 0.36556101 0.07859081 1974307
1.6791983 0.3631168 0.076478779 790038
1.6810682 0.36516082 0.076218545 1382175
1.6820123 0.36698312 0.07691294 1974309
1.6778758 0.36482954 0.074575484 855829
1.6789355 0.36710644 0.074258626 1513760
1.6801426 0.36869764 0.07473141 1711139
1.6769907 0.36842173 0.072768033 1184794
1.6788702 0.37057507 0.072525322 2105636
1.6789136 0.37362784 0.0727368 2566704
1.6758558 0.37042332 0.070882201 1184540
1.6761919 0.37201631 0.071070731 1645092
1.6783793 0.37420386 0.070390284 2040102
1.6749569 0.37364864 0.068921626 921367
1.6762998 0.37531352 0.069044054 2237227
1.6780782 0.3768627 0.068733275 1777188
1.6742949 0.37509149 0.066918969 790039
1.6743398 0.37697291 0.066875994 856091
1.6770309 0.37921572 0.067320764 1777449
1.6734831 0.37916255 0.06471318 724254
1.6752014 0.38063747 0.065075517 790304
1.677263 0.38334602 0.065036654 1580073
1.677814 0.38459581 0.065368831 2369583
1.6730294 0.38195145 0.063322604 527905
1.6753049 0.3843618 0.063722253 791339
1.6770966 0.38764036 0.063282967 1449263
1.6775368 0.3886767 0.063872278 1316906
1.6739281 0.38547462 0.061301827 593450
1.6774321 0.39088017 0.059549809 727602
1.6784366 0.39376599 0.060066521 1120562
1.6792984 0.39628005 0.060945451 1645108
1.6732521 0.38739318 0.059148431 332075
1.6738572 0.38994706 0.059701741 726575
1.6750251 0.39295977 0.058276176 1383992
1.6760014 0.39588886 0.058190942 1514041
1.6786091 0.39771855 0.057318389 1187386
1.6824855 0.40413225 0.057678342 1907765
1.6739212 0.39395607 0.056359231 1518152
1.6741941 0.3955521 0.05665189 1451590
1.6767311 0.39779955 0.057238579 1646139
1.6783655 0.40031636 0.056037724 1844797
1.6804974 0.40272462 0.05704838 1448497
1.6815238 0.40545887 0.056589663 1710901
1.6713383 0.3961854 0.053448856 5661072
1.6737089 0.39780283 0.054997802 2044760
1.6750484 0.4000929 0.054852843 1583177
1.6762717 0.40179664 0.056122601 1383476
1.6788864 0.40467018 0.054179072 2042182
1.6809109 0.40760767 0.054770947 1777467
1.6824689 0.40982229 0.054748178 1842491
1.6844816 0.41289586 0.053909957 1843007
1.6861178 0.41613847 0.053026915 2171192
1.6610812 0.38689154 0.052785277 8752794
1.6628821 0.38867354 0.052994132 8161688
1.6652685 0.39205688 0.052579939 8621210
1.6672196 0.39445513 0.052639008 8029593
1.6690401 0.3967973 0.052988827 7240610
1.6710827 0.39884424 0.052589834 6121617
1.6727139 0.40114647 0.052579343 4214649
1.6748109 0.40336144 0.053120434 2438999
1.6762462 0.40629303 0.053048193 2503507
1.6783268 0.40844864 0.053182542 2041670
1.6796201 0.41121048 0.052857697 1843776
1.6818501 0.41285521 0.052346885 2435392
1.6839818 0.41608924 0.053622782 1974331
1.6854315 0.41909742 0.052756667 2040376
1.6869124 0.41858268 0.053089917 1974326
1.7166938 0.45583594 0.048091233 1250850
1.6615839 0.39106387 0.052032053 8687257
1.6631677 0.39341068 0.052060425 8621724
1.6648568 0.39565527 0.051782668 8227226
1.6668743 0.39750195 0.05187571 8029595
1.6685246 0.39999282 0.051678836 7371670
1.670435 0.40220588 0.051457822 6384786
1.6721859 0.404984 0.051520944 4872320
1.6741455 0.4070366 0.051564753 3031139
1.6761931 0.40989143 0.051597714 2634838
1.6771996 0.41171879 0.050415337 3160410
1.6795487 0.41456926 0.050483823 3225940
1.6818762 0.41668147 0.051023662 3093837
1.7065942 0.44944102 0.048533738 4013640
1.7100289 0.45311064 0.046798825 4604199
1.711973 0.45460737 0.047296107 4537900
1.661044 0.39417493 0.050419986 8686743
1.6630267 0.39688212 0.050520837 8423831
1.6649985 0.39947432 0.050195992 7897488
1.666769 0.40174836 0.049990475 7963028
1.6689095 0.40398717 0.050618172 7305363
1.6708387 0.40688044 0.048913896 6976917
1.6728538 0.40888649 0.049623549 4740991
1.6738788 0.41096359 0.049150288 4674941
1.6759377 0.4134956 0.049587071 3688045
1.6781727 0.41414416 0.049521625 3489630
1.6996675 0.44574308 0.04684329 3816289
1.7037647 0.44915783 0.047110498 3750725
1.7102087 0.45619625 0.047194421 3683642
1.6611379 0.39828128 0.048640847 9409691
1.6632227 0.40085953 0.048230469 9475740
1.6648586 0.40326113 0.04775399 9015707
1.6664243 0.40514696 0.048581123 8423576
1.6681513 0.40794003 0.048447073 8028825
1.6703935 0.41021192 0.048481882 7305622
1.6717505 0.41188502 0.048500359 7700120
1.6750309 0.41546273 0.049108565 4017011
1.683352 0.42864484 0.04682833 2962511
1.6984727 0.44700158 0.045785606 4473446
1.7009842 0.44887394 0.046216547 3026512
1.7068045 0.45550561 0.042654216 3685440
1.6610818 0.40194404 0.047188938 9738654
1.6630908 0.403826 0.047085702 9278621
1.6640747 0.40666974 0.047675192 8620954
1.6964819 0.44579548 0.043484032 3816023
1.6987182 0.44887829 0.043161988 3684427
1.7043501 0.45396179 0.042086422 3356227
1.6944375 0.44850618 0.041648746 4211789
1.6984291 0.45287973 0.041615963 3618872
1.7001785 0.4551751 0.041866839 3223862
1.7080963 0.36884516 0.092369616 920617
1.7102584 0.37111336 0.092654347 1051181
1.7006733 0.36283439 0.091591597 2171964
1.7027662 0.36499423 0.09197706 2369595
1.7045712 0.36670357 0.092110574 2303035
1.7058884 0.36900234 0.091482937 2565950
1.7079957 0.37214965 0.091691732 1908022
1.709989 0.37388223 0.091396868 1316142
1.7117314 0.37621665 0.091519296 1118507
1.7129191 0.37854266 0.090732992 1513005
1.7151791 0.38120329 0.090734601 1907755
1.7168771 0.38287795 0.09009546 2171182
1.6951439 0.35987121 0.090361297 1056320
1.6970356 0.36194861 0.090343416 1712198
1.6985708 0.36368048 0.090600669 1975105
1.7003587 0.36628109 0.090748072 2632256
1.7024542 0.36841929 0.090322673 3355974
1.704427 0.37091047 0.090278268 3750480
1.7061908 0.37318665 0.090212762 3158852
1.7080605 0.375682 0.090485096 1776694
1.7098942 0.37811518 0.089878619 1579313
1.7117221 0.38019782 0.089898765 1776174
1.7135618 0.38286966 0.089427531 1908010
1.715519 0.38432163 0.088914812 2105387
1.717999 0.38683182 0.089408159 2368309
1.7207694 0.38970888 0.088432789 2500410
1.6911454 0.35827041 0.088829041 6909587
1.6930429 0.360686 0.089253008 4870265
1.6949534 0.36260247 0.088779628 4080490
1.6968625 0.36514658 0.089138448 2171971
1.6984925 0.36784393 0.088688552 2763843
1.7007031 0.36978924 0.088761985 3684934
1.7022117 0.37249833 0.088541687 4671321
1.7040992 0.37460536 0.088199794 4474201
1.7058749 0.37704515 0.088019311 2829635
1.7081749 0.37946373 0.088190317 2105654
1.7094896 0.38193697 0.087649405 2302516
1.7113655 0.38460201 0.087346137 2171185
1.7132486 0.38687962 0.087126672 2368304
1.7152693 0.38868564 0.087388456 2434098
1.7171211 0.39136678 0.086248934 2894389
1.7191248 0.39337111 0.086455882 2829621
1.6885692 0.35791421 0.087408602 5527911
1.6889222 0.35966814 0.088113725 6119543
1.6914274 0.36182934 0.087442338 6315897
1.6932495 0.36446142 0.087590516 4803438
1.6947039 0.36676073 0.087495685 2961748
1.696888 0.36873424 0.087492466 2829894
1.6988066 0.37115359 0.087247193 2763328
1.7001467 0.37397277 0.08746165 3158084
1.7027497 0.37613875 0.0872913 4276307
1.703799 0.37852943 0.086938024 3487564
1.7066925 0.38191003 0.087641895 2632512
1.7099727 0.38540483 0.087101996 2697788
1.7114666 0.38755554 0.087264597 2170924
1.7138543 0.3896867 0.086365938 2302251
1.7158922 0.39223659 0.086228251 2433838
1.7176473 0.39503282 0.086977184 3552823
1.6856217 0.35876209 0.086166799 790807
1.6873317 0.36113375 0.085763991 2369567
1.6889118 0.36336654 0.086285412 4474443
1.6909735 0.36573732 0.085524142 6250361
1.6925404 0.36782461 0.085829079 4541038
1.6949455 0.37053323 0.086031377 2698827
1.6972625 0.37220824 0.086017013 2763842
1.716182 0.39514184 0.082975805 2959670
1.6838944 0.3593393 0.083981454 921114
1.6853664 0.36248988 0.084036291 1052952
1.6870306 0.36489648 0.083827674 3092004
1.6890764 0.36706066 0.084175885 5789532
1.6818528 0.36141497 0.082348287 789778
1.6832119 0.36364222 0.082358062 1052952
1.6850867 0.36617821 0.082100809 1579285
1.6868731 0.36780262 0.083334804 3816225
1.6799309 0.36282653 0.080615819 527118
1.6815622 0.36507565 0.080402076 921880
1.6832123 0.36767679 0.080502033 1776416
1.6784875 0.36449122 0.078720033 592401
1.6795144 0.36666596 0.079082787 987419
1.6811295 0.36888766 0.078487217 1908518
1.6777492 0.3678506 0.077120364 1119003
1.6795278 0.37062353 0.076603949 2105896
1.676387 0.36979282 0.075097144 1250334
1.6773658 0.37192583 0.075183988 2040104
1.6785533 0.37327951 0.07635051 1710885
1.6754076 0.37326699 0.073415697 1316385
1.6775265 0.37500989 0.07348305 2105898
1.674561 0.37471843 0.071477234 1119011
1.6753423 0.37719893 0.071305454 1645344
1.6776323 0.37981945 0.071229339 1579554
1.673636 0.37604576 0.069322288 1381668
1.6740279 0.37840122 0.069332898 855833
1.6738451 0.38189244 0.067063391 724251
1.6779749 0.38615167 0.067416668 1514020
1.6775289 0.38970232 0.067351937 1645104
1.672992 0.38336986 0.065268099 724514
1.673198 0.38469106 0.066333354 790051
1.6773225 0.38898998 0.065848649 1448750
1.6733183 0.38716537 0.063813865 658219
1.6734554 0.38977998 0.064302325 921900
1.674222 0.39333928 0.061771989 658478
1.6801119 0.39893973 0.060657561 1776432
1.6759832 0.4003619 0.05788976 921655
1.6763039 0.40263075 0.059158742 790068
1.6755974 0.40273255 0.05633378 1449025
1.6761794 0.40510255 0.056567609 1119551
1.6776707 0.40807027 0.057374597 856116
1.6749419 0.4047004 0.05508554 1713737
1.674891 0.4073438 0.054494023 1714257
1.6765027 0.40987408 0.055299819 1580360
1.6777339 0.41176301 0.054845512 1316926
1.6804405 0.41387314 0.054364324 1843006
1.6821283 0.41676444 0.054066241 1777203
1.6636999 0.39747339 0.052689731 7964570
1.6658057 0.39995909 0.052706182 7504285
1.6676805 0.40221924 0.052961051 7109020
1.6693332 0.40441436 0.053126216 6187926
1.6716814 0.4056018 0.053348184 3689080
1.6731685 0.40884089 0.052896082 2768226
1.6747187 0.41113949 0.05316025 2372441
1.6765602 0.41315514 0.052743256 2371153
1.6780308 0.41569251 0.053222656 2304591
1.680371 0.41785961 0.052717924 2369863
1.6823819 0.41965538 0.052868903 2435653
1.6838609 0.42173457 0.053352416 1908784
1.707932 0.45343673 0.049479783 4274246
1.6615832 0.39818108 0.052234232 8556448
1.6635737 0.40080196 0.052189529 8030110
1.6655288 0.40284622 0.051919997 7635099
1.6670501 0.40530878 0.051871717 7437208
1.6693476 0.40738553 0.051888525 6582165
1.6710685 0.4098739 0.051719189 5267080
1.6728588 0.41258782 0.051833391 3754609
1.6745698 0.4146716 0.051779687 3358562
1.6761971 0.41682416 0.05138725 3358308
1.6782731 0.41938359 0.05227679 2896468
1.6799458 0.4220134 0.051289916 3489117
1.7032473 0.450351 0.047882318 3684676
1.7046716 0.4525367 0.048585951 5854040
1.7066243 0.45466024 0.04846096 5655890
1.6600745 0.39986455 0.05086273 8884381
1.661727 0.40221375 0.050854683 8358040
1.6634071 0.4040488 0.050818801 8029079
1.665231 0.40659833 0.050566852 7568530
1.66698 0.40945625 0.050528646 7436948
1.6690347 0.41159195 0.050404131 6450576
1.6712071 0.41313571 0.04990083 5530245
1.6727755 0.41596597 0.050127685 4280177
1.6746347 0.41840357 0.050011158 4345968
1.6767335 0.4204095 0.05010289 3555692
1.6769304 0.42343926 0.049325287 3423336
1.6802642 0.42547929 0.050501823 3752033
1.6983333 0.44857877 0.046590686 3619148
1.7007858 0.45103604 0.047377884 3158341
1.7022567 0.45311093 0.048005402 7892838
1.6615217 0.4057889 0.04846698 9015707
1.6632499 0.40791136 0.048982799 8357786
1.6655533 0.41080534 0.048305333 8291992
1.6675764 0.41289777 0.048173487 8357530
1.6691276 0.41521388 0.048627555 7897495
1.6706066 0.41706479 0.048766613 7831960
1.67222 0.41896397 0.048886418 7897755
1.6781075 0.42616969 0.048701346 2764896
1.6794219 0.43074006 0.04670769 1777726
1.6850873 0.43378001 0.04665792 2435394
1.6948931 0.44869173 0.045691311 3816259
1.6970286 0.44974601 0.044829786 3355452
1.6993587 0.45113343 0.045408905 3225159
1.6620955 0.41008216 0.047708988 8752282
1.6639512 0.4117831 0.047989726 8554906
1.6649252 0.41438788 0.047819078 8620700
1.6673862 0.41632384 0.047687888 8554907
1.6804752 0.4343099 0.04570955 1645866
1.6884921 0.44252104 0.04568702 2698814
1.6918199 0.44668615 0.045205534 4211529
1.6936265 0.45089406 0.042730629 3158320
1.6964148 0.45311213 0.042134941 3291198
1.6896449 0.4492631 0.042739689 3422532
1.6909454 0.45028955 0.043810904 2632235
1.6943172 0.45317584 0.042944729 2765105
1.6950786 0.45525682 0.042925179 2698035
1.6971459 0.45570004 0.04171288 2697267
1.7027477 0.3675217 0.093092442 3617872
1.705076 0.37003028 0.093220413 2105126
1.6983067 0.36569721 0.092444718 2040640
1.6996496 0.36750406 0.092971861 3289936
1.7010236 0.37126309 0.092221379 3552084
1.7030393 0.37208736 0.092163503 2894912
1.7050641 0.37467003 0.092043459 2302778
1.7065246 0.3770178 0.091313601 1776692
1.7086568 0.37864923 0.091908514 1512748
1.7103763 0.38178813 0.09110409 1841966
1.7125249 0.38323969 0.090568066 1908013
1.7138966 0.38506079 0.091020167 2104883
1.7151784 0.38784266 0.090490401 2368053
1.7176141 0.39114195 0.089457333 2697273
1.6907347 0.36150879 0.090147436 5002107
1.6935142 0.36414671 0.090835154 2107467
1.6955957 0.36651349 0.091302931 1843524
1.6976411 0.36889768 0.090608418 2040379
1.6991552 0.37120199 0.090912759 2434878
1.7008367 0.37346977 0.091064751 3421261
1.7029762 0.3758145 0.090791762 3289929
1.7047746 0.37795448 0.090712368 2105657
1.7065084 0.38034487 0.090277076 1842481
1.7083273 0.38273901 0.090253055 1974065
1.7107601 0.38536954 0.089975417 2039600
1.7124794 0.38777614 0.090845883 2367797
1.7139585 0.3898257 0.090028703 2368057
1.717509 0.39441043 0.08747071 2764085
1.6880608 0.36171168 0.089187801 5922683
1.689929 0.36363542 0.089444697 5396087
1.6917716 0.36578107 0.089325607 4014440
1.6932225 0.3681035 0.089923322 1909323
1.695317 0.37035578 0.089557588 2171970
1.6972609 0.37229383 0.089251697 2369086
1.6989837 0.37528187 0.089170754 2434620
1.7007047 0.37781477 0.08851999 3027013
1.7027042 0.37951809 0.088560104 2435134
1.7045124 0.38139546 0.088753045 2369083
1.7063496 0.38397014 0.088462114 2303031
1.7078897 0.38594431 0.088329136 2237237
1.7102629 0.38877809 0.088087916 2368306
1.7125924 0.3912611 0.088273585 2565682
1.7145479 0.39365512 0.087512314 3025973
1.7159204 0.39479142 0.087647915 3092533
1.6847374 0.36082339 0.087237895 1054486
1.6862134 0.36241263 0.088284433 4212043
1.6877122 0.36464691 0.087660193 4277323
1.6891916 0.36684978 0.088349521 4738412
1.6913524 0.36924016 0.087341249 3685988
1.6935052 0.3715927 0.087867022 2566985
1.6952586 0.37420106 0.08768481 2895945
1.6973829 0.37595499 0.087523282 2764100
1.698608 0.37880909 0.08766675 2698562
1.7018137 0.38135105 0.087292612 2369339
1.7036688 0.38350642 0.087652981 2632253
1.7045118 0.38589925 0.087831914 2566203
1.7059309 0.39000928 0.086821973 2500412
1.7078725 0.39005226 0.087541759 2565941
1.7107344 0.39262384 0.08645016 2368563
1.7136705 0.3972941 0.08687067 2500146
1.6825165 0.36187553 0.085748792 789788
1.6837577 0.36355722 0.086523652 987923
1.6861362 0.36594284 0.08627671 3093045
1.6874703 0.36875886 0.086191714 4935262
1.6890796 0.37048584 0.086313665 5659004
1.6913048 0.3733781 0.086187541 2634075
1.6930277 0.37478918 0.086605966 2633551
1.6961355 0.37859869 0.086748958 3027273
1.6805609 0.3637917 0.084527194 723731
1.6825825 0.3654663 0.084446728 855317
1.6840446 0.36719018 0.084727824 1447706
1.6858585 0.36966145 0.084303916 4210741
1.6874681 0.37161136 0.085322917 5395567
1.6792761 0.36498398 0.082889676 592143
1.6803749 0.36668801 0.082696855 855571
1.682058 0.36871356 0.082892716 1250331
1.6835601 0.37120825 0.083050549 2171414
1.6784494 0.36548185 0.080671847 461068
1.6782756 0.36755985 0.081263363 658707
1.6801037 0.37042397 0.08073467 1513761
1.6812804 0.37263864 0.081574798 1579039
1.6763749 0.36969197 0.079324186 855833
1.6782254 0.37199509 0.078875184 1711398
1.6791773 0.37401474 0.079671443 2237484
1.6751273 0.37125689 0.077495039 1052952
1.6756425 0.37323344 0.077533603 1645605
1.6775784 0.37558031 0.077207267 2303277
1.674578 0.37445778 0.07543993 1514025
1.6754427 0.37642843 0.07503593 2040103
1.6781782 0.37983811 0.074405015 1776677
1.673594 0.37612367 0.073927522 1184543
1.6740885 0.37842667 0.073599041 1448231
1.6780392 0.38306147 0.071419895 1711140
1.6736724 0.38158804 0.071134508 790295
1.6766695 0.38484269 0.072127521 1645607
1.6731474 0.38382763 0.070069849 724505
1.6779078 0.39149684 0.068019331 1776941
1.6732867 0.38616043 0.067863286 724764
1.6738995 0.38858086 0.068547904 2371138
1.6735617 0.39121383 0.066424191 790565
1.6744804 0.39552987 0.063046634 724518
1.6752131 0.39863604 0.063612759 724516
1.6784256 0.40697163 0.061114252 856354
1.6781019 0.41405433 0.056358993 1119293
1.6807983 0.41746855 0.057134688 987439
1.6843348 0.42231804 0.055132866 2171699
1.6751598 0.41359776 0.054837286 1910604
1.6771145 0.41676724 0.055275381 1843786
1.6786839 0.41903162 0.055473745 1382203
1.6813086 0.42164904 0.054701328 1909568
1.6824098 0.42391372 0.055126607 2238013
1.6638923 0.40457338 0.052974164 7438243
1.6664639 0.40759671 0.053160846 7174556
1.6696885 0.410541 0.053248644 5398149
1.6717957 0.41342038 0.053711355 3029860
1.6738783 0.41586918 0.052668631 2898530
1.6752303 0.41809338 0.053458333 2503258
1.6770778 0.4206574 0.053592265 2436173
1.6788169 0.42278665 0.05373168 2567243
1.6810566 0.42690033 0.054096639 1711664
1.6828265 0.42700422 0.053771198 1908529
1.6848748 0.42997754 0.052816093 2435388
1.6856315 0.43214959 0.053123057 2500925
1.6876155 0.43501091 0.052565813 2303024
1.6902932 0.43712372 0.052839994 2040115
1.6917279 0.44088334 0.051579952 2960949
1.6601962 0.40317714 0.052582204 8095905
1.6620026 0.4055863 0.052597344 7766946
1.6639096 0.40765041 0.052344024 7635104
1.6662004 0.41025037 0.052216351 7503774
1.66816 0.41260737 0.052101552 7437723
1.6701444 0.41474009 0.051721632 6122382
1.6716411 0.41744244 0.051826417 4872575
1.6734318 0.41936582 0.052359641 3688046
1.6748109 0.42159069 0.05209595 3555946
1.6770692 0.42395985 0.050972998 4213102
1.6792612 0.42820168 0.05055356 4344681
1.6812859 0.42846394 0.049911797 3488858
1.681875 0.43045825 0.050342619 3686233
1.6828573 0.43323326 0.049963653 3883093
1.6890731 0.43863893 0.051511228 1974322
1.6903063 0.44160134 0.051175356 2171949
1.6975579 0.44980764 0.04797405 3224392
1.6995828 0.45268136 0.04874897 6643566
1.7019405 0.45466936 0.049436271 9536896
1.6603305 0.40657127 0.051130772 8095128
1.6617973 0.40899199 0.050860465 7765912
1.663923 0.41151738 0.050977409 7437207
1.6662581 0.41411036 0.050886571 7371672
1.6677938 0.41676062 0.050739229 7569048
1.6697534 0.41875935 0.050775468 6648208
1.6716735 0.42091089 0.050545037 6582157
1.6732105 0.42228287 0.04992497 6055809
1.6750875 0.42569768 0.049650967 5200250
1.6766982 0.4286406 0.049659669 4870772
1.6801622 0.43068302 0.050531149 4541541
1.6812876 0.43383002 0.049789965 4869728
1.6838411 0.43578678 0.050075471 3487824
1.6841903 0.43760431 0.04895997 3684941
1.6926527 0.44685709 0.048775136 3817032
1.69345 0.44917637 0.048903823 6184834
1.6955013 0.45106977 0.048097432 5921136
1.6972247 0.45427877 0.047718704 9143177
1.6990421 0.45623559 0.048755467 11181196
1.6618726 0.41311836 0.048888505 8225946
1.6636064 0.41563511 0.048252523 8357531
1.665472 0.41788691 0.04845649 8226202
1.6677265 0.4198367 0.048454404 8489115
1.6695251 0.42255479 0.048525989 8226205
1.6709459 0.424389 0.048810542 8094876
1.6732817 0.42724431 0.048952699 6647434
1.676636 0.43140733 0.048288405 4607341
1.6782827 0.43361384 0.047358215 3620440
1.6799606 0.43628347 0.046980321 2961481
1.6821759 0.43988413 0.045921147 1711663
1.6857209 0.44090635 0.0477373 3159619
1.6870363 0.44425905 0.046619833 3619660
1.6885335 0.44588345 0.046615779 4408660
1.6899624 0.44892091 0.046516895 5790071
1.6924722 0.45057708 0.046890795 6316919
1.694293 0.4538607 0.046840966 8748690
1.6600103 0.41472071 0.047597706 8686493
1.6615398 0.41674393 0.047916472 8620445
1.6640626 0.41805685 0.047462761 8554908
1.6648599 0.42037594 0.047591388 8489114
1.6676952 0.42390782 0.047976553 8554652
1.6805645 0.44039655 0.045892894 3553875
1.6820724 0.44235653 0.046223879 2173241
1.6847568 0.44486165 0.045799077 2633527
1.6867445 0.44819206 0.044689715 3620160
1.687937 0.45116687 0.044074237 3487297
1.6891226 0.45233637 0.044381738 3027006
1.691355 0.45437127 0.04457438 2895414
1.6851306 0.44882983 0.044595838 3093573
1.6939408 0.36766297 0.092525065 1448508
1.6968446 0.37099171 0.092926979 1448241
1.6980264 0.37363094 0.091976464 2303554
1.6996353 0.37513185 0.092379808 1514286
1.7013563 0.37665987 0.092267215 1711411
1.7037703 0.37936294 0.092844307 1908012
1.7052655 0.38161498 0.092057407 1973806
1.7073053 0.38362026 0.091490149 1974324
1.7085319 0.38664001 0.091873109 2170936
1.7109172 0.38799715 0.090869188 2302518
1.712296 0.39065313 0.092024505 2499893
1.6888798 0.36573207 0.090961814 3621491
1.6908376 0.36660928 0.091596663 1778768
1.6917487 0.36965126 0.091323316 2436184
1.6939651 0.37179178 0.091058075 1909057
1.6962748 0.37393385 0.091401577 1974844
1.6974187 0.37619281 0.091605783 2106173
1.6994581 0.37825638 0.091717303 2105913
1.7015672 0.3808924 0.091163814 2040118
1.7033975 0.38294715 0.090505302 2105400
1.7057168 0.38646328 0.090309441 2105650
1.7078075 0.38871163 0.089530766 2039859
1.7099059 0.39009953 0.091109395 2171191
1.7104437 0.39275664 0.089516997 2763060
1.6845896 0.36386919 0.088788271 3752510
1.6866827 0.36573738 0.089866638 4804721
1.6881198 0.36831516 0.089994371 4344178
1.6901774 0.37059999 0.090040147 2699100
1.6920012 0.37268621 0.089999199 2106957
1.6941156 0.37549305 0.090022743 2238277
1.6959682 0.37787974 0.089130819 2632519
1.697504 0.37989056 0.089288235 2632515
1.6994443 0.38221598 0.089107215 2566721
1.7012658 0.38396406 0.089073122 2566464
1.7027297 0.38641924 0.088979363 2435134
1.7048792 0.38919294 0.088522255 2369080
1.7071456 0.39149535 0.088659167 2434611
1.7091117 0.39269471 0.089336812 2631219
1.7111021 0.39846766 0.087225854 2500397
1.6835232 0.36529207 0.089054286 3159864
1.684926 0.36772209 0.087856114 3422268
1.6864783 0.36956853 0.088593423 4541033
1.6885951 0.37187624 0.088527143 3686252
1.6897509 0.37412882 0.088617146 2831201
1.6923507 0.37664032 0.088232815 2698830
1.6943007 0.37918097 0.088415921 2961482
1.6957994 0.38119227 0.088113904 2895944
1.6971608 0.38293278 0.088935792 3092807
1.6994874 0.3859629 0.088586271 2763841
1.7020019 0.38793367 0.088341653 2368825
1.7035751 0.39084244 0.088347137 2434873
1.7053237 0.39286143 0.087715685 2171696
1.7080567 0.39605057 0.085776031 2303535
1.7089994 0.39861619 0.085608184 2435124
1.6808488 0.36651397 0.086840153 789529
1.6826978 0.36882657 0.086803079 1711391
1.6844032 0.37111616 0.086635649 3488069
1.686515 0.37338752 0.087146759 5001846
1.6882505 0.37553018 0.086167991 4081531
1.6898122 0.37790048 0.086568773 2503266
1.6921532 0.37965357 0.086423218 2896466
1.6936009 0.38203067 0.086840928 3093583
1.67939 0.36830521 0.085107863 723987
1.6807728 0.36987257 0.084948599 986903
1.6821029 0.37267274 0.08513093 1974049
1.6844637 0.37409592 0.084721863 4671568
1.6859176 0.37685913 0.085947275 5265031
1.6774027 0.36954826 0.083346307 592402
1.6787004 0.3716315 0.083350778 1118748
1.6804272 0.37357783 0.083278596 1447711
1.6818483 0.37647897 0.083577812 2829609
1.6758208 0.37105823 0.081415594 724246
1.6770904 0.37280977 0.081639946 1250591
1.6784428 0.37554997 0.081362307 1645350
1.6742628 0.37223244 0.08014977 723988
1.6749165 0.37435156 0.079915106 1185310
1.676924 0.37716931 0.079992712 1908779
1.6780018 0.3781203 0.080578148 1381668
1.6739256 0.37601465 0.07793355 1448228
1.6745303 0.37803614 0.077669501 2238003
1.6770442 0.3789342 0.07774967 1842730
1.671648 0.3775146 0.076615512 1513773
1.6733921 0.37989265 0.075842083 1580068
1.6750237 0.3820225 0.075796306 1579555
1.6716919 0.38190001 0.074012458 1053723
1.6730278 0.38347125 0.073862672 658707
1.6728848 0.38439059 0.072016597 658708
1.6724033 0.38785493 0.071255863 856092
1.6720436 0.39065355 0.070591092 790558
1.6819971 0.421956 0.058033407 1316652
1.6803751 0.42283791 0.056806982 1184313
1.6802356 0.42478198 0.056483686 1053236
1.683117 0.42735934 0.056569755 1973543
1.6845295 0.42834532 0.055655777 1447985
1.6760753 0.42151994 0.054682672 2371153
1.6781514 0.42389441 0.055199265 2370123
1.6788867 0.42578256 0.05547303 2896725
1.6811779 0.42891771 0.055008113 2172223
1.6848801 0.43334383 0.054286778 2171957
1.6637789 0.41013312 0.053378403 7437984
1.666162 0.41309565 0.053303778 7569312
1.6684878 0.4157294 0.053366244 7108504
1.6700995 0.41830117 0.053565919 5726857
1.6722448 0.42102051 0.053265035 4476790
1.6740755 0.42301798 0.053338587 3621997
1.6758587 0.42564237 0.053567827 3424359
1.678164 0.42768496 0.053995669 3094617
1.6791155 0.43021607 0.054096758 3620701
1.6814353 0.43257153 0.053933203 3554646
1.6825869 0.43565559 0.053489506 3883101
1.6853642 0.43831611 0.052253306 3816528
1.6869518 0.43783838 0.052501082 2500152
1.6885731 0.4418323 0.051224053 1711917
1.6999044 0.45618826 0.050510943 10589573
1.6605457 0.41018587 0.053042233 7635366
1.6624291 0.41343856 0.052362025 7700640
1.6647159 0.41514677 0.05247277 7635104
1.666749 0.4177497 0.052326143 7569568
1.6686031 0.42044824 0.0520311 7766690
1.6701863 0.42229086 0.052086413 6648468
1.6719851 0.42440015 0.052206933 5529732
1.6734247 0.42723101 0.052425146 4740220
1.6757798 0.42949754 0.052821457 5528962
1.6770732 0.43160421 0.052034318 4476268
1.6789494 0.4333806 0.052066863 5593973
1.6833212 0.43921632 0.051661313 5528440
1.6857133 0.4417727 0.051674902 4936050
1.6861484 0.44527268 0.050871253 7501727
1.688874 0.44502002 0.050819695 4343907
1.6904666 0.44884956 0.049611211 7040664
1.692472 0.4516418 0.049226642 8815523
1.6961966 0.45511371 0.049717724 10326924
1.6605077 0.41379458 0.051482022 7700379
1.6626632 0.41667211 0.051177084 7568795
1.664445 0.41907686 0.051138818 7437467
1.6662248 0.42127454 0.051145196 7503259
1.668016 0.42358357 0.051078022 7568795
1.6700628 0.426126 0.051433623 7305623
1.6720228 0.42880559 0.050492764 7108242
1.6736538 0.43079013 0.050127327 6318471
1.6751963 0.43375373 0.048959553 7634074
1.6775153 0.43525535 0.049223423 6317694
1.6794591 0.43715346 0.049952984 6778235
1.6805494 0.44024181 0.049786568 7436172
1.6827257 0.44363302 0.048938572 7633289
1.684792 0.44397956 0.048151314 5330530
1.6864923 0.44749987 0.04916662 7435925
1.6897409 0.45213497 0.048556387 9539234
1.6923813 0.45396799 0.048884511 8288893
1.6606715 0.41769892 0.049667835 7568280
1.6625905 0.42040378 0.048965156 8028826
1.6645627 0.42265075 0.048781097 8226203
1.6659758 0.42497998 0.049194455 8291997
1.6681501 0.42662001 0.048716187 8555167
1.6700058 0.42940903 0.048584521 8489375
1.6720694 0.43229681 0.048684537 8423585
1.6734407 0.43463802 0.048503816 7962778
1.675135 0.436912 0.048588932 7765143
1.6773903 0.43920732 0.048211515 7173005
1.6795743 0.44217438 0.047188699 5988726
1.6808989 0.44419616 0.049015462 8554662
1.6830348 0.4460091 0.047138214 5725296
1.6848511 0.44967437 0.04789263 9079975
1.6863537 0.45056403 0.046639383 4999522
1.687655 0.45213658 0.047305405 9408160
1.6901071 0.45563507 0.046993911 4999004
1.6607993 0.42198271 0.048132539 8489117
1.662004 0.42434698 0.048064053 8686238
1.66418 0.42644954 0.047981858 8554653
1.666218 0.43056238 0.047626793 8489375
1.6681037 0.43105322 0.047730625 8489117
1.6702372 0.43360656 0.04810369 8620962
1.6717296 0.43642884 0.047795355 8423329
1.6776018 0.44249099 0.047562182 7633811
1.6797791 0.44597876 0.046289027 6778240
1.6814198 0.44831377 0.046187937 6448758
1.6829481 0.45008093 0.045845807 5264226
1.685058 0.45189905 0.045528352 5263203
1.6865971 0.45466363 0.045818627 5460327
1.7039979 0.38306576 0.093450904 1908268
1.7044835 0.38489771 0.094032824 1645349
1.6913362 0.37132806 0.092709124 1711687
1.6939087 0.37473804 0.092948377 1843009
1.6959162 0.37725323 0.093177259 1908792
1.6980546 0.37951469 0.093107522 1974323
1.6999996 0.3819145 0.093354642 1842994
1.7016892 0.38423055 0.093352914 2040110
1.6875863 0.37019455 0.091525972 2700650
1.6889396 0.37195665 0.092729151 1515087
1.690958 0.37411475 0.091679931 2041426
1.6926551 0.37649924 0.091996968 2238279
1.6946495 0.378914 0.092165709 2303553
1.6965926 0.38154519 0.091818869 2303039
1.6983273 0.38332486 0.092330515 2303291
1.7000984 0.38618368 0.091167748 2237754
1.7019612 0.38857502 0.091749549 2106163
1.7043887 0.39038062 0.090330064 1908531
1.7061462 0.39324307 0.090545058 2303020
1.7066736 0.39505094 0.090368748 2302760
1.6836597 0.36848509 0.090164363 4345451
1.6852083 0.37075913 0.090331554 4411003
1.6870459 0.37313908 0.090548694 3752310
1.688825 0.37571603 0.090616822 2304344
1.6905544 0.37780827 0.090340316 2369870
1.6924493 0.38037241 0.09036237 2435142
1.6946295 0.38251323 0.089920521 2500932
1.6968741 0.38540041 0.089515388 2566466
1.6984684 0.3871581 0.089889348 2434882
1.7001448 0.38985479 0.089029491 2500671
1.7023664 0.3919034 0.088958621 2500667
1.7036316 0.39449871 0.089204907 1711146
1.6817079 0.36984563 0.089085996 2765365
1.6831471 0.37236708 0.088931739 4080989
1.6849368 0.37455446 0.088874042 4672885
1.6866834 0.37686998 0.08916527 3423343
1.6887131 0.37930423 0.089165807 2632786
1.6904132 0.38191491 0.088517368 2896210
1.692111 0.38360459 0.088315189 2829899
1.6946057 0.38603264 0.088100612 3093066
1.6958489 0.38853753 0.088861465 2631999
1.6982524 0.39152372 0.087866962 3092545
1.6999388 0.39299423 0.088704646 2895168
1.7016811 0.39559394 0.088952065 1842229
1.6792668 0.37130952 0.087318003 987417
1.6812871 0.37384605 0.087258577 2304052
1.683404 0.37598401 0.087342799 4541286
1.6844829 0.37819219 0.087417126 5199235
1.6869175 0.38081831 0.087303817 3686775
1.6891837 0.383048 0.086815596 2765398
1.691075 0.38587022 0.087355018 3290191
1.6922865 0.38764048 0.087995112 3355980
1.6761039 0.37156755 0.0841434 592403
1.6774065 0.37265092 0.085534692 723733
1.6793909 0.3751027 0.085529089 986906
1.6808481 0.37724823 0.08622545 2698801
1.6829431 0.37955463 0.085413039 5593207
1.6844691 0.38210118 0.086443126 4936068
1.688074 0.38609987 0.08582443 2633808
1.6903667 0.3874712 0.085764527 3158605
1.6748077 0.37253857 0.083302498 658195
1.6759822 0.37455374 0.083827615 855576
1.6772788 0.37682295 0.08389312 855577
1.6791109 0.3788498 0.083603561 1448220
1.6799194 0.38063449 0.084235549 3027491
1.674027 0.37544149 0.082201123 921368
1.6752378 0.37820083 0.082012773 1119015
