# .PCD v0.7 - Point Cloud Data file format
VERSION 0.7
FIELDS x y z rgba
SIZE 4 4 4 4
TYPE F F F U
COUNT 1 1 1 1
WIDTH 1170
HEIGHT 1
VIEWPOINT 0 0 0 1 0 0 0
POINTS 1170
DATA ascii
1.7310693 0.28589416 0.011565864 5262918
1.7263668 0.28335351 0.009591043 2763293
1.7276618 0.28512079 0.0098030567 2039318
1.7284575 0.28733033 0.010482371 591877
1.7242138 0.28444481 0.0079313517 1842191
1.7257693 0.28653759 0.0077688694 1446673
1.7221005 0.28562546 0.0061439276 1974289
1.7232738 0.28707361 0.0065159798 1512465
1.7195542 0.28526753 0.003862977 6712895
1.7201624 0.28652847 0.0040733814 3684649
1.7168639 0.28604889 0.0021370649 9539704
1.7181238 0.28798306 0.0023885369 6250310
1.7189634 0.29076225 0.0021241903 2105372
1.7143284 0.28720731 0.00075340271 9276276
1.7160437 0.28919113 0.00044500828 9012591
1.7175419 0.29145348 0.0003503561 6512723
1.7651882 0.29806966 0.026055217 1315085
1.7660336 0.29907697 0.026803672 1315594
1.7614193 0.29707837 0.023569882 2566431
1.7631696 0.29878908 0.024307013 1776150
1.7642934 0.30097818 0.024409652 1052684
1.7650819 0.30304003 0.024735332 789254
1.7550604 0.29336286 0.023153901 3223850
1.757057 0.29515493 0.023206592 2960425
1.7592809 0.29713553 0.023248076 2565922
1.7606065 0.29940706 0.02327013 2105372
1.7629406 0.3017953 0.022665262 986640
1.7644534 0.30526555 0.022529721 592139
1.7492959 0.29070407 0.02236402 3553069
1.751229 0.29198527 0.022269785 3420976
1.7533292 0.29395479 0.022533536 3158063
1.7553548 0.2961244 0.02201277 2829099
1.757668 0.29821515 0.022203505 2236964
1.7599181 0.30057776 0.022219181 1381403
1.7434428 0.28672957 0.021269143 4474180
1.7458303 0.28872871 0.021155477 4079164
1.7478039 0.29065561 0.021075964 3750458
1.7492127 0.29284883 0.020907879 3552827
1.7516851 0.29425782 0.020807266 3223602
1.7399378 0.28543389 0.01969409 5592398
1.7419307 0.28729439 0.020177186 5460817
1.7437686 0.28972769 0.019589484 4869203
1.745942 0.29162914 0.019951761 3948100
1.7362151 0.2843315 0.018332243 5987151
1.7381172 0.28641278 0.018682718 6118745
1.7400179 0.28863555 0.018194318 6118505
1.7417431 0.2901631 0.0188241 5461359
1.7333975 0.28387308 0.016997993 7697514
1.7344398 0.2852239 0.016500711 7368551
1.7358899 0.28749156 0.016742468 8092027
1.7373961 0.28898579 0.017189384 9868452
1.7304538 0.28458339 0.015580654 7303263
1.732513 0.28677511 0.015103459 7565410
1.7337387 0.28847146 0.015362859 8288622
1.7277004 0.28381938 0.013004243 4737334
1.7287421 0.28594679 0.013248026 3355431
1.7303218 0.28747261 0.013770461 3354919
1.7319436 0.28918892 0.01429081 4604988
1.7254099 0.28476644 0.01177299 2697753
1.7266563 0.28682482 0.011797369 1907989
1.7281332 0.28874803 0.011934996 1052172
1.7234359 0.2863434 0.010007918 2434329
1.7242038 0.28774559 0.010210991 1775891
1.7257431 0.28942055 0.010287583 1315086
1.7211981 0.28740889 0.008269608 1776657
1.7226162 0.28918087 0.0083752871 1446673
1.7193434 0.28848177 0.0063087344 1580049
1.7202516 0.2900039 0.0061141253 1380878
1.7173808 0.28976363 0.0044238567 4014382
1.7186117 0.29197162 0.0044187307 855057
1.7134252 0.28879017 0.0018390417 9737336
1.715256 0.29105544 0.002491653 7895652
1.7165873 0.29284906 0.0024985075 2960673
1.7093843 0.28764361 0.00086426735 8356456
1.711374 0.28986353 0.00090813637 9408117
1.7131662 0.29211962 0.00076246262 9671031
1.7148783 0.29420358 0.00031352043 7763040
1.7073483 0.28855205 2.4080276e-05 8882542
1.7649572 0.30034488 0.026687264 1249554
1.7614639 0.29970771 0.025251269 2500381
1.763217 0.30190545 0.02631706 1776150
1.7649751 0.30401975 0.026580572 1118219
1.7659926 0.30651426 0.025630355 854790
1.7561548 0.29710484 0.024925947 3092268
1.7576977 0.29923761 0.025424421 2894888
1.7598376 0.30111277 0.025270343 2302752
1.7616458 0.30294526 0.02489531 1512983
1.7629199 0.30538023 0.024559021 855053
1.7650595 0.30768389 0.024171829 526342
1.7486669 0.29227036 0.024025738 3816247
1.750375 0.29363137 0.024157524 3684403
1.7521868 0.2953127 0.024416208 3487027
1.7541306 0.29741704 0.024451017 3157806
1.756041 0.29978514 0.023809314 2631466
1.7581892 0.30207616 0.023723841 1512991
1.7601223 0.30453354 0.023985326 1183769
1.7443651 0.29022259 0.023050785 4868683
1.7464342 0.29222405 0.023562431 4276799
1.7482643 0.29445022 0.023141801 3816255
1.7503738 0.29638475 0.023012519 3421242
1.7521813 0.29845446 0.023375452 3026487
1.7393415 0.28763628 0.021224141 6053207
1.7406685 0.28890479 0.022119761 5987161
1.7424269 0.29113644 0.022030473 6250340
1.744589 0.29325598 0.021703124 4737885
1.7462263 0.29483372 0.022474527 4079696
1.7356627 0.2862981 0.020140171 7500394
1.7370753 0.28833634 0.020846665 7829366
1.7387998 0.29018342 0.020246387 7236727
1.740696 0.29202825 0.020516336 6579580
1.7422094 0.29418558 0.021620989 5593482
1.7333878 0.28691578 0.018973947 9211265
1.7350448 0.2894389 0.018883467 9144446
1.7367573 0.29103327 0.01909852 10657951
1.7293897 0.28633678 0.016552269 5264444
1.7312317 0.28802389 0.017291009 7040091
1.7328775 0.29021102 0.017080426 5854023
1.7347066 0.29207933 0.017940879 9603967
1.7273386 0.28736502 0.015344501 2698260
1.7293659 0.28934562 0.015424728 2368537
1.7306272 0.29125869 0.015333056 788999
1.7255634 0.28869075 0.013330936 2039572
1.7271068 0.29041266 0.014030039 1578768
1.7284129 0.29248029 0.014325142 1183505
1.7221961 0.28793705 0.011554956 2828827
1.7234333 0.28960794 0.012000561 1841939
1.7249706 0.29158008 0.011987865 1381135
1.7201165 0.28910279 0.010010004 2631706
1.7213194 0.2904101 0.010269821 1644561
1.722904 0.29217291 0.010277629 1052171
1.7186589 0.29000908 0.0080489516 1842962
1.7191136 0.2917254 0.008441925 1315855
1.7205255 0.29363978 0.0085382462 1183757
1.7168314 0.29137915 0.0063947439 1975833
1.7171144 0.29305071 0.0061954856 1185043
1.7184196 0.29651356 0.0056656599 1315349
1.7146044 0.29245782 0.0042750239 5265989
1.7152214 0.29440224 0.0042572618 3093547
1.7172606 0.29730153 0.0046918392 1118229
1.7101843 0.29135573 0.0017094612 9473660
1.7122095 0.2938329 0.0023745298 9342841
1.713528 0.29575562 0.0026813745 6777946
1.7058783 0.29012227 0.0011042356 9079922
1.7080523 0.29277891 0.0011755228 9408117
1.7101548 0.29499513 0.00053656101 9934204
1.7117109 0.29714143 0.00074362755 9276792
1.7126935 0.29977822 0.00028377771 7566183
1.7023213 0.28944135 0.00045257807 10131583
1.7625251 0.30434126 0.027881742 2039829
1.7640266 0.30596519 0.02881217 1579024
1.7657158 0.30849516 0.027574301 1315085
1.7670773 0.31116128 0.028371096 1183756
1.7551603 0.29902345 0.026613235 3421233
1.7562093 0.30048025 0.0267874 3092269
1.7584176 0.30270362 0.026964426 2631974
1.7601093 0.30497313 0.027402639 2039581
1.7622926 0.30707514 0.026517987 1184018
1.7639847 0.30945891 0.026415229 789257
1.7658434 0.31106758 0.026893973 657414
1.7491997 0.2951473 0.025690794 3947832
1.7504925 0.29702431 0.026103854 3816249
1.7528489 0.29890192 0.0264889 3421236
1.7547359 0.30147898 0.026342154 2960684
1.7564642 0.30375665 0.02617681 2236966
1.7587132 0.30611849 0.025550842 1315609
1.760875 0.30788618 0.025663197 920850
1.7448034 0.29399586 0.025029421 5000783
1.7470115 0.29601121 0.025368392 4474441
1.7490743 0.29828513 0.02519685 3750718
1.7509655 0.30042058 0.024891257 3289657
1.7527016 0.30227119 0.025279522 2697008
1.7394831 0.29089898 0.02377069 7105902
1.7412508 0.29289681 0.024032891 6579562
1.7431254 0.29496896 0.023861289 6119023
1.7451127 0.29698491 0.024101079 4540767
1.7472191 0.2985478 0.024132371 3554123
1.7374519 0.29172003 0.022466898 9605264
1.739339 0.29383707 0.022327185 8947855
1.741292 0.29600078 0.022798181 6711947
1.734525 0.290447 0.020648003 9605505
1.735163 0.29274994 0.020765781 9012084
1.7369568 0.29446995 0.021642327 11446948
1.7305272 0.29006159 0.01842612 4277548
1.732008 0.2920773 0.018957675 4276015
1.7333274 0.29376304 0.019496679 4604214
1.7347986 0.29556894 0.020608425 7563875
1.7285647 0.29134953 0.016765177 1974035
1.7295655 0.29289126 0.017687559 1776145
1.731214 0.29420686 0.018006861 460291
1.7247264 0.29052019 0.014612317 2697493
1.7260966 0.29238588 0.015682638 1776144
1.7277229 0.29406846 0.016286433 1841684
1.7226412 0.29149789 0.013330936 1973779
1.7236969 0.29326737 0.014299273 1579023
1.7255138 0.29454213 0.014154315 986120
1.7205786 0.29280889 0.012077689 1710353
1.7216623 0.29444784 0.012314856 1381390
1.7232089 0.29607999 0.013692856 854790
1.7183392 0.29135412 0.010176182 2763294
1.7183228 0.29352993 0.010275066 1907988
1.7197516 0.29574764 0.010544658 1184269
1.7156792 0.29295027 0.0074918866 1712908
1.7166575 0.29492009 0.0085160732 1316367
1.7177835 0.29683411 0.0086357594 1052428
1.7146128 0.29626113 0.0064518452 1318937
1.7151883 0.29809189 0.0064368248 592654
1.7179042 0.29954028 0.0055137873 1249053
1.7132494 0.29757154 0.0043531656 4345152
1.7134724 0.29945266 0.0045896769 2107689
1.7086833 0.29638672 0.0019376874 10132352
1.7111561 0.29866493 0.0024728179 8817016
1.7120824 0.30070984 0.0025094748 6120285
1.7153127 0.30299246 0.0017898083 330260
1.7010676 0.29030621 0.0015466213 10197387
1.7032762 0.29306614 0.0011875629 9539965
1.7046779 0.29506475 0.0008957386 9013615
1.7065814 0.29738367 0.0012944937 9934207
1.7084031 0.29989684 0.00073730946 9999999
1.7103932 0.30213314 0.00063627958 9145212
1.711922 0.30420536 0.00052726269 6908785
1.7028862 0.29667604 0.00013655424 9013873
1.7625978 0.3077231 0.029789031 1908499
1.7633214 0.30927444 0.030443907 1842200
1.7658364 0.31176728 0.02892369 1183758
1.7570844 0.30441391 0.028684497 2960938
1.7590351 0.30647749 0.029025793 2368801
1.7605579 0.30863881 0.028970659 1907994
1.762717 0.31120545 0.028536677 1250061
1.7645164 0.31277633 0.028507292 723464
1.7666372 0.31527096 0.02729094 723460
1.7679297 0.31759399 0.027567148 723206
1.749756 0.29914063 0.02783072 3948349
1.7512109 0.30106902 0.028263509 3684663
1.753396 0.30295533 0.028312683 3289649
1.7553118 0.30514932 0.028416455 2829097
1.7570369 0.30751508 0.027969718 1776158
1.7595339 0.30964369 0.027664661 1250069
1.761149 0.31142712 0.027633905 855311
1.7437711 0.29605281 0.026798904 5329746
1.7456739 0.29775488 0.027199686 5001040
1.7475841 0.29967695 0.027393281 4277574
1.7496941 0.30199742 0.026824236 3487289
1.7516396 0.30405658 0.026645184 2763060
1.7538102 0.30597538 0.026908159 2170664
1.7398849 0.29490596 0.025965929 8158591
1.7420381 0.29636437 0.025862098 6711410
1.743645 0.29864377 0.026129186 5856881
1.74599 0.30047429 0.025598645 4081247
1.7480893 0.30331337 0.02654165 3224381
1.7364894 0.29373986 0.02408427 10132115
1.7381729 0.29546219 0.024470329 10526107
1.7397602 0.29742312 0.024687588 10132131
1.7418008 0.29918593 0.024314523 7304860
1.734515 0.29475206 0.022681713 7696218
1.73594 0.29630369 0.022892833 9472381
1.7374263 0.29790187 0.023090899 12631225
1.7305466 0.29396373 0.019769788 2434828
1.7322969 0.29551673 0.021077931 2894361
1.7338144 0.29740995 0.021426737 2235420
1.7290897 0.2948882 0.018908799 1710351
1.7300467 0.29645205 0.019650698 1644560
1.7316 0.29818851 0.020388484 723209
1.7251019 0.29449797 0.016924083 1052425
1.7264603 0.29555482 0.01761204 1710351
1.727808 0.29747015 0.018061101 1644303
1.7233261 0.29510564 0.015827477 1644559
1.7243532 0.29681122 0.016245604 1447437
1.7199624 0.29414982 0.013504922 2434325
1.7209682 0.29607481 0.014216185 1579023
1.7220781 0.29810351 0.01453352 1381645
1.7178495 0.2957775 0.012353778 2171410
1.7189529 0.2973119 0.012338758 1513232
1.7200739 0.29897702 0.012496769 1250060
1.7158489 0.29650146 0.010251701 1776913
1.7169008 0.2987287 0.010350108 1447440
1.7188102 0.30054373 0.010451019 723463
1.7140863 0.29756033 0.0086039305 1648141
1.7150946 0.29969364 0.0085084438 1119248
1.7161951 0.30174315 0.0087585449 986892
1.7124178 0.2992146 0.0064448118 2111267
1.7132092 0.30141503 0.0066413879 924952
1.713899 0.30347961 0.0065659285 462095
1.7117083 0.30249339 0.0042463541 4674383
1.7122769 0.30441731 0.0045130253 1714481
1.708092 0.30210555 0.0014407635 9802370
1.7096215 0.30363405 0.0021999478 9408642
1.7110713 0.30610013 0.0023269653 6515053
1.7121426 0.307675 0.0036776066 399414
1.7035719 0.30022651 0.0010516644 9737085
1.7054901 0.30258822 0.00063991547 10197381
1.7075806 0.30473864 0.00073587894 10000258
1.7090573 0.30696303 0.00062060356 9408385
1.7102711 0.30927396 0.00085771084 8355967
1.763721 0.3112936 0.03074193 1841943
1.7652464 0.31388122 0.031374335 1117962
1.7666515 0.31525034 0.030155301 854280
1.7575526 0.30793947 0.030590355 2763556
1.7597401 0.31000352 0.030879736 2302749
1.7616017 0.31249815 0.030382991 1710614
1.7638178 0.31440669 0.030687332 1447438
1.7652056 0.31691581 0.029811978 1052427
1.7669995 0.31979215 0.029191136 723207
1.7683372 0.32153994 0.029851794 854790
1.7498434 0.30172068 0.029436588 3948605
1.7516627 0.30467105 0.03005594 3487284
1.7541177 0.30680114 0.030033112 3026475
1.7561312 0.30874461 0.030030489 2368547
1.7577732 0.31141257 0.029350877 1512986
1.7598438 0.31331563 0.029468358 1250067
1.7616459 0.31559157 0.029430091 723724
1.7637545 0.31793499 0.029283822 723465
1.7656786 0.31930691 0.028873205 788743
1.7446488 0.29982036 0.028805852 5659232
1.7466598 0.30139881 0.02910465 4672590
1.7483222 0.30343866 0.028923512 3882560
1.7501335 0.30560249 0.028945148 3223862
1.7521691 0.30749732 0.028751433 2499628
1.7544119 0.31003875 0.028918028 1578784
1.7406068 0.29814422 0.027780235 8553352
1.7424337 0.30019319 0.028122127 6778235
1.7444532 0.30227035 0.02762866 4739690
1.7463338 0.30431092 0.027439117 3357260
1.7482185 0.30599439 0.028171539 3092287
1.7368271 0.29716158 0.02631247 10132117
1.7385027 0.29894191 0.02639538 10723484
1.7406085 0.30133206 0.026478112 9935529
1.7422726 0.30286157 0.026706219 4676494
1.7338574 0.29650217 0.0243572 9210462
1.7349558 0.29829836 0.024684131 7169360
1.7366174 0.30025929 0.02505064 10064260
1.7387457 0.30114138 0.025296628 13092550
1.7315471 0.29746664 0.022695065 2105098
1.7327909 0.29910314 0.023198366 2630935
1.734694 0.30092889 0.023398638 3155755
1.7278585 0.29682636 0.020342112 2105106
1.7291877 0.29840386 0.021230102 1775888
1.7306519 0.30017048 0.021465659 1710355
1.7324266 0.30171686 0.022654653 526091
1.7259051 0.29766899 0.019344032 1710351
1.727083 0.2994712 0.01974082 1512973
1.7282544 0.30142683 0.020253956 920583
1.7219896 0.29699141 0.016769111 2302998
1.7236362 0.29870385 0.017770946 1513229
1.7249756 0.30062079 0.018164396 1250059
1.7201288 0.29843998 0.015736759 1842450
1.7216377 0.300008 0.016125143 1381644
1.7227775 0.3016752 0.01670599 986888
1.7181046 0.29878217 0.014319837 2039828
1.7195711 0.30085611 0.014208317 1250060
1.7202575 0.30336398 0.014514565 1250060
1.7161565 0.30013072 0.012484789 1973780
1.7176588 0.30227995 0.012257874 1316110
1.7185497 0.30455923 0.012442946 855561
1.7143942 0.30131102 0.0099279881 1842964
1.7157843 0.30343527 0.010328174 1250578
1.7166991 0.30576617 0.010313809 657928
1.7126977 0.30304104 0.0082061887 927247
1.7138162 0.30462325 0.0084764957 1054481
1.7150829 0.30757427 0.0083749294 592140
1.7113686 0.30361998 0.0060157776 2243123
1.7121787 0.30625933 0.0063076019 1320743
1.7129562 0.30811363 0.0065860748 463125
1.7105492 0.30708492 0.004290998 5398364
1.7115498 0.30964857 0.003934741 3490641
1.712155 0.31157476 0.0049747229 1322574
1.708703 0.30830568 0.0022382736 9605766
1.7099102 0.31100118 0.0023240447 7633268
1.7107759 0.31324321 0.002045095 6055026
1.7059907 0.30991071 0.00041747093 10066310
1.7078598 0.31220746 0.00028705597 9671555
1.7090718 0.31455934 0.00023078918 8882564
1.7106707 0.31644607 0.00075542927 6712702
1.7657117 0.3171224 0.032564938 1776648
1.7658522 0.31965178 0.033771276 1710350
1.7584639 0.31162465 0.031639099 2565920
1.7602522 0.3141796 0.032089591 2236955
1.762149 0.31627691 0.032199144 1842197
1.7638266 0.3187167 0.032569826 1710353
1.7661278 0.32062453 0.031385362 986634
1.7676076 0.32319701 0.030736208 657670
1.7695187 0.325288 0.030237198 723206
1.7705858 0.32829016 0.030691385 526086
1.7511036 0.30645072 0.03114301 3619125
1.7521644 0.30859095 0.031901121 3223855
1.7546098 0.31052631 0.03167069 2697510
1.7564166 0.31283343 0.031767845 2105376
1.7585802 0.31491977 0.031390786 1710361
1.7599378 0.3172133 0.031276047 1184018
1.7621678 0.31955367 0.030640841 723723
1.7642717 0.32178676 0.030588329 657926
1.766113 0.3244102 0.030418217 789256
1.7681274 0.32641739 0.030451 789255
1.7701716 0.32870984 0.029168725 854793
1.744647 0.30286002 0.030624628 5264985
1.7467523 0.30516189 0.030947685 4409419
1.7488002 0.30718988 0.031140447 3619128
1.7508087 0.30953526 0.030524433 2631469
1.7529441 0.31166643 0.030812621 2434343
1.7550077 0.31351286 0.030400991 1249562
1.756639 0.31695724 0.030957818 986132
1.7395928 0.29979801 0.029034019 9474192
1.7411487 0.30196047 0.029717267 8093318
1.7431277 0.30384618 0.029993832 6120305
1.7452718 0.30580878 0.029708147 4343889
1.7465212 0.30779463 0.029602826 3224636
1.7357153 0.29917645 0.027369678 10132111
1.7376237 0.30075622 0.028062105 10526619
1.7392018 0.30260253 0.028767228 10855589
1.7409744 0.30493551 0.028097689 8029599
1.7431016 0.30690312 0.028551102 3295595
1.7335808 0.29998744 0.027267814 7565396
1.7355385 0.30191934 0.02685374 7958609
1.7375102 0.30414188 0.026868463 12104625
1.730148 0.29898483 0.023936391 2632214
1.7317742 0.30101442 0.024948478 1775883
1.7333269 0.30300927 0.025437236 2630678
1.7347696 0.30512142 0.026127338 4997166
1.7282765 0.30023587 0.023065329 2039317
1.7295787 0.30191237 0.023421884 1907474
1.7308903 0.3039571 0.023444116 1315344
1.7239708 0.30049318 0.021295071 2302739
1.7264495 0.30108827 0.021591127 1710351
1.7273253 0.30338395 0.021913052 1512718
1.7292056 0.30444711 0.022217393 986377
1.7226604 0.30031204 0.019055843 1645071
1.7240317 0.30239481 0.019988239 1381644
1.7252891 0.30439585 0.020185113 1118474
1.7209506 0.30160868 0.017562985 1513228
1.7219033 0.30338877 0.018033385 1381644
1.7229097 0.30546737 0.018020213 987146
1.7189555 0.30227721 0.016258121 1842447
1.7200983 0.3049466 0.016259789 1381644
1.7213596 0.30704796 0.016240776 592391
1.7172147 0.30344403 0.014034271 1776657
1.7182801 0.30620593 0.014063776 1447438
1.7191336 0.30827343 0.014595747 1052683
1.7155238 0.30529785 0.01190865 1710866
1.7163731 0.30720186 0.011864305 1513232
1.7174753 0.30962336 0.012394667 1249805
1.7137604 0.30634832 0.010089576 1909268
1.7145969 0.30856293 0.010243654 1448210
1.7154741 0.31100684 0.010352671 1381905
1.7173017 0.31311506 0.010550618 854794
1.7118926 0.30766618 0.0083011389 795660
1.7127072 0.30972588 0.0083216429 792593
1.7139337 0.31243616 0.0082278252 790290
1.7155631 0.31376684 0.0084551573 855056
1.7113327 0.31106442 0.0061187744 1649448
1.7121689 0.31322271 0.0061146021 1319207
1.7134242 0.3156029 0.0063729286 527641
1.7095622 0.31296659 0.0036518574 7239534
1.7111104 0.31472945 0.0040181875 4344915
1.7116181 0.31713343 0.0042043924 3029316
1.7065258 0.3136676 0.0012586117 10000778
1.7088612 0.31597298 0.0016095638 8948608
1.7102098 0.3184334 0.0019545555 8027772
1.7119331 0.32013357 0.003000021 3424076
1.7082217 0.31962192 0.00034177303 9408899
1.7099569 0.32153499 0.00020301342 8948618
1.7604756 0.31745595 0.033208013 2171162
1.7622381 0.32011479 0.033752561 2105366
1.7643464 0.32171047 0.033511996 1776145
1.7661099 0.32456636 0.033298969 1513230
1.7673756 0.32615972 0.032836556 986636
1.7521741 0.31049323 0.032771647 3421487
1.7530363 0.31205601 0.033242702 2829094
1.7552141 0.31447095 0.033170044 2302497
1.757025 0.31669986 0.033151865 1907741
1.7587512 0.31898582 0.033223331 1710616
1.7610114 0.32082486 0.032434225 1447442
1.762578 0.32353222 0.032410979 1184270
1.7646514 0.32563168 0.032079041 1052683
1.7666216 0.32798326 0.031681478 591878
1.7689419 0.33022428 0.031331301 657670
1.7704216 0.33257198 0.031110168 855047
1.7714853 0.3343308 0.03096348 723208
1.7456491 0.30710268 0.032423675 4541511
1.7474834 0.30877864 0.03282392 3948350
1.7495346 0.31095314 0.032809615 3289647
1.7515202 0.313115 0.032743514 2368294
1.7531486 0.31518871 0.032724023 2039331
1.7549365 0.31766146 0.032352149 1446940
1.7576923 0.31949145 0.031665504 789263
1.75922 0.32218623 0.032053232 658189
1.7612834 0.32535392 0.031951725 592136
1.7401063 0.30430323 0.031631172 9079695
1.7419142 0.30569339 0.031601846 6646903
1.7435995 0.3074128 0.031747222 5198938
1.7458136 0.30971229 0.031670868 3750974
1.7473865 0.3117038 0.031246006 2630960
1.7489829 0.31340182 0.031639814 2104617
1.7364463 0.3022837 0.029768229 10132121
1.7381101 0.30459523 0.03017211 10986915
1.7398388 0.30642807 0.030637562 9540255
1.741802 0.30880356 0.030429363 4345199
1.7433438 0.31065619 0.030823469 3160901
1.7328696 0.30187523 0.028488278 6577205
1.7341729 0.30370766 0.028561831 7301187
1.735797 0.30530584 0.028864682 9011560
1.7381015 0.30740118 0.028647721 12696775
1.7394092 0.3093136 0.029993832 10329278
1.7308925 0.30295384 0.027356029 2171146
1.732233 0.30463004 0.027074158 2104587
1.7340069 0.30645508 0.02733624 5130037
1.7285674 0.30385816 0.025183082 1776145
1.7302223 0.30590701 0.025445342 1644817
1.7315271 0.30790836 0.025905252 526086
1.7250791 0.30343604 0.023310065 1776143
1.726609 0.30502236 0.023822665 1381645
1.727854 0.30674392 0.023772418 1447182
1.723222 0.30394089 0.021529317 1644813
1.7245598 0.30620414 0.021884203 1381646
1.7256402 0.30815345 0.022111118 789767
1.7213781 0.30540448 0.019742072 1513228
1.7225306 0.30732477 0.019931138 1381647
1.7241768 0.3090325 0.02033627 657927
1.7199357 0.30644536 0.017499983 1645071
1.7205682 0.30861169 0.017907619 1447439
1.7222549 0.31083071 0.01829195 723722
1.7177949 0.30790591 0.015727997 2040079
1.7189889 0.31015205 0.016068697 1513230
1.72015 0.31181777 0.016246915 1184270
1.7161293 0.30923754 0.013979435 2105618
1.7173495 0.31122512 0.013814449 1579022
1.7184677 0.31352997 0.014118969 1315854
1.7137076 0.31039006 0.011389256 2237464
1.7153041 0.31271785 0.011818528 1645074
1.7166951 0.31471562 0.012211919 1447441
1.7178235 0.31662649 0.012090862 1315599
1.7132626 0.31347811 0.0098622441 1777940
1.7146857 0.31569827 0.0097955465 1316627
1.7160652 0.31840032 0.00979954 1052944
1.7122209 0.31440842 0.008253932 858906
1.7130015 0.31739879 0.0075396299 989213
1.7142587 0.31946647 0.0077397823 921878
1.715486 0.32186276 0.0082197189 790030
1.711611 0.31824887 0.0058977008 2173995
1.7128195 0.32069105 0.0057178736 1450029
1.7142832 0.32265806 0.0063567162 132374
1.7104648 0.31988961 0.0036143661 7304813
1.7114403 0.32210648 0.003806293 5594455
1.7125058 0.3245669 0.0031881332 4673877
1.7139144 0.3257606 0.0043874383 791591
1.7093165 0.32299989 0.0013703108 9211778
1.7109025 0.32527983 0.0015645027 8356985
1.712436 0.32816523 0.001532793 6975855
1.7671208 0.32807839 0.034899831 1711122
1.7526983 0.3144114 0.034347415 3224106
1.7538826 0.31561995 0.03449595 2763047
1.7554224 0.31818563 0.034489751 2236960
1.757624 0.32043254 0.034384429 1907738
1.7590454 0.32244062 0.034358978 1579028
1.7612828 0.32483965 0.03382951 1513233
1.7636002 0.32703036 0.033800125 1579281
1.7651021 0.32948583 0.033023417 1184013
1.7669265 0.3319667 0.032489002 1249804
1.7685889 0.33369416 0.032390237 1052424
1.7705395 0.33649904 0.031693697 920585
1.7467759 0.31052119 0.033885479 4014138
1.7480422 0.31286162 0.034733534 3552818
1.7499849 0.31466496 0.034421921 2894635
1.7520483 0.31683344 0.034395039 2236963
1.7541121 0.31918168 0.034191191 1973790
1.7560394 0.32143247 0.033874035 1513240
1.7578394 0.32347262 0.033470929 1250066
1.7597852 0.32622766 0.033075988 1315856
1.7618598 0.32823467 0.032779574 921099
1.7636037 0.33038437 0.03289628 855305
1.7653695 0.33245599 0.032657743 1052427
1.7676858 0.33542174 0.03211695 1249804
1.76965 0.33721793 0.031475186 788997
1.7713327 0.34000742 0.031404316 1051916
1.740479 0.30670434 0.032832503 7172475
1.7426312 0.30947816 0.033123493 5330783
1.7443783 0.31144363 0.033686399 4211524
1.7466019 0.31348568 0.033505321 3157810
1.7479856 0.31601989 0.032825232 2038570
1.7503681 0.31756127 0.032819986 1512737
1.7521499 0.32007605 0.033381104 1710621
1.736652 0.30572063 0.032182336 10132121
1.7387474 0.30825847 0.032081723 10066078
1.7406113 0.31017119 0.032463908 6251639
1.7423671 0.31246024 0.031714082 3094337
1.7443618 0.31408149 0.031943381 2763059
1.7336185 0.30580175 0.030781269 9539172
1.7351166 0.30735189 0.030461192 8616800
1.7364675 0.30925876 0.031052768 10195860
1.7386606 0.31153864 0.031113923 8486825
1.7313452 0.30628604 0.028931797 2104842
1.7326102 0.30824953 0.02904129 3419932
1.7345836 0.31006652 0.029274225 6642518
1.727762 0.30530208 0.02709806 2500121
1.7291772 0.30730796 0.0272879 1513229
1.7305052 0.3094185 0.027333379 1250058
1.7321424 0.31126523 0.028427839 658181
1.7256887 0.30643195 0.025747478 1974033
1.7270396 0.30854183 0.02562952 1447438
1.7284486 0.31062913 0.025709212 1052425
1.723835 0.30766571 0.023678303 1513231
1.7252495 0.30984813 0.02373755 1513231
1.7263997 0.31152421 0.024138033 657927
1.722181 0.30922478 0.021969676 1513488
1.7230966 0.31095737 0.021662235 1381903
1.7244666 0.31299323 0.022279978 657929
1.7200736 0.31008959 0.019597173 1776656
1.721293 0.31239182 0.019885659 1513232
1.7222276 0.31444663 0.020016074 789258
1.7181183 0.31162387 0.017452598 2105874
1.7197657 0.31361425 0.017882824 1579025
1.7201943 0.31587911 0.017640471 1513233
1.7182539 0.31499666 0.015758753 1644814
1.7190461 0.3174265 0.015581965 1579024
1.7158587 0.31613028 0.01309675 2237206
1.7174799 0.31822926 0.013477623 1645073
1.7184027 0.32077551 0.0133093 1512977
1.7145116 0.3175804 0.010923028 1909016
1.7160736 0.31975734 0.011910319 1513745
1.7170148 0.32203871 0.011220813 1184785
1.7180554 0.32365674 0.011814058 1513233
1.7133188 0.3186307 0.01015538 1975065
1.7139732 0.32090956 0.0091558695 1120022
1.7154769 0.32297641 0.0095594525 1250838
1.7163267 0.32578516 0.0096135139 1119253
1.713433 0.32244343 0.0070716143 1777690
1.713816 0.32414204 0.007055521 1317920
1.7153102 0.32718647 0.0072908998 725015
1.716265 0.32942736 0.0071645379 199195
1.7169389 0.33165735 0.0066212416 331799
1.7120166 0.3233673 0.0056644082 2371367
1.7120457 0.32570821 0.0044622421 5594705
1.71387 0.32796186 0.0051379204 2765106
1.7150055 0.33056355 0.0047447085 2831672
1.7159059 0.33249152 0.0043002963 1252653
1.7104468 0.32709277 0.0023423433 9278336
1.7124856 0.32942325 0.002640903 6383454
1.7135017 0.33156937 0.00225842 6317921
1.7149495 0.33421713 0.0024220943 5660251
1.716466 0.3367368 0.0025759935 5067853
1.7182869 0.33829087 0.0026623011 2370860
1.7196301 0.34075207 0.0017533302 1976104
1.7221076 0.34283656 0.0018005371 2304034
1.7243439 0.34559083 0.00081074238 3025954
1.7115608 0.3327353 0.00080478191 9212037
1.7130342 0.33542174 0.00075757504 8948870
1.7146474 0.33766937 0.0007584095 7633264
1.7189069 0.34290034 0.00013947487 5067847
1.7563219 0.32260859 0.036081553 2303004
1.7603863 0.32605547 0.03534776 2105620
1.7620697 0.32876444 0.035197377 1974290
1.7644801 0.33118623 0.034986377 2105365
1.7702861 0.33794534 0.033345103 1841682
1.7469699 0.31382167 0.035974264 3816241
1.7487416 0.31648093 0.035956144 3223856
1.7508092 0.31881124 0.035740793 3487025
1.7524071 0.32073981 0.035746813 2894888
1.7544284 0.32308745 0.035539985 1710621
1.7566013 0.32541877 0.03502661 1512982
1.7581714 0.32760447 0.034842074 1447443
1.7600931 0.3298099 0.034429729 1250319
1.76196 0.33238393 0.033710301 1184268
1.7640591 0.33446896 0.033484817 1052682
1.7660427 0.33672833 0.032908976 1315596
1.7679987 0.33884257 0.032939136 1315340
1.7696178 0.3415724 0.032420933 1512718
1.7709794 0.34288573 0.031903982 1446419
1.741852 0.31114757 0.034680068 4740436
1.7432001 0.31319505 0.034995675 4343363
1.7449949 0.31534183 0.035201073 3486772
1.7471554 0.31770033 0.035299003 2960432
1.7489095 0.32002884 0.034866095 3158324
1.7509294 0.32189244 0.034824967 2960682
1.7529416 0.32377708 0.034404278 1512479
1.7544627 0.32640308 0.034841895 1184034
1.7564598 0.32888824 0.034046292 1381401
1.7582762 0.33094454 0.03380245 657678
1.7601625 0.33361745 0.033658683 1315857
1.7622458 0.33559066 0.033091664 1381134
1.7642269 0.3383795 0.033058524 1315340
1.766818 0.34029925 0.031867087 1907476
1.7375007 0.30982041 0.033107698 10197152
1.7392719 0.31200486 0.033824503 7172221
1.7411517 0.31402373 0.034332514 4278352
1.7427979 0.31629133 0.034075916 3158324
1.7449186 0.31818354 0.03352356 2169900
1.7463763 0.32098931 0.034398496 3026743
1.7337446 0.308837 0.032178044 9868147
1.7355254 0.31114459 0.032434165 9275264
1.7371573 0.31310457 0.032967091 9210265
1.739177 0.31467509 0.032809615 4672104
1.7410109 0.3172965 0.033231735 2631731
1.730633 0.30831951 0.029889166 1579012
1.7319964 0.31010383 0.03072691 3485459
1.7331756 0.31188029 0.031313419 6445629
1.7346816 0.31402093 0.03124547 7103596
1.728595 0.30916607 0.028681755 1776399
1.7295523 0.31100589 0.029379606 1315849
1.7310308 0.31320703 0.029379725 1447175
1.7261944 0.31026554 0.027080774 1381900
1.727356 0.31218946 0.027771711 1644815
1.7289159 0.3146022 0.027690768 723206
1.7245984 0.31127727 0.025554597 1447694
1.7253513 0.31361091 0.025755525 1316110
1.7270777 0.31501615 0.02660805 657926
1.7223983 0.3126899 0.024006426 1579280
1.7234854 0.31469578 0.023638427 1381904
1.7250838 0.31611377 0.024957955 592393
1.7207991 0.31399238 0.021687269 1842195
1.7219692 0.31624705 0.021698475 1579282
1.7225397 0.31829637 0.02217716 1184527
1.7191091 0.31591016 0.019582033 2237207
1.7204274 0.31727535 0.019880772 1710865
1.7211972 0.31958663 0.019867718 1579281
1.7188301 0.31887329 0.016961575 1842450
1.7196649 0.3209604 0.017569661 1842196
1.7205858 0.3227852 0.017918706 2039829
1.7177262 0.32015473 0.015630782 2171665
1.7181001 0.32222211 0.015552104 1974035
1.7193193 0.32412249 0.015401125 1710866
1.7195452 0.3270734 0.015058875 1711128
1.7167252 0.32358664 0.013302445 1842708
1.7182263 0.32550508 0.012820721 1513235
1.71889 0.32870322 0.013067782 1974291
1.7144451 0.32436663 0.010754943 1843732
1.7163725 0.32658255 0.01113832 1646102
1.7178046 0.32880676 0.011187315 1711127
1.7194473 0.33057624 0.010734558 1777432
1.7200804 0.33402866 0.010957003 1384986
1.7145228 0.32771528 0.0095398426 1580569
1.7161626 0.33068669 0.0087126493 1383192
1.7180493 0.33295101 0.0079945326 1252122
1.7193279 0.33527833 0.007281661 1383455
1.720289 0.33666945 0.0076339245 1713182
1.7147323 0.33136225 0.0064598322 2238757
1.7156692 0.33402491 0.0058891773 2436136
1.7171533 0.33661091 0.005957365 1910310
1.7195594 0.3385942 0.0049940348 1254700
1.7208207 0.34160876 0.0047132969 1252897
1.7137699 0.33294463 0.0042461753 5396805
1.7147036 0.33477038 0.0041142106 5923415
1.7156842 0.3374899 0.0035389066 5528660
1.7171328 0.34028727 0.0032429695 5462611
1.7197299 0.34230709 0.0022830367 1977906
1.7215376 0.34418505 0.0022827387 1582624
1.7236841 0.34643024 0.0014528632 2435876
1.7249645 0.34935731 0.0017468929 2830115
1.7258512 0.35172975 0.0017603636 2764058
1.727649 0.35351545 0.0017486215 3487008
1.7131011 0.33616418 0.0020301342 8949369
1.7141638 0.33908063 0.0012598038 8619900
1.7160349 0.34114015 0.0013633966 7765108
1.7173384 0.34337515 0.00084650517 7304557
1.7191045 0.34554756 0.00062340498 5266276
1.721257 0.34808707 0.00055408478 2832953
1.7232455 0.35029072 0.00062441826 2173218
1.7482774 0.31836081 0.037325382 4342584
1.7498565 0.32073784 0.036671281 4473913
1.7510139 0.32262582 0.036823988 2830381
1.7529843 0.32452989 0.036861181 1974557
1.7548509 0.32696277 0.036460161 1842204
1.7571242 0.32923937 0.035781145 1578773
1.7591144 0.33173585 0.035745323 1579278
1.7608254 0.33407265 0.035479009 1841936
1.7620869 0.33450311 0.035429835 2170899
1.7644768 0.33844048 0.034306347 1578767
1.7662723 0.34041971 0.033902645 1446927
1.7676638 0.34246576 0.033402145 1775891
1.7693417 0.34462839 0.033836603 2038807
1.7435689 0.31654865 0.036692977 3816497
1.7455142 0.31899536 0.036719263 4079165
1.7474794 0.3212387 0.036656737 4144953
1.7492965 0.32352352 0.036433518 3158575
1.7513094 0.32578373 0.036148787 2369068
1.753171 0.32824504 0.035954475 1776671
1.7550409 0.33038807 0.035505652 1381399
1.7570386 0.33259398 0.035215497 1315602
1.7591628 0.33514237 0.034511507 1315598
1.7609829 0.33720011 0.03398633 1315597
1.7626457 0.3395074 0.033966184 1578511
1.7645667 0.34167433 0.033602953 1841683
1.7661133 0.34383136 0.033158422 1907475
1.767664 0.34618181 0.032167792 1906961
1.7379904 0.31410819 0.035116971 8291211
1.739758 0.31580961 0.035543978 4409421
1.7416561 0.31785643 0.035842299 3684665
1.743711 0.32017124 0.035824955 3947067
1.7456024 0.32245994 0.035564542 4079161
1.7474346 0.32476914 0.035971105 3618609
1.7491875 0.32682228 0.036023736 4341833
1.7347268 0.3132661 0.033966959 9144447
1.73612 0.31480181 0.034259319 8815752
1.7377059 0.31677932 0.034678638 6184812
1.7394116 0.31921804 0.034331262 2697781
1.742085 0.32036513 0.034087241 2498860
1.7427783 0.32297212 0.03463155 3617849
1.7326841 0.31390727 0.032642722 6051385
1.7339041 0.31585652 0.033118069 7564903
1.7355442 0.31781864 0.033276975 7105143
1.7291858 0.31290251 0.030550599 1184006
1.7302723 0.31480771 0.031385183 2499595
1.7318478 0.31638432 0.031068921 3485466
1.7268814 0.31441963 0.029384553 1381644
1.7279334 0.31593221 0.029583216 1513227
1.7298479 0.31829172 0.029878616 855045
1.7232312 0.31349874 0.026669562 1974289
1.7246318 0.31525892 0.027597547 1381648
1.7258053 0.31743324 0.027521372 1315853
1.7226706 0.31651258 0.025676608 1645333
1.7241064 0.31844246 0.025773406 1118736
1.720674 0.31547624 0.023662746 2237204
1.7207947 0.31784278 0.023509383 1908754
1.7223444 0.31982034 0.023939908 1579284
1.7194755 0.31957895 0.021230936 2434837
1.7206678 0.32094246 0.021668553 1974295
1.7210381 0.32368863 0.021861076 2039833
1.7192452 0.32274407 0.019762397 2303002
1.719964 0.32475448 0.01949358 2237210
1.7188945 0.32358891 0.017491341 2039578
1.7186444 0.3258037 0.017242908 2171674
1.7199019 0.32805485 0.016868711 2237465
1.720371 0.33059192 0.016537726 2434327
1.7170539 0.32665485 0.01484251 2369044
1.7185986 0.32940048 0.014986098 2303002
1.7194633 0.33180338 0.014702916 2237210
1.7160704 0.33041781 0.011762738 2041374
1.7184067 0.3329348 0.012372971 2237722
1.7186847 0.3353442 0.011818349 2434588
1.7167192 0.33365792 0.010149479 2105882
1.7186542 0.33640528 0.011373162 2698014
1.71997 0.33841962 0.011136711 2763806
1.7170553 0.33686984 0.0088838935 2040604
1.7182229 0.33965647 0.0082666278 2172444
1.720089 0.34286141 0.007314682 2501916
1.7222967 0.34399861 0.0072979331 3093020
1.7167282 0.33905554 0.0059058666 2040605
1.7175202 0.34119791 0.0054206848 2370852
1.7181134 0.34291744 0.0051317215 3292716
1.7193147 0.34583694 0.0044711828 2371614
1.7219467 0.34721172 0.0042095184 2436125
1.7250603 0.35091567 0.0034290552 2895644
1.7249115 0.35228848 0.0041676164 2566685
1.7165955 0.34435338 0.0026385188 8159601
1.7178994 0.34648246 0.0022546053 6252638
1.7202685 0.34922141 0.0020332336 3029548
1.7223219 0.35183847 0.0018666983 2370583
1.7238549 0.3544606 0.0015648603 2567195
1.7260597 0.35663742 0.0015416145 2895393
1.7275674 0.35835898 0.0025088787 3027229
1.7311337 0.36252987 9.4175339e-05 2763813
1.716398 0.34837127 0.00056600571 8817030
1.7187012 0.3508355 0.00051438808 6252908
1.7205992 0.35308796 0.00023543835 3425094
1.72189 0.35533553 0.0004196167 2635056
1.7559569 0.33095014 0.03770417 2171159
1.7574103 0.33305681 0.037155271 2105618
1.7427737 0.3188315 0.037859023 5197633
1.7436813 0.32003337 0.038515985 5592648
1.7461271 0.3228575 0.037908196 4999746
1.7478547 0.32516694 0.037900448 5196878
1.7498153 0.32753873 0.037595868 4079417
1.7517662 0.32943684 0.037090063 2171420
1.7536247 0.331554 0.03685236 1578771
1.7551836 0.33389133 0.03649199 1381138
1.7572644 0.33640873 0.036141455 1447184
1.7593644 0.33858711 0.035516322 1644305
1.7608589 0.34120858 0.035064697 1512718
1.7626836 0.34317112 0.034559369 1775891
1.7651706 0.34544069 0.034119964 2368024
1.766279 0.34768194 0.034468353 2499609
1.7387393 0.31806654 0.037587404 4803915
1.7403433 0.31949329 0.037501395 4210488
1.7423666 0.3218174 0.0373106 4538940
1.7443082 0.32398605 0.037196755 4407605
1.7460866 0.32630503 0.037061572 5591118
1.7482152 0.32831448 0.036641955 4802121
1.7502067 0.33105463 0.036525488 2631712
1.7516921 0.33286417 0.036339879 1447184
1.75362 0.33515561 0.035907328 1381394
1.7559135 0.33743894 0.035191357 1447185
1.7575182 0.33983022 0.035016656 1578768
1.7597307 0.3421855 0.03450048 1644305
1.7612879 0.34448624 0.034167171 2039060
1.763329 0.34659767 0.033885896 1973012
1.764563 0.34857804 0.033162355 1709587
1.7349656 0.31645399 0.035636902 10197914
1.7365222 0.31828761 0.036316276 5921633
1.7382767 0.3203271 0.036205173 3553340
1.7402464 0.32256025 0.036137521 3618358
1.7424361 0.32516569 0.035857975 2894378
1.7443426 0.32682073 0.036248207 4538936
1.7535852 0.33894646 0.034710109 1052176
1.7317061 0.31580889 0.033413351 7301173
1.7330797 0.31776321 0.034607828 7170399
1.7346559 0.31964093 0.034926534 7105389
1.7368708 0.32221305 0.035076976 3157816
1.7391847 0.32448202 0.035175323 2169639
1.7294848 0.31684244 0.032634318 2104840
1.730794 0.31842923 0.033168972 4275489
1.7326369 0.32033992 0.033418655 6052190
1.7276087 0.31762832 0.031318665 1579018
1.7283301 0.32009 0.031336188 1512970
1.7307647 0.32128114 0.03248167 3683612
1.7243849 0.31701356 0.0289101 1645072
1.7252082 0.3188194 0.029689074 1513232
1.7262535 0.32081258 0.029617071 1250061
1.722373 0.31814736 0.027380288 1776919
1.7233399 0.32006234 0.02771306 1579285
1.7240701 0.3221128 0.027634501 1118737
1.7212696 0.32116461 0.025751472 2237722
1.7226859 0.32341701 0.025801122 1381656
1.7197332 0.32293546 0.024079561 2698013
1.7210187 0.3248418 0.023797214 2105629
1.719136 0.32334512 0.021621943 2303009
1.7198976 0.32625318 0.021290421 2566430
1.7199129 0.32866329 0.02120471 2631715
1.7194375 0.3293407 0.019335985 2631709
1.7202737 0.33116722 0.019280314 2631966
1.7180262 0.3307057 0.017643809 2960923
1.719595 0.33324611 0.016903877 2434844
1.7194991 0.33654785 0.0146029 2764060
1.7207913 0.33877128 0.014084339 2829594
1.7190664 0.34019387 0.012077451 2566173
1.7204033 0.34178305 0.013221264 2698011
1.7205079 0.34422457 0.010497749 2632226
1.72284 0.35085118 0.0092176795 2435353
1.7256188 0.35931271 0.0019698739 3158562
1.7187729 0.35422015 0.0011399984 5069399
1.7209427 0.35662788 0.0016829371 3358769
1.7226915 0.35948098 0.001493454 2896931
1.724937 0.36119545 0.0013386011 2961444
1.72618 0.36400819 0.0012304783 2961444
1.7284414 0.36678344 0.00059390068 2961698
1.7187456 0.35791606 0.00039601326 5266531
1.7523425 0.33370739 0.038149714 2171417
1.7562051 0.33841765 0.037666857 2368276
1.7584949 0.34109437 0.036493838 1446928
1.7628746 0.34651399 0.036503077 2433309
1.7641817 0.34963387 0.036532164 2894622
1.7388856 0.32122737 0.039046049 4671541
1.7405803 0.32388091 0.039004385 3421983
1.742727 0.32546216 0.038376629 3551527
1.7448733 0.32807726 0.038334429 4998462
1.7466637 0.33007711 0.038251519 3881011
1.7482511 0.33212417 0.038114905 2302234
1.7504686 0.33438921 0.037296653 1644562
1.7525048 0.3368035 0.037105322 1579026
1.7540476 0.33906907 0.036611676 1644561
1.7561963 0.34149545 0.036128759 1907730
1.758018 0.34419543 0.035794795 1710353
1.7600389 0.34610802 0.035448313 2104597
1.7618188 0.34834599 0.034962416 2302231
1.7633893 0.34988755 0.035255432 2763292
1.7639403 0.35277057 0.034613132 2105120
1.7349973 0.31993687 0.038230479 6382686
1.7371349 0.32203144 0.038072586 3421233
1.7389971 0.32454133 0.037664175 2828581
1.7408847 0.32654244 0.037614703 2499615
1.7430637 0.32905084 0.037397206 2499361
1.7448738 0.33153534 0.037072301 2762533
1.7469206 0.33335197 0.037120342 1775895
1.7488883 0.33586228 0.037178636 1907992
1.7504299 0.33806878 0.03630507 1512724
1.7524519 0.34051424 0.035902977 1250065
1.7546335 0.34253919 0.035622537 1447441
1.7561495 0.34459704 0.035494566 1315598
1.7582753 0.34684712 0.034863532 1973780
1.7605917 0.34969801 0.03471601 2433817
1.7621746 0.35086286 0.033731043 1907476
1.7316557 0.31980228 0.03639853 7959920
1.7333176 0.32104647 0.036519647 5921109
1.7352788 0.32319766 0.036470473 3947840
1.7370769 0.32571578 0.036387265 2631725
1.7391992 0.3281455 0.036627829 2302497
1.7407639 0.32981586 0.037087679 2171165
1.7498403 0.34071541 0.035263538 1184021
1.7298834 0.32016218 0.034753323 4078114
1.7314184 0.32239997 0.034917593 5591623
1.7332771 0.32446551 0.035295129 5460822
1.7350417 0.32668149 0.035552382 2104618
1.7268569 0.31941926 0.032534957 2040070
1.727806 0.3213504 0.033099413 1841418
1.7291617 0.32371223 0.033522129 3354650
1.7244693 0.32078195 0.031268001 1579023
1.7256954 0.32283467 0.031451702 1250064
1.7269456 0.32463849 0.031745076 1578508
1.7225974 0.32188398 0.029477298 1710874
1.7238536 0.32401425 0.02968955 1513238
1.7248393 0.32596719 0.030422449 657670
1.7207063 0.32315278 0.027957678 2632482
1.7219688 0.32528394 0.027717233 2105885
1.7226052 0.32705581 0.028344035 1447702
1.7202961 0.32618898 0.025995255 2829858
1.7208912 0.32829148 0.025473714 2368800
1.7185789 0.32807475 0.024896979 3355935
1.7199514 0.32968938 0.023536861 2697507
1.7185619 0.33104092 0.022092819 2960927
1.7196286 0.33337432 0.020779431 2697760
1.7193356 0.33500361 0.018756688 2698013
1.719521 0.33756286 0.018999338 2829343
1.7205293 0.34225553 0.014967918 2764063
1.7201928 0.34405571 0.013205528 2698271
1.7213701 0.34603238 0.012849092 2763809
1.7236823 0.35221314 0.0097329617 2435357
1.7290835 0.37019753 0.0023452044 2830115
1.7200069 0.36230284 0.00093078613 3096637
1.721859 0.36442316 0.0010840297 2898223
1.7236217 0.36641181 0.0010668039 3093546
1.7252481 0.36873889 0.0010493994 3421735
1.7275553 0.37082791 0.00049310923 3158563
1.745316 0.33142805 0.039348483 2894876
1.749889 0.33534408 0.039192379 2171406
1.7505598 0.33802468 0.038948298 2171155
1.7526206 0.34010869 0.0381639 2236945
1.7545991 0.34312707 0.037450492 2368530
1.758543 0.347377 0.036609292 2368022
1.7601097 0.35021973 0.036481738 2367767
1.7615263 0.35102344 0.036365211 3420444
1.7341759 0.32232273 0.039424896 4672063
1.7365584 0.32301152 0.039667606 4079921
1.7370906 0.32567227 0.039159238 3223844
1.7393842 0.32803631 0.038969219 2565405
1.7416205 0.33068973 0.039040089 2170904
1.7433656 0.33262235 0.038982034 2105112
1.7455306 0.33493531 0.038235307 1907734
1.747407 0.33757842 0.038076758 1907735
1.7493265 0.33984244 0.037274837 1710613
1.7511089 0.34191334 0.037226319 1842195
1.7528003 0.34417641 0.036614776 1579024
1.754833 0.34632623 0.036324322 1710609
1.7569985 0.34864599 0.036235094 1907476
1.7587321 0.35080069 0.036080658 2368024
1.7607481 0.35301501 0.035329103 2104859
1.7618129 0.35484082 0.034830689 1973276
1.7321715 0.32316369 0.03897202 6316377
1.7343732 0.32523453 0.038279295 3618865
1.7359639 0.32720923 0.038136423 2499875
1.7378724 0.32954919 0.037751496 2170908
1.7397043 0.33151126 0.037831903 2302494
1.7417516 0.33396614 0.03742671 1907738
1.743608 0.33622205 0.037674725 2105369
1.7458439 0.33891362 0.037243485 1710360
1.747578 0.34114057 0.03634578 1710104
1.7493172 0.3435564 0.036352336 1710614
1.7510633 0.34536219 0.035637021 1447444
1.7536384 0.34735048 0.035692096 1316110
1.7553905 0.35029387 0.035339773 1315852
1.7563801 0.35186964 0.035534739 2170897
1.7612906 0.3583746 0.032360852 2105631
1.7286825 0.32233876 0.036757231 5459758
1.730527 0.32362044 0.036836386 5394500
1.7320373 0.32632482 0.036509871 4474430
1.7339921 0.32828987 0.036661446 3223856
1.7357061 0.33081263 0.036892295 2105122
1.737586 0.33256572 0.037323236 2302754
1.726532 0.32306874 0.035258114 2894854
1.7283819 0.32521594 0.035066366 3223324
1.7300518 0.32729244 0.03512466 4671034
1.7315879 0.32888335 0.035966516 4408382
1.7247626 0.32443637 0.032986283 1513230
1.7262487 0.32655996 0.033424854 1710093
1.7277331 0.32830489 0.033846259 3091481
1.7226384 0.32578117 0.031465888 1645083
1.7242672 0.32763714 0.031586409 1447186
1.7251627 0.32968509 0.03214699 1512719
1.7208756 0.32682425 0.030006766 2632229
1.7225645 0.32917047 0.029629946 1645081
1.7195952 0.32811081 0.027962685 3290147
1.7206315 0.33021265 0.027354181 2303265
1.7211418 0.33195519 0.028382421 2303254
1.7188857 0.33143783 0.025511861 2961185
1.7194996 0.33404124 0.024369776 2961187
1.7193952 0.33634084 0.024264693 3026984
1.7197094 0.3366279 0.021479249 2895394
1.7192883 0.33861071 0.021797597 2961182
1.7194316 0.34147561 0.018687665 2829598
1.7202101 0.3450582 0.016660213 2764064
1.7243655 0.37047642 0.0020400286 3356458
1.726352 0.37218159 0.0019676685 3750698
1.727914 0.37493604 0.0016305447 3619620
1.7294542 0.37800652 0.0031903982 2829350
1.7221696 0.37120211 0.00082945824 3423275
1.7240229 0.37382603 0.0013790131 3751468
1.7263517 0.37651682 0.0017393827 4211752
1.7283494 0.37838054 0.00017046928 3421995
1.7405934 0.33278805 0.039679527 2960670
1.7424222 0.33467072 0.039621949 2236954
1.7438688 0.33640766 0.03990531 2434331
1.7482145 0.34188157 0.038603783 2434328
1.7493294 0.34372795 0.038693547 2434328
1.751256 0.34533346 0.038277388 2368277
1.753511 0.34753639 0.037349522 1842192
1.7554321 0.34976321 0.037411928 2039060
1.7577173 0.35279495 0.036880612 2565393
1.7324852 0.32569933 0.039435029 4934728
1.7340848 0.32823873 0.039413929 3356199
1.7365302 0.33074981 0.03925252 2697247
1.7386911 0.33344811 0.039027929 2302490
1.7400053 0.33543414 0.039265752 2171161
1.7421918 0.33762604 0.038846433 2105112
1.744189 0.34012729 0.03806442 2170650
1.7461467 0.34271842 0.037686825 2236696
1.7475276 0.34488511 0.03753221 2236695
1.7496908 0.34693605 0.036996603 1907991
1.7515947 0.34874183 0.036689997 1710612
1.7533867 0.35123366 0.036547065 2039062
1.7552941 0.35367435 0.036271572 2302487
1.7567511 0.35602707 0.035545349 2170910
1.7293432 0.32563424 0.038177729 5986633
1.7309391 0.32774687 0.038322806 5000260
1.7328746 0.3300491 0.038155913 2829352
1.7346671 0.33231372 0.038202584 2039327
1.7363768 0.33472115 0.037905157 2105117
1.738471 0.33651543 0.037725031 2236702
1.7402331 0.33876967 0.037819982 2302237
1.7420452 0.34089285 0.037441909 2170651
1.7438872 0.34363335 0.037105501 2170906
1.7461045 0.34620291 0.036216736 2170652
1.748364 0.34819102 0.035841584 2039324
1.7499964 0.35041904 0.036161304 1907481
1.7518761 0.35252696 0.035522938 1578517
1.7528899 0.35514706 0.034852087 1512729
1.7545804 0.3579694 0.034367502 2433312
1.755266 0.36002815 0.033413649 3025946
1.7274222 0.32654548 0.036800861 4802085
1.7288433 0.32897866 0.036655188 3750183
1.7306771 0.33100051 0.036631703 4145209
1.732372 0.33318526 0.036847651 2500396
1.7345531 0.33584774 0.037293673 2039326
1.7386112 0.34011376 0.036947489 1841433
1.7504073 0.35464323 0.034299791 1775891
1.7252398 0.32816476 0.034901559 1775882
1.7270191 0.3302629 0.034981728 2828313
1.7283812 0.33238035 0.035429418 4210739
1.7302819 0.33391666 0.036260247 3158320
1.7233551 0.32934725 0.033588469 1447185
1.7248917 0.33137482 0.033450902 1512715
1.7259033 0.33351344 0.033930659 2433811
1.7194555 0.32874328 0.031371415 2566689
1.7211274 0.33016998 0.031885803 2303004
1.723084 0.33222473 0.031749487 1447184
1.7186053 0.32964724 0.030827522 2895392
1.7191246 0.33169001 0.029422402 3224615
1.7212687 0.33375746 0.029820204 1645078
1.7187047 0.33255136 0.027005911 2435106
1.7193108 0.33459067 0.027760625 2435103
1.7195196 0.33715075 0.026781917 2961192
1.7184507 0.3390528 0.025484681 3093020
1.7179796 0.33983743 0.023294985 3093024
1.7236342 0.37514937 0.0020136833 4277296
1.7244337 0.37656081 0.0026046634 4408885
1.7256314 0.37866282 0.0023100376 4540463
1.727354 0.38154387 0.00074768066 4540462
1.7258866 0.38359803 9.4771385e-05 4738111
1.7545481 0.35214502 0.038810134 2630670
1.7397859 0.3377136 0.039973915 2960668
1.7412171 0.33990365 0.039423943 2368279
1.7427661 0.34088498 0.039994121 2960410
1.7484266 0.34843808 0.0380826 2697245
1.7509263 0.35152787 0.03689146 2368532
1.7530962 0.35222721 0.037667692 2631190
1.7542565 0.3553018 0.037642837 3026456
1.7333667 0.33316886 0.039637029 2763554
1.7354513 0.33576721 0.039046466 2236956
1.7369949 0.33813572 0.039079666 2236697
1.7390606 0.34039241 0.038900316 2302489
1.7409883 0.34287047 0.038638592 2302232
1.7428083 0.34517878 0.037910938 2368025
1.7450531 0.34705967 0.03745532 2368282
1.7465403 0.34918171 0.03725338 2368282
1.7482743 0.35181755 0.036794901 2631707
1.7501935 0.35415941 0.036334038 2434074
