# .PCD v0.7 - Point Cloud Data file format
VERSION 0.7
FIELDS x y z rgba
SIZE 4 4 4 4
TYPE F F F U
COUNT 1 1 1 1
WIDTH 1142
HEIGHT 1
VIEWPOINT 0 0 0 1 0 0 0
POINTS 1142
DATA ascii
1.7589592 0.3422659 -0.014191151 1251085
1.7608072 0.34436744 -0.014424205 1843739
1.7622995 0.34665269 -0.015659094 2896168
1.7638717 0.34956962 -0.015505612 4277558
1.7658885 0.35132706 -0.015905619 5133133
1.7680652 0.35375506 -0.015627861 6975597
1.7701396 0.35578728 -0.015899658 7370614
1.7718689 0.35795122 -0.01566869 7436153
1.7739669 0.36037773 -0.015812993 7304568
1.775702 0.36289775 -0.015925527 7172985
1.7779031 0.36482978 -0.015514612 6910070
1.7288158 0.31204015 -0.015758097 9013358
1.730957 0.31388909 -0.015523255 9013098
1.7609179 0.34795034 -0.015982747 1447947
1.7624916 0.35096502 -0.016355395 1579277
1.7645063 0.3527196 -0.017112732 2764323
1.7664831 0.3552295 -0.016904593 5264196
1.767795 0.35752887 -0.016540468 5922389
1.7697656 0.35976154 -0.016560256 6843495
1.7717786 0.36224502 -0.016526282 7567223
1.7736065 0.36448467 -0.016579866 7370103
1.7755415 0.36684507 -0.016856909 7304307
1.7776508 0.36888337 -0.016656041 7172465
1.7251502 0.31130826 -0.01622349 8947823
1.7643803 0.3566587 -0.018034339 1447949
1.7654831 0.3593753 -0.017524362 2829085
1.7677612 0.36155045 -0.017355621 6316374
1.7696509 0.3635745 -0.017338455 6842983
1.7712469 0.3656981 -0.017256141 7501430
1.7735181 0.36760479 -0.017056704 7567472
1.7756349 0.37043601 -0.016816735 7567471
1.7777166 0.37187523 -0.01704073 7171949
1.7632421 0.35938311 -0.018202901 526343
1.7642665 0.3625859 -0.01875484 460291
1.7417192 0.31613266 -0.0078523159 1383444
1.7443604 0.31804824 -0.0079286695 2237981
1.7465878 0.32057613 -0.0080285668 1711128
1.748807 0.32273805 -0.0079483986 1579796
1.7510564 0.32525939 -0.0079828501 1382677
1.752866 0.32675648 -0.0078463554 1515287
1.7546488 0.32957071 -0.0075913072 791056
1.7566606 0.33202428 -0.0091794133 1056311
1.7568713 0.33383316 -0.0079318881 594735
1.7391286 0.31517708 -0.009747088 3619368
1.7413266 0.31785399 -0.0095201731 2698269
1.7431386 0.31949246 -0.0094489455 2698014
1.7453976 0.32142097 -0.0095522404 2632472
1.7480146 0.32369411 -0.0096125603 2764059
1.7506063 0.32614648 -0.0097045898 2106647
1.7512906 0.32787496 -0.0087692738 1382929
1.7542845 0.3305245 -0.0096000433 725520
1.7562964 0.3328588 -0.009860754 1450778
1.7571137 0.33505929 -0.0096679926 988434
1.75885 0.33720642 -0.008249402 921877
1.760427 0.3405537 -0.010659099 1120287
1.7629709 0.34320021 -0.01083672 2504280
1.7341392 0.31337184 -0.012753546 8158575
1.7355801 0.31481093 -0.011573374 5921087
1.7372432 0.31693244 -0.010900974 3947552
1.7395349 0.31835175 -0.010834813 3816475
1.741909 0.32010835 -0.01086843 4606235
1.756377 0.33567625 -0.011398673 1386010
1.7580833 0.33869755 -0.010936379 922125
1.7592965 0.34205699 -0.012576401 855818
1.7607967 0.34360915 -0.01191175 1250836
1.7636815 0.34536171 -0.010547578 2504275
1.7666899 0.35093212 -0.012647569 3096670
1.7698681 0.3531481 -0.012345195 6253962
1.7724125 0.35761619 -0.012778699 6516359
1.7743407 0.35885948 -0.01282084 6581892
1.7755907 0.36187083 -0.013085604 6318719
1.7295661 0.31202132 -0.013486862 8421752
1.7315638 0.313923 -0.012699306 7697508
1.733495 0.31611794 -0.012306869 6710590
1.7358979 0.31757814 -0.01202786 5986339
1.76064 0.3450551 -0.012679636 1250571
1.7611841 0.34676826 -0.012175322 1513749
1.7621996 0.35052478 -0.013059378 1513485
1.7647471 0.35180497 -0.013308406 1580578
1.7679002 0.35443449 -0.013407111 5332331
1.7695229 0.35679704 -0.013491511 6253692
1.7704494 0.35875201 -0.013417244 5397867
1.7725575 0.36160123 -0.013354897 5924470
1.7748168 0.36387485 -0.013775527 6515572
1.7771106 0.36587793 -0.013653517 6318707
1.7257552 0.31086743 -0.01436913 8948346
1.7276863 0.31304753 -0.014225602 8816502
1.7295755 0.31526321 -0.013837874 8421478
1.7313995 0.31633723 -0.013350666 7565897
1.7617357 0.35100091 -0.014176607 1184776
1.7627656 0.35427535 -0.014368176 1513481
1.7652388 0.35596335 -0.014996231 5197371
1.7665017 0.35852575 -0.014719546 6448218
1.7688473 0.36128229 -0.014332056 6449259
1.7707274 0.36309415 -0.014439821 5331550
1.7726121 0.36548805 -0.014360785 6515311
1.7750475 0.36746919 -0.014358163 6712951
1.7764564 0.36974269 -0.014784276 6646900
1.7784264 0.37184179 -0.014602602 6515058
1.7238123 0.31272167 -0.015308738 9210996
1.7256479 0.31467301 -0.014966428 9144944
1.7274396 0.31604046 -0.014267743 9145192
1.7614193 0.35463971 -0.016135216 1381641
1.7628748 0.35804647 -0.015132308 1710869
1.7648308 0.3607319 -0.016046405 3421470
1.7665005 0.36187732 -0.01607275 5329474
1.7685726 0.36457413 -0.016650081 5855826
1.7707922 0.3667978 -0.016188145 5856603
1.7729778 0.36951339 -0.016410232 6975340
1.7745653 0.37184918 -0.016076148 6975342
1.7767811 0.37386394 -0.015981734 6909296
1.778753 0.37637657 -0.01581192 6777710
1.7196777 0.31186157 -0.01596725 9539441
1.7215414 0.31394786 -0.015749633 9407860
1.7226553 0.31583452 -0.015463173 9737073
1.7619078 0.36002618 -0.015735328 1118730
1.7635021 0.36222535 -0.018255591 1447174
1.7650313 0.36413473 -0.017428935 2565398
1.7668566 0.36648524 -0.01742214 4342064
1.7686818 0.3686856 -0.017352104 5658186
1.7706634 0.37143689 -0.017018139 6514011
1.7724614 0.37350583 -0.016664624 6579810
1.7744133 0.3757745 -0.016594052 7237997
1.7759778 0.37761271 -0.016415954 7040620
1.7781956 0.38007641 -0.016726196 6777704
1.7166057 0.31192642 -0.016482174 9144690
1.763284 0.36585569 -0.018911719 1118214
1.764251 0.36834061 -0.018253446 1578762
1.7663085 0.37062049 -0.017974913 3485982
1.7689805 0.37299633 -0.017760992 4013357
1.770689 0.37514472 -0.017386854 5066560
1.7725883 0.37680906 -0.017352581 6447695
1.7757437 0.38082165 -0.017402828 6909034
1.7787995 0.38413173 -0.017111361 6513757
1.7637197 0.37096983 -0.018626928 2039051
1.7641931 0.37187606 -0.019230962 985349
1.7657406 0.37332064 -0.018649042 1842183
1.7708032 0.38003922 -0.019370019 1381391
1.7516253 0.3253234 -0.0040593147 1645335
1.7531199 0.32674575 -0.0036652684 1250833
1.7548708 0.32943887 -0.0036475062 987661
1.7416106 0.31703728 -0.0057029724 1644831
1.7438779 0.31906241 -0.0055651665 1710624
1.7459236 0.32114708 -0.0055054426 1842205
1.7481959 0.32336801 -0.0053857565 1842203
1.75014 0.32532108 -0.0052658319 1513751
1.7521251 0.32728827 -0.0051028728 1579796
1.7544447 0.33019453 -0.0056592822 1447955
1.7558585 0.33241397 -0.0050035119 1251607
1.7582146 0.33653337 -0.0046831369 855824
1.7365453 0.31491584 -0.0072104335 2039582
1.7384771 0.31601226 -0.0065255761 2171173
1.7401395 0.31867927 -0.0070087314 2828841
1.742305 0.3203156 -0.0067504644 2631714
1.7444018 0.32218474 -0.0063792467 2434334
1.7463825 0.32387137 -0.0067105293 2040084
1.7478049 0.32595366 -0.0058495998 1645073
1.7508893 0.329171 -0.0057990551 1054992
1.7570572 0.33592355 -0.0070345402 1184785
1.7581122 0.33851349 -0.0068175793 1184783
1.7321274 0.31382269 -0.0084837079 1579037
1.7343707 0.31568903 -0.0081267357 1908254
1.7364819 0.3176018 -0.0084190369 2566172
1.7382727 0.31892729 -0.008005619 3026464
1.7402574 0.32015347 -0.0084136724 2632203
1.7288074 0.31362718 -0.01025939 3026988
1.7305411 0.31473196 -0.010101974 2500119
1.7321432 0.31675535 -0.0097843409 2961433
1.7344023 0.31837445 -0.0096698403 3290128
1.7240417 0.31151873 -0.011082649 9211510
1.7263557 0.31402034 -0.011567593 6382682
1.728485 0.31646955 -0.011396945 4737839
1.7305191 0.3177619 -0.011125982 3751191
1.7605 0.35244858 -0.010606706 1315851
1.7711384 0.36642098 -0.013418078 4213330
1.7731209 0.36900258 -0.013430119 6384241
1.7769079 0.37313151 -0.01348114 6120813
1.7209029 0.31123513 -0.012629926 9277307
1.7228098 0.31385714 -0.01308012 8553590
1.7246957 0.31614947 -0.013053298 8092772
1.7262774 0.31732482 -0.012480438 5921590
1.7656859 0.36397541 -0.014680684 5066044
1.7679734 0.36537975 -0.01381886 6843503
1.7698624 0.36786717 -0.013681173 5528417
1.7712356 0.37018448 -0.01335597 4804696
1.7734059 0.37276059 -0.013736725 5857641
1.7760568 0.37517887 -0.013828516 6186349
1.7771178 0.37719297 -0.013977528 6251885
1.7186711 0.31297451 -0.014523625 9277050
1.7207737 0.31520301 -0.014523149 9211255
1.7224703 0.31731564 -0.013979852 8355942
1.7622843 0.36155081 -0.015520692 1183769
1.7638463 0.36587501 -0.015922189 1842188
1.7660816 0.3673901 -0.015067637 5855304
1.7679112 0.37011516 -0.014804721 7040619
1.7690659 0.37225521 -0.014903128 7172208
1.7712903 0.37428528 -0.014842033 5922660
1.7736363 0.37655407 -0.015251696 5922655
1.775111 0.37898707 -0.015077949 6120036
1.7771559 0.3812477 -0.01515907 6185827
1.7145692 0.31237507 -0.015339196 9408116
1.716675 0.31456554 -0.015370369 9473911
1.7187593 0.31652778 -0.015210927 9276788
1.7203747 0.31810081 -0.014522254 8815719
1.7648711 0.36894566 -0.016423225 3815453
1.7657081 0.3715055 -0.016281486 5065778
1.7678406 0.37350631 -0.017250657 6184011
1.7694836 0.37608933 -0.016626716 6513758
1.7716396 0.37805569 -0.016401947 5461329
1.7733593 0.38059497 -0.016442716 6185051
1.7751014 0.38275915 -0.016171575 6645864
1.7772458 0.38533676 -0.016004145 6382685
1.7130059 0.31363082 -0.015674829 9736819
1.7148893 0.31584638 -0.015959442 9539446
1.7174079 0.31823385 -0.015663266 9078901
1.7618062 0.36958331 -0.018465459 987396
1.7638018 0.3730461 -0.018231869 1512709
1.766157 0.37508005 -0.017854631 3420192
1.7674501 0.37778437 -0.017374873 5131066
1.7691742 0.38009864 -0.017057478 5460553
1.7713487 0.38211071 -0.017216682 6053205
1.7729093 0.38455999 -0.016911983 6645852
1.7753471 0.38653338 -0.016607642 6842462
1.7621934 0.37472117 -0.018708169 1184007
1.7638109 0.37691337 -0.018710315 1643782
1.7656059 0.37927657 -0.018189907 1644292
1.7717278 0.38624471 -0.018227518 1841929
1.7633077 0.38061303 -0.019559503 789511
1.7482398 0.32350618 -0.0019841194 855573
1.750316 0.32488674 -0.0019180775 790545
1.7522881 0.32771719 -0.0021199584 1316115
1.7541313 0.32978576 -0.0016487241 1250576
1.7560403 0.33192021 -0.0015610456 921358
1.7405604 0.31802785 -0.0034185648 1776422
1.7430874 0.31998914 -0.0032442212 1710371
1.7449148 0.32211 -0.0032047033 2039585
1.7468433 0.32429129 -0.0029840469 2171167
1.7490506 0.32651591 -0.0027107596 1974045
1.7509639 0.32865357 -0.0021259785 1842458
1.7530715 0.33047843 -0.0020693541 1514004
1.7551229 0.33327943 -0.0022752881 1645077
1.7575355 0.335302 -0.0013842583 986895
1.7590313 0.33795357 -0.0033694506 921617
1.7346091 0.31607801 -0.004568398 2631474
1.7365797 0.31721276 -0.0042614341 2763566
1.7387812 0.31939447 -0.0043768883 2763308
1.7411418 0.32150018 -0.0043866634 2697256
1.743215 0.32317281 -0.0039840937 2697253
1.7453234 0.3250494 -0.0035076141 2434083
1.7479208 0.32758987 -0.003575027 2039834
1.7534697 0.33573842 -0.0041320324 1184776
1.7581768 0.34248853 -0.0059450865 1513229
1.7311696 0.31473511 -0.0060424209 2302513
1.7334359 0.31684572 -0.0058906674 3224372
1.7351537 0.31864941 -0.0057347417 3355181
1.737201 0.32033604 -0.005507648 3223848
1.73894 0.32187045 -0.0052062869 2960434
1.7270589 0.3142029 -0.0072239637 2698553
1.7294343 0.31622499 -0.0074472427 2566693
1.7312686 0.31766158 -0.0071495771 3487541
1.7330921 0.31943971 -0.0066738129 3618604
1.7240937 0.31404245 -0.0090608001 4079940
1.725508 0.31487805 -0.0086334944 5066828
1.727492 0.31745762 -0.0087141991 4474430
1.7289197 0.31905389 -0.008125782 4605489
1.7191056 0.31246513 -0.011090338 9342842
1.7215693 0.31460279 -0.01009798 5132618
1.7236384 0.31717491 -0.01050663 4606256
1.7250144 0.31864262 -0.0099355578 4671540
1.7153738 0.31191456 -0.01114589 9408630
1.7175996 0.31375498 -0.011624873 9145978
1.7193811 0.31616831 -0.011455417 6842972
1.721506 0.31884724 -0.011868238 4869431
1.723127 0.31934291 -0.011562884 4475172
1.7686056 0.37301511 -0.01358366 6515053
1.7704338 0.37553275 -0.013464808 6186348
1.772786 0.37812537 -0.013551176 6054763
1.7735729 0.37995654 -0.013333142 5923178
1.7759367 0.38187975 -0.013485193 5660007
1.7782118 0.38421351 -0.013062596 5988710
1.7136424 0.31302726 -0.013724387 9145981
1.7155852 0.31581515 -0.013786018 9079934
1.7177391 0.31790257 -0.01360786 8685172
1.719363 0.31980377 -0.012797594 6579789
1.7651036 0.37297738 -0.015210032 5920816
1.7665362 0.37393022 -0.01429671 6579290
1.7684746 0.37715691 -0.0138762 6449003
1.7700717 0.37966681 -0.01364845 6186346
1.7720629 0.38144785 -0.013869643 6251883
1.7743943 0.38391346 -0.013950944 5264984
1.7758451 0.38604307 -0.013862431 5263944
1.7776629 0.3883611 -0.014103651 7829614
1.7097734 0.3125335 -0.015038013 9539704
1.7116538 0.31493717 -0.015006721 9408377
1.7135055 0.31727511 -0.014700294 9342585
1.7157419 0.31936997 -0.014285624 9079668
1.7170506 0.32066947 -0.013747454 8158565
1.7639558 0.37409389 -0.015444934 3420425
1.7641423 0.37636679 -0.015112877 3749912
1.7663164 0.37813944 -0.014535964 6776670
1.7684658 0.38076723 -0.015425682 6316640
1.7703215 0.38327062 -0.015835285 6185059
1.7726445 0.38565135 -0.015750289 6185053
1.7743381 0.38762069 -0.015747607 5921879
1.7760462 0.38977313 -0.015422344 7828838
1.7780316 0.39218217 -0.015672028 9868157
1.7059398 0.31198364 -0.015395343 9605234
1.7077918 0.31450385 -0.015303433 9671030
1.7098221 0.31671983 -0.015407205 9473911
1.711597 0.31892163 -0.015393972 9736821
1.7134295 0.32042128 -0.014974892 9210738
1.7615373 0.3766771 -0.017952502 1315597
1.7623472 0.37819505 -0.016255319 1513482
1.764544 0.37998492 -0.016802669 3419921
1.7663635 0.38233006 -0.01720053 4209966
1.7686121 0.3851316 -0.017307043 5328705
1.7706774 0.38734525 -0.016875625 5987154
1.7719355 0.38953882 -0.016372085 6250325
1.7738173 0.39138925 -0.016387045 7565661
1.7759414 0.39376301 -0.016233385 8684145
1.7779715 0.39633781 -0.016218364 9605510
1.7041426 0.31315148 -0.01590544 9539189
1.7048991 0.31553328 -0.016027808 9473652
1.7079678 0.31816828 -0.016242325 9605237
1.708744 0.32027078 -0.016171694 10197620
1.7615324 0.38044983 -0.016916752 1118478
1.7621944 0.38213414 -0.01802665 1578250
1.7642486 0.38401991 -0.017682374 1907210
1.7660822 0.38648683 -0.017801821 2565141
1.7683985 0.3889811 -0.01760596 5657927
1.7698276 0.39072275 -0.017305136 3947057
1.7721827 0.39276302 -0.017448068 5262910
1.774489 0.39527601 -0.018525958 6774328
1.7757082 0.39772952 -0.017780423 8222554
1.7768631 0.39997119 -0.017386317 8157806
1.7794163 0.40170979 -0.017462134 9671041
1.7612817 0.38493806 -0.018344164 1315332
1.761991 0.38551337 -0.018564463 1512456
1.7640724 0.38886833 -0.018406272 723204
1.7663722 0.38966501 -0.017941535 2828306
1.7749932 0.40241373 -0.019774377 3156268
1.7770302 0.4033106 -0.018653393 8157277
1.7466509 0.3238402 0.00047194958 724758
1.7492626 0.32603633 0.00063145161 526864
1.7512627 0.32812232 0.00097173452 658445
1.7531517 0.33108455 0.0007866621 1250833
1.7550825 0.33297735 0.00047779083 1118733
1.7567853 0.33528316 0.00047403574 987148
1.7581244 0.33719331 0.0011526346 1381648
1.7402289 0.31958038 -0.0018462539 1842212
1.7415624 0.32130241 -0.00067389011 1710626
1.7438838 0.32344043 -0.00053036213 1842465
1.7457827 0.32550842 -0.00030994415 2039584
1.7477593 0.3277927 -0.0004529953 2171424
1.7497844 0.32968074 -0.00018334389 1974043
1.7519124 0.33178437 0.00024062395 1579288
1.7539502 0.33412606 0.00057816505 1052944
1.7557073 0.33588517 7.0214272e-05 1381645
1.7586646 0.33790344 -0.0001565218 1052942
1.7345111 0.3168326 -0.0033975244 2697016
1.7361891 0.31872344 -0.0023286939 2960947
1.7375617 0.32053411 -0.0017102957 3026735
1.7399138 0.32253277 -0.0018230081 2960684
1.7418206 0.32462132 -0.0015886426 2894634
1.7442575 0.32656801 -0.0011898875 2763046
1.7461159 0.3286286 -0.00046867132 2368291
1.7485045 0.33173853 9.727478e-05 2499618
1.753428 0.33644718 -0.0026877522 1052933
1.7301532 0.31648588 -0.0039483905 2630448
1.7321956 0.31759322 -0.0033298731 2828345
1.7337546 0.31965846 -0.0031836629 3947838
1.7359807 0.32168531 -0.0030476451 3618865
1.73832 0.32338262 -0.0025762916 3289648
1.7578433 0.34542942 -0.0042128563 1513480
1.7260728 0.31596142 -0.0050617456 9210495
1.7281269 0.31688201 -0.0048757792 5131068
1.730101 0.31922072 -0.004694581 5000010
1.7321589 0.32099056 -0.004231751 4276541
1.7336967 0.32241946 -0.0026592016 4342320
1.7224469 0.31543279 -0.0070741773 9408161
1.7241914 0.31600022 -0.0060579181 8223881
1.7263868 0.31870633 -0.0062121749 8157817
1.7280991 0.32033199 -0.0057413578 7894125
1.729589 0.32184374 -0.0046899319 9013147
1.7206779 0.31625599 -0.00766927 2895426
1.7227561 0.31860018 -0.0080627799 4539702
1.7242177 0.31991857 -0.0073275566 6840921
1.7260193 0.32127362 -0.0060259104 9341048
1.718259 0.31738126 -0.0092414021 3027514
1.7204633 0.31972754 -0.0089819431 1710866
1.7219663 0.3210206 -0.0087925196 2697496
1.7104244 0.31234002 -0.011701524 9540469
1.7128642 0.31426632 -0.011551738 9474674
1.7146678 0.31693846 -0.01124841 8751478
1.7163286 0.31866169 -0.010613859 3816765
1.7183824 0.32122183 -0.010695815 3093281
1.720202 0.32213318 -0.0093906522 1580298
1.7760977 0.38847262 -0.012901008 8093310
1.7787871 0.39196461 -0.012723088 9145480
1.7080414 0.31421661 -0.012505889 9540221
1.7104934 0.31597292 -0.011765242 9540218
1.712513 0.31840229 -0.012295127 8685694
1.7145181 0.32070136 -0.012573183 7501158
1.7160364 0.32229227 -0.011847258 4672312
1.7657788 0.37975276 -0.0137012 5921100
1.7670214 0.38189769 -0.013231635 6316647
1.7695394 0.38418114 -0.013531983 5988712
1.7717259 0.38616061 -0.01333946 5594467
1.7729239 0.38861191 -0.013365388 6580846
1.7754788 0.39107525 -0.013079345 7633012
1.7768891 0.3933273 -0.013332963 7369328
1.7790753 0.39561242 -0.013604879 9211271
1.7046099 0.31294221 -0.014149189 9671548
1.7064092 0.31536549 -0.014487207 9408635
1.7084326 0.31796795 -0.014068842 9408639
1.7106807 0.32002622 -0.014128506 9277054
1.7125998 0.32214767 -0.013587117 8685170
1.7136343 0.32378745 -0.012533903 6777676
1.7631629 0.37913227 -0.014949322 2434320
1.7639216 0.3810215 -0.014679074 4209954
1.7648284 0.38370854 -0.014159262 5262655
1.7673919 0.38571543 -0.014131248 6382438
1.769567 0.38790661 -0.013816714 5857126
1.771286 0.39059788 -0.014078081 5791072
1.7732823 0.3929314 -0.014297068 6316897
1.7748888 0.39450967 -0.014357507 6974310
1.7768674 0.39733952 -0.014466286 7895668
1.7789011 0.39951646 -0.014236331 8224891
1.7008605 0.31249231 -0.014995754 9868408
1.7027142 0.31480384 -0.014930665 9737081
1.7046504 0.31703335 -0.015005171 9539961
1.7064657 0.31935346 -0.014965773 9539961
1.708648 0.32164448 -0.014865518 9539705
1.7101803 0.32387668 -0.014422774 9342583
1.7634387 0.38505346 -0.015714526 3486489
1.7651811 0.38751739 -0.015832126 5788735
1.7669575 0.38983899 -0.016057611 5263173
1.7693582 0.39199382 -0.016205251 6973785
1.771212 0.39458221 -0.016021371 7894891
1.7736943 0.39677691 -0.015690327 7237217
1.7752341 0.39892048 -0.015807688 8158580
1.7772492 0.40144724 -0.016043782 8487549
1.7792962 0.40331227 -0.015845776 8026993
1.6965638 0.31234902 -0.015810966 8816231
1.6987789 0.31399858 -0.015740275 9867890
1.7006165 0.31653225 -0.015456915 9868151
1.7029325 0.31849456 -0.015558124 9605495
1.7045405 0.32106173 -0.015499473 9605491
1.7063863 0.32337862 -0.015598595 9671283
1.7083657 0.32479316 -0.015152812 9737333
1.7617149 0.38690656 -0.017176747 1512966
1.7632161 0.38933718 -0.017224669 1841415
1.7659106 0.39175957 -0.017385602 2960152
1.7671878 0.39347506 -0.016794026 4143907
1.7689538 0.39601284 -0.016478777 7038794
1.7708582 0.39811122 -0.016732395 6052173
1.7727317 0.40081286 -0.016358018 8026737
1.7748883 0.40276337 -0.016731143 7368291
1.7771806 0.40537679 -0.01659137 7763814
1.7789828 0.40714151 -0.016174555 7895668
1.6982045 0.31706643 -0.016294479 9867901
1.7611865 0.39026284 -0.017114997 1446927
1.764369 0.39323974 -0.017295599 394244
1.765905 0.39613706 -0.01756525 1511944
1.76986 0.400388 -0.017301142 985609
1.7767656 0.40882236 -0.017723799 5789248
1.7644938 0.39852434 -0.018922985 591624
1.7494957 0.3280046 0.002193749 789519
1.7504407 0.33003712 0.0031933784 395529
1.7525976 0.33207011 0.0028706193 460807
1.7542063 0.33468246 0.003532052 1579537
1.7559195 0.33593792 0.0026398897 789771
1.757345 0.33828264 0.0036904812 1184010
1.7401762 0.32242393 0.0012018681 1907234
1.7424438 0.32441252 0.0015803576 1842470
1.7448113 0.3265636 0.0020521879 1776672
1.7465932 0.32867444 0.0020663738 1974050
1.74857 0.3308869 0.002268672 1776413
1.750569 0.33291578 0.0024651289 1579288
1.7527544 0.33515716 0.0026193261 1315858
1.7552035 0.33704495 0.0027951598 987149
1.7355242 0.32007718 -0.00050163269 2894897
1.7368032 0.32203752 0.00056046247 3092532
1.7385846 0.32367557 0.00082659721 3224113
1.7408553 0.32592344 0.00067210197 3092270
1.7426102 0.32792628 0.0011641979 2960428
1.7451162 0.32988608 0.0013176203 2697255
1.7473089 0.33169895 0.001580596 2236960
1.7484187 0.33368379 0.0027822256 1776152
1.7306566 0.31911105 -0.0013257265 2959417
1.7331412 0.32094353 -0.0009778738 3881797
1.7348425 0.32303548 -0.00069111586 4145472
1.7370696 0.32488269 -0.00034356117 3684662
1.739132 0.32652861 0.00038558245 3421493
1.726598 0.31844848 -0.0024923086 9078403
1.7290742 0.32047224 -0.0023151636 7039341
1.7309113 0.32217431 -0.0020329952 5855581
1.7328203 0.3238439 -0.0014404058 4605516
1.7234756 0.31743193 -0.0043292642 10592698
1.7250214 0.31971395 -0.0036542416 10197667
1.7270005 0.32165504 -0.0035989881 9736844
1.7288699 0.32316387 -0.0029891133 9276552
1.7197061 0.31753576 -0.0060109496 1054754
1.7213812 0.31906903 -0.0045787096 4738910
1.7231288 0.32117826 -0.0053680539 3947576
1.7246914 0.32281953 -0.0043389797 6578778
1.7264111 0.3241936 -0.0032759309 8157036
1.7174168 0.31844312 -0.0066434145 1644833
1.7194489 0.3210057 -0.0066666603 1710873
1.7210673 0.322671 -0.0063053966 1710611
1.7224236 0.32391196 -0.0051358938 1579019
1.7152727 0.32016593 -0.0082347393 2106149
1.7171559 0.32229 -0.0081641078 1579282
1.7186568 0.32351047 -0.0077015162 2236950
1.7116473 0.31974226 -0.010310173 7040614
1.7134142 0.32120955 -0.0095468163 3224888
1.714988 0.32378429 -0.0094918609 1711638
1.7158363 0.32578444 -0.0085503459 1908241
1.7021623 0.31166273 -0.011686802 9934201
1.7053596 0.31675732 -0.012076497 9606267
1.7078338 0.31922084 -0.011221886 9474682
1.7095323 0.3213864 -0.010911942 7040876
1.7113914 0.32345003 -0.011052132 3290428
1.7126946 0.3250109 -0.010905445 3488558
1.7659307 0.38659596 -0.01302433 5986911
1.7677377 0.38959229 -0.013040423 5922145
1.7705989 0.39184022 -0.012618721 7304826
1.7718489 0.39443785 -0.012416244 7633791
1.7743671 0.39560711 -0.01197058 3817026
1.7760333 0.39825857 -0.012436152 7502204
1.7776172 0.40042394 -0.012490809 5528409
1.7796512 0.40300506 -0.012537897 6515304
1.6994115 0.31307685 -0.012310088 9868668
1.7010838 0.31586766 -0.012730062 9737600
1.7031405 0.31816018 -0.012459934 9540479
1.7053611 0.31978559 -0.01242888 9409152
1.7069765 0.32245672 -0.012646556 9014151
1.7096834 0.32516271 -0.013130784 8159085
1.7107525 0.32662606 -0.012232542 5659721
1.7627014 0.38626564 -0.013841391 2434823
1.7638502 0.38849092 -0.013424516 4144924
1.7659569 0.39091843 -0.013804913 6118748
1.7682207 0.39334548 -0.013288081 7633016
1.7702897 0.39544219 -0.013134003 8094081
1.7719076 0.39752305 -0.013228118 8093823
1.7742084 0.39978832 -0.01311481 6515049
1.7759255 0.40263695 -0.012978673 7370359
1.7775588 0.40418077 -0.013361037 5593948
1.7795222 0.4066053 -0.012914419 7172719
1.69555 0.31277418 -0.014199555 9013880
1.6978105 0.31513774 -0.014293075 10065790
1.6995746 0.3174457 -0.014293849 9934723
1.7016087 0.31983852 -0.014598668 9671552
1.7035266 0.32197708 -0.01445657 9408638
1.7051851 0.32420576 -0.014289021 9605759
1.707333 0.3264609 -0.014026523 9277050
1.7087944 0.32799041 -0.013005793 7764580
1.7598885 0.38986391 -0.014597833 1118734
1.7617538 0.38945729 -0.013513684 1316360
1.7637755 0.39211607 -0.014347672 4341541
1.7660763 0.39479935 -0.014404416 8026228
1.768468 0.39690292 -0.014989376 8552819
1.7696046 0.39970922 -0.014704227 8619386
1.7721791 0.40205574 -0.015011728 8619648
1.7741277 0.40391064 -0.01545316 8159100
1.7757137 0.40568256 -0.015016437 5987419
1.7773931 0.40825582 -0.015320301 6448478
1.7798196 0.41067535 -0.015044332 8422271
1.6916168 0.31197715 -0.015027523 10000254
1.6934161 0.31459326 -0.015130162 9013871
1.6955976 0.31683797 -0.015134096 9539443
1.6977745 0.31921762 -0.014920115 10197375
1.6995119 0.32145339 -0.015067458 10000252
1.7015307 0.32382339 -0.0151999 9802875
1.7033213 0.32627052 -0.015132248 9671287
1.7053379 0.32804209 -0.014835238 9474166
1.7064401 0.32969749 -0.014434099 9145717
1.7609147 0.39291054 -0.017517447 1709837
1.7626076 0.39330918 -0.016701818 2301957
1.7634902 0.39565772 -0.01583147 5327139
1.766055 0.39844936 -0.015994072 4998448
1.7682076 0.40095896 -0.016563416 6051388
1.7701129 0.40355545 -0.01638341 7302494
1.7720739 0.40533596 -0.01624167 7763310
1.7737672 0.40781492 -0.016022146 7763822
1.7756897 0.41042173 -0.016101301 7961200
1.7777621 0.4121874 -0.016145647 8421751
1.7801073 0.41445613 -0.015882313 8816514
1.6903291 0.31425023 -0.015492558 10131837
1.6919241 0.31605637 -0.015365839 9013875
1.6937839 0.31849903 -0.015670896 8684907
1.6957755 0.32048017 -0.015569687 9933946
1.6975135 0.32298499 -0.015745401 9999997
1.6997564 0.32569546 -0.015606582 9868667
1.7011846 0.32769471 -0.01604104 10000252
1.703624 0.32916367 -0.015455723 10066290
1.7611666 0.39506507 -0.017830074 1381380
1.7619028 0.39760572 -0.016885161 2300935
1.7647089 0.40045601 -0.018241048 328452
1.7658951 0.40296084 -0.017394781 1248520
1.7680959 0.40551484 -0.016761303 5063730
1.7700497 0.40687013 -0.016546309 6183758
1.7716022 0.40892059 -0.016522229 4868431
1.7732486 0.41039717 -0.017528296 2960416
1.7760584 0.41418278 -0.017179608 6249546
1.7780259 0.41647977 -0.017291069 7894372
1.7794888 0.41898352 -0.017008007 8487277
1.7656952 0.40554833 -0.01762706 591622
1.7668121 0.40893567 -0.018094063 1248781
1.775296 0.41694587 -0.017473876 1512713
1.7778101 0.42201883 -0.019482374 2894099
1.7791765 0.42309648 -0.018375874 6512704
1.7776902 0.42554635 -0.019963741 2104581
1.7477307 0.3285014 0.0058595538 198662
1.7478373 0.32960516 0.0067542195 132876
1.7501969 0.33178097 0.005096674 395019
1.7540841 0.33741456 0.0058990717 1777162
1.7563345 0.33889824 0.0048065186 1052427
1.7419279 0.32595438 0.003847301 1447460
1.7431457 0.32722223 0.0046137571 1118494
1.745805 0.32958287 0.0047212839 1316122
1.7471981 0.33188409 0.0048108101 1776672
1.7493992 0.33417726 0.0046638846 1513754
1.7515626 0.33614546 0.0050526857 1184529
1.7534199 0.3382982 0.0052511692 1052683
1.7557025 0.34090233 0.0058431625 855306
1.7377229 0.32476389 0.0029497147 2960948
1.7397994 0.32676882 0.0030836463 3092787
1.7415903 0.32925236 0.0033447742 3092272
1.7436366 0.33132309 0.0035905838 2829100
1.7458608 0.3328985 0.0038400292 2434085
1.7478495 0.33488184 0.0041975975 2105120
1.7494752 0.33675015 0.004724741 1776154
1.7316635 0.32222754 0.0013853312 3157311
1.7339758 0.32406646 0.0016424656 4211018
1.7357249 0.32619768 0.0019837618 4079942
1.7379282 0.32800406 0.0025532842 3750458
1.7398 0.32966262 0.0026146173 3421243
1.7265424 0.3200199 -0.00034457445 7762274
1.7278223 0.32092655 0.00038522482 9276053
1.7296195 0.32363319 0.00024938583 9079439
1.7318275 0.32523423 0.00075185299 6645358
1.7335794 0.32687062 0.0018057227 4474458
1.7241478 0.32052541 -0.0010769367 10331064
1.7260776 0.32287633 -0.0011737943 8420987
1.727632 0.32494277 -0.00091648102 10657687
1.7294967 0.32618874 0.00015437603 11645357
1.7206281 0.32038587 -0.0028990507 2634045
1.72183 0.32218331 -0.0027899742 1383457
1.7239575 0.32418454 -0.0024041533 3355437
1.7251973 0.32588017 -0.0015178323 5066050
1.7161006 0.32024628 -0.0053263903 1973538
1.7179646 0.32166618 -0.0041247606 1907999
1.7201407 0.32357943 -0.0039994121 1776409
1.7216133 0.32570487 -0.0034072995 1776661
1.7234352 0.32742029 -0.0023418069 1121037
1.7142663 0.32148594 -0.0061674714 1578526
1.7159982 0.32333583 -0.0053621531 1710616
1.7180582 0.32525843 -0.0053703785 2236697
1.7197735 0.32653344 -0.0037118196 2039319
1.7123176 0.32256085 -0.0069029331 1316384
1.7143064 0.32493877 -0.0069789886 1579026
1.7156276 0.32661104 -0.006356895 2302742
1.7086939 0.32222271 -0.0095422864 8686193
1.7098067 0.32382393 -0.0082154274 1645866
1.7122144 0.32635075 -0.0082524419 1185039
1.7134134 0.32815987 -0.0090432167 1448207
1.696986 0.31288451 -0.011403918 9671286
1.7044816 0.3218348 -0.010495901 9474683
1.7064822 0.32383168 -0.010256112 8225398
1.7074687 0.3253662 -0.0093362331 2896707
1.710101 0.32799226 -0.010035574 1844002
1.7110102 0.32994473 -0.0097247958 922897
1.7690904 0.39635146 -0.012039661 7831166
1.7698781 0.39805061 -0.011770666 7699838
1.7725837 0.40086663 -0.011904478 7501948
1.7750816 0.40267807 -0.011627436 3488060
1.776298 0.40492296 -0.012306392 6712947
1.7791831 0.40864241 -0.012130618 7633791
1.6928153 0.31245369 -0.010800302 8948590
1.6952121 0.31374371 -0.012101829 9539966
1.6961468 0.31667936 -0.011838794 9737594
1.6984658 0.31868786 -0.011638105 9934975
1.7003587 0.32083392 -0.011223078 9737597
1.7022811 0.32323557 -0.011307776 9474432
1.7044804 0.32538807 -0.011436403 8883077
1.7061224 0.32782483 -0.011786699 6514797
1.7079148 0.32974792 -0.011181355 4015421
1.7606583 0.39131963 -0.013780713 1053696
1.7653428 0.39600921 -0.0124228 8421234
1.7673541 0.39779383 -0.012732983 8225153
1.7696881 0.4005425 -0.011923552 7765118
1.7708921 0.40331006 -0.01190269 7436155
1.7728474 0.40500969 -0.012825012 7370616
1.7745578 0.40684235 -0.012182355 7107448
1.7764697 0.40935516 -0.012632251 6778224
1.7781527 0.41163313 -0.012715757 7370100
1.7800775 0.41403437 -0.012654662 7962236
1.6906261 0.31345218 -0.013611555 9474694
1.6925175 0.31553334 -0.013258934 8751481
1.6945381 0.31784183 -0.013086796 9540482
1.6962368 0.3198806 -0.013734996 9934725
1.6989129 0.32294142 -0.013943613 9737609
1.700094 0.32465184 -0.01391232 9672071
1.7021344 0.32700276 -0.013558447 9343110
1.7043815 0.32922816 -0.013771892 9211518
1.7060419 0.33114862 -0.012736261 7436138
1.7594547 0.39235026 -0.01423806 921096
1.7637978 0.39852262 -0.012634456 6775868
1.7652214 0.40054214 -0.013637662 8749670
1.7669767 0.40203279 -0.013476133 8619392
1.7691423 0.40407765 -0.01313293 8094081
1.7705458 0.40691549 -0.013129175 7239285
1.7728071 0.40904951 -0.013237 7633530
1.77407 0.4111408 -0.012927055 8356998
1.7766101 0.41354775 -0.014258981 7698291
1.7785647 0.41572064 -0.014076531 6579813
1.6905744 0.31737787 -0.014609098 9145720
1.6926987 0.31956524 -0.014312625 9145461
1.6946518 0.32195294 -0.014674842 9999996
1.6964843 0.32420141 -0.01461494 10000515
1.6984491 0.32652193 -0.014313638 9737860
1.700281 0.3289035 -0.014383614 9606018
1.70254 0.33091187 -0.014316261 9408637
1.7040467 0.33292186 -0.013664484 8685178
1.7614958 0.39836174 -0.015772283 1380102
1.7630734 0.40091628 -0.015025079 4800544
1.7644954 0.40394282 -0.014781296 7629654
1.7668819 0.40584648 -0.014865816 8092008
1.7690538 0.40840679 -0.01524967 7566437
1.7706337 0.41058815 -0.015907466 5723722
1.7730677 0.41257203 -0.015693069 8026728
1.7747314 0.41509318 -0.015418589 8816255
1.7766554 0.41762221 -0.015059948 7961463
1.7785538 0.41943842 -0.015522897 8882563
1.7802565 0.42193484 -0.015105069 7895926
1.6905857 0.32137924 -0.014998674 8948082
1.6925942 0.32363975 -0.01487273 9605494
1.6943319 0.32567298 -0.015115261 10131584
1.6962317 0.32788354 -0.01519686 10000510
1.6982086 0.33006322 -0.01521939 9671808
1.700133 0.33246171 -0.015094578 9605756
1.7016776 0.33453637 -0.014781475 9343104
1.7625732 0.40600771 -0.015809894 2496776
1.7649893 0.40807974 -0.016362429 2299915
1.7677555 0.40932542 -0.016637862 3681821
1.7684352 0.4124819 -0.016191721 5854273
1.7707036 0.4149847 -0.016072273 6775895
1.7729565 0.41756982 -0.016000509 8157805
1.7745285 0.41950107 -0.015753627 8816000
1.7764452 0.42122132 -0.015955031 8948356
1.7788395 0.42386377 -0.016678095 9079430
1.7803383 0.42599452 -0.016702712 9210482
1.6905961 0.32532871 -0.015610933 7895920
1.692528 0.32670295 -0.015412569 9473661
1.6944077 0.32923788 -0.015740454 10131841
1.6962802 0.3312555 -0.01564157 10395261
1.6991315 0.33434069 -0.015930891 9145986
1.7658349 0.41161191 -0.019200087 262915
1.7669736 0.41420823 -0.017658055 1116931
1.7714007 0.41858572 -0.016909122 788484
1.7777331 0.42618632 -0.018109441 4537869
1.7785733 0.42863148 -0.017872572 7104287
1.7803116 0.42932421 -0.016687751 9670786
1.762321 0.41187227 -0.018286586 854533
1.7655897 0.41566098 -0.017739177 262658
1.7459054 0.32995969 0.008089304 461063
1.7476366 0.33031708 0.0080122948 132359
1.7540547 0.33931392 0.0088573098 1184528
1.7422593 0.32939172 0.0069890022 1184541
1.7441252 0.33078307 0.0076915026 790037
1.7463684 0.33306533 0.0072434545 1118744
1.748105 0.33551025 0.0070670247 1316377
1.750227 0.33775145 0.0069997311 1316116
1.7519076 0.33981878 0.0076465011 1184272
1.7540622 0.3421427 0.007427752 921610
1.755837 0.3431477 0.0080173016 986634
1.7373253 0.32662576 0.0050538182 2697778
1.7386433 0.32797408 0.0055855513 2895412
1.7401063 0.33036613 0.005944252 3092534
1.742412 0.33249074 0.0058140755 2960687
1.7445383 0.33447903 0.0060303211 2566186
1.7465582 0.33648014 0.00639081 2105378
1.7484751 0.3382448 0.0067602992 1579034
1.752171 0.34355462 0.0071027279 658449
1.7325199 0.32522887 0.0041577816 3157578
1.7345767 0.327479 0.0042582154 4343121
1.7365855 0.32946163 0.0045763254 3948360
1.738734 0.33119458 0.0049686432 3684666
1.7405939 0.33303666 0.0056931973 3355699
1.7438715 0.33630192 0.0056937933 2631710
1.7270484 0.32294607 0.0017975569 11974078
1.7284887 0.32442641 0.0028008819 9868705
1.7305992 0.32670581 0.0027294159 9934749
1.7325308 0.32835424 0.0035028458 6514037
1.7345898 0.32975793 0.0038740635 4146273
1.722949 0.32213044 0.00074911118 7108230
1.7248745 0.3238101 0.0016051531 8621216
1.7268565 0.32609087 0.0015209913 8749689
1.7284586 0.327793 0.0019734502 10921372
1.7308388 0.32980913 0.0029723644 9737108
1.7207456 0.32330459 -0.00012946129 1252387
1.7229326 0.32575697 -7.2002411e-05 1514011
1.7249546 0.32737935 0.00027573109 3749674
1.7258959 0.328857 0.0014161468 6184267
1.7173728 0.32310879 -0.00185287 2105123
1.7189333 0.32491302 -0.0013909936 1907994
1.7208335 0.32720482 -0.0013301373 1973528
1.7226869 0.32839698 -0.00056815147 1776656
1.7150658 0.32424182 -0.0027276278 1776668
1.7171621 0.32672042 -0.0031812191 1907733
1.7187103 0.32800674 -0.0023938417 2236440
1.7117734 0.32410073 -0.0051062107 1513489
1.7132339 0.32585567 -0.0047273636 1512980
1.7149611 0.32794058 -0.0042378902 1776146
1.7164836 0.32948321 -0.0034325123 2105364
1.7099777 0.32556903 -0.006124258 921877
1.7111449 0.3276816 -0.0059859753 1381906
1.7127962 0.32924998 -0.0054200888 1644817
1.7149252 0.33075744 -0.0047855377 2039571
1.7076571 0.32697332 -0.0074107647 1448740
1.7094502 0.3294751 -0.0074349046 987410
1.7105668 0.33107036 -0.0066357851 1381647
1.6902548 0.31221825 -0.010495424 9211508
1.7031083 0.3268016 -0.0099170804 9014650
1.7054651 0.3288309 -0.0087300539 2435897
1.7074779 0.3314445 -0.0088070035 988697
1.7081497 0.33252728 -0.0083004832 1054991
1.6937284 0.32016969 -0.011341035 9803388
1.6952833 0.32142878 -0.011108696 10000256
1.6976368 0.32340747 -0.010920227 9737598
1.7000096 0.32532704 -0.010623634 9540479
1.7010306 0.3284722 -0.01053834 9343360
1.7032154 0.33042806 -0.010519266 5857906
1.7054896 0.33285761 -0.010585785 3621446
1.7058432 0.33447534 -0.0097060204 792861
1.7666174 0.40414685 -0.012235641 8487809
1.7679951 0.40586495 -0.012121558 7699323
1.7715052 0.41062468 -0.012448847 7436414
1.7739213 0.41281331 -0.01232338 8028291
1.775394 0.41418946 -0.011786342 7699840
1.7777492 0.41650689 -0.011669338 7699584
1.7796383 0.41999108 -0.011895001 7699840
1.6908772 0.32082427 -0.012107432 8817530
1.6929646 0.32227021 -0.012075365 9803393
1.6947832 0.32537735 -0.010953546 9934720
1.6968181 0.32687402 -0.01168251 9606533
1.6983433 0.32944816 -0.012199104 9409412
1.7008066 0.3317498 -0.012059271 8883341
1.7036417 0.33439171 -0.01227206 7304819
1.7042747 0.3358838 -0.011423826 4477009
1.7617114 0.40201819 -0.013960004 1710080
1.7636877 0.40481097 -0.013130605 5919786
1.7643639 0.4062798 -0.012474895 7104590
1.7678403 0.40968049 -0.013191342 8159614
1.7699654 0.41170913 -0.012674332 8094083
1.771432 0.41401219 -0.012341499 8357255
1.7736912 0.4165222 -0.012922406 8356999
1.7755538 0.41859531 -0.012482941 6580844
1.7772081 0.42117363 -0.012944937 8291203
1.7793813 0.42312562 -0.012901783 8291204
1.6912286 0.32477766 -0.014034986 9277051
1.6932876 0.3267011 -0.013953686 10000519
1.6951404 0.3291617 -0.013954937 9803654
1.6972173 0.33154124 -0.013790429 9474949
1.6993554 0.33360142 -0.013828695 9474694
1.7014699 0.33601385 -0.013550401 9014405
1.702646 0.33785886 -0.012896001 7304313
1.7627064 0.40550762 -0.01475054 2893083
1.7650878 0.40886378 -0.015117288 9142632
1.7660145 0.41028798 -0.013843894 8683891
1.7673845 0.41333556 -0.014006615 9276544
1.7689719 0.41497499 -0.012880683 8817288
1.7724319 0.41812021 -0.014199853 6579047
1.7737637 0.4201116 -0.014476776 8224371
1.7756064 0.42280692 -0.014442861 8750978
1.7777622 0.42455304 -0.014617443 8882568
1.7796478 0.42692667 -0.014447212 7369584
1.6911172 0.32816935 -0.014576972 9539960
1.6931647 0.33062816 -0.014787078 9934722
1.6953316 0.33281374 -0.014603734 9803394
1.6970029 0.33547258 -0.014721096 9606273
1.6991985 0.33763826 -0.014419973 9408642
1.7008111 0.33983791 -0.014060378 9014403
1.7637419 0.4122225 -0.015923262 4536875
1.7654941 0.41471159 -0.01528883 6708294
1.7679486 0.41720748 -0.016264796 5261622
1.7698919 0.41900378 -0.01625669 7169876
1.7715999 0.42178905 -0.015681565 7104863
1.773222 0.42400634 -0.01571703 8815731
1.7755406 0.42628002 -0.015374422 8421760
1.776969 0.42843139 -0.015537798 7829362
1.7793384 0.43096828 -0.015629828 7039842
1.6916084 0.33237785 -0.014915824 10263422
1.6929739 0.33434004 -0.015189886 10066049
1.6950805 0.33692515 -0.015301168 9803390
1.6973946 0.33946317 -0.015647471 9803648
1.6986985 0.34141183 -0.01527828 9606526
1.7616725 0.41415161 -0.017478406 985862
1.7639036 0.41677397 -0.01707381 1576709
1.7661371 0.41855919 -0.017110109 1643534
1.7676916 0.42106241 -0.016535044 4406063
1.7696371 0.42321467 -0.016480803 3682591
1.7717162 0.42614841 -0.015974641 6183765
1.7731452 0.42856717 -0.016107261 9211019
1.7756948 0.42992705 -0.017033458 6841939
1.7776185 0.43225825 -0.016790032 6183741
1.7788135 0.4349646 -0.01665318 6644568
1.7612727 0.41739655 -0.017510593 591875
1.7669752 0.42344272 -0.01723218 2105100
1.7658328 0.42546475 -0.01885283 2762264
1.7736633 0.4321121 -0.019497275 2433547
1.7753086 0.43367046 -0.018916368 3287562
1.7772703 0.43590766 -0.017725945 8354135
1.7770531 0.43890005 -0.01854527 1052173
1.7667036 0.42735893 -0.018275738 2631698
1.7654507 0.42895275 -0.01943326 3289115
1.7734067 0.43582302 -0.019992888 3024649
1.7741084 0.43779677 -0.019404173 4142353
1.7479227 0.33471465 0.010958493 197644
1.7428169 0.3322317 0.0093987584 1052186
1.7458701 0.33387089 0.009386301 592149
1.7467102 0.3363626 0.0098748207 723733
1.7489238 0.33867109 0.0095865726 790034
1.7508991 0.34119111 0.0094840527 790028
1.7526433 0.3431052 0.0095045567 855563
1.7541885 0.34523857 0.010010958 986891
1.7561523 0.34689236 0.010793209 1052428
1.7370629 0.32956082 0.0080142021 2631478
1.7394242 0.3308571 0.0088243484 1776421
1.7411424 0.33331007 0.008343935 2698035
1.7431765 0.33546019 0.0082929134 2566189
1.7448913 0.33784777 0.0083609819 2368807
1.7474201 0.33993405 0.0086368322 1710621
1.7494013 0.34170443 0.0092048645 1250323
1.7512462 0.34377944 0.0095623136 789771
1.7526101 0.345447 0.010036528 921356
1.7313786 0.32646561 0.005300343 4276575
1.7332568 0.32816279 0.0068930387 3223883
1.7351873 0.33051229 0.0068859458 4475481
1.7376323 0.33261967 0.0071341991 3685187
1.7395074 0.33469474 0.0072776675 3553081
1.741586 0.33659422 0.0078045726 3092274
1.7429738 0.33861655 0.0084614158 2960425
1.7454135 0.34053862 0.0082080364 2105117
1.7275929 0.32578355 0.0045607686 11382203
1.7295779 0.3276459 0.0051292181 10132137
1.7316296 0.32973671 0.0055065155 9211284
1.7334098 0.33155656 0.0059374571 5790832
1.7355604 0.33360392 0.0067436695 3160670
1.7243999 0.32488734 0.0035219193 8226712
1.7254195 0.32692742 0.0039343834 6975870
1.7275445 0.32938474 0.0040394068 9407363
1.729435 0.33076864 0.0047072768 11315878
1.7308722 0.33231223 0.0057262182 13027269
1.7204239 0.32510269 0.0018038154 1645598
1.7217135 0.32658577 0.0025477409 1580322
1.7236303 0.32867736 0.0024592876 1513235
1.7252526 0.33046746 0.0030065775 3420967
1.7264156 0.33216959 0.0038398504 9475709
1.7181888 0.32589656 0.0010843277 2105378
1.7199368 0.3282426 0.00065886974 1907735
1.7216808 0.33022678 0.0013147593 2039319
1.7229218 0.33189112 0.0019336343 1645586
1.7139636 0.32594734 -0.0011993647 1776665
1.7159097 0.32740331 -0.00031715631 1644823
1.7176948 0.32961404 -0.00031900406 1710354
1.7189208 0.33147269 0.00022625923 2302487
1.7121545 0.32692599 -0.0022089481 1513236
1.7142999 0.32931042 -0.0019729137 1447440
1.7154224 0.33105803 -0.001460433 1644560
1.7169099 0.33251339 -0.0012418628 2236436
1.7097156 0.32868809 -0.0034562349 1250066
1.7121263 0.33095688 -0.0033477545 1381646
1.7133062 0.33275235 -0.0027958155 1579023
1.705996 0.3295933 -0.0053369999 725776
1.7076826 0.33018738 -0.0043514371 987150
1.7099297 0.33229464 -0.0051061511 1381648
1.7112198 0.33404487 -0.0039942265 1579023
1.7049007 0.3300932 -0.0067286491 1451306
1.7061901 0.33151186 -0.0064128637 789779
1.707963 0.33406794 -0.0062194467 1118478
1.7097497 0.33573502 -0.0047877431 1644559
1.7025664 0.33159435 -0.0079169273 5529184
1.7044082 0.33324426 -0.0076903105 527900
1.7059869 0.33569449 -0.0078206062 725776
1.6924136 0.32473356 -0.010890543 9869180
1.6984866 0.33164299 -0.011129081 9540480
1.7009127 0.33240646 -0.0096716881 8685951
1.7021337 0.33493555 -0.0091625452 1845308
1.7042621 0.33762205 -0.0092955232 1056038
1.7045357 0.33938861 -0.0088082552 330760
1.7720897 0.41698587 -0.011832118 7831427
1.7795748 0.42624384 -0.011894584 7765378
1.6925843 0.3272233 -0.011020422 10000510
1.6945276 0.32981396 -0.011303365 9803647
1.6962836 0.33208454 -0.011333048 9606272
1.6980987 0.33440262 -0.011201143 9277830
1.699913 0.33657169 -0.011108756 7436171
1.7022069 0.33916777 -0.011168659 4805989
1.703136 0.34104431 -0.010567427 1320498
1.7653921 0.41152781 -0.012538493 8223848
1.7662858 0.41457874 -0.013089061 8553848
1.7689037 0.41642118 -0.012569308 8422789
1.7708226 0.41859531 -0.012654901 8423047
1.7727432 0.42126876 -0.012035251 7831427
1.7746835 0.42296058 -0.012388945 8028548
1.7764693 0.4259097 -0.012280583 7962755
1.7778778 0.42763734 -0.011896849 7765379
1.7796898 0.42965525 -0.012614489 8028292
1.6922832 0.33187479 -0.012697577 9672324
1.6942098 0.33419645 -0.012827396 9540741
1.6965544 0.33650106 -0.012428761 9278092
1.6979535 0.33856404 -0.013109624 9146256
1.70008 0.34088725 -0.012765765 8290953
1.7014301 0.3428371 -0.012276649 6121072
1.7646303 0.41612375 -0.014171898 7693914
1.7666844 0.41805881 -0.013307214 9078908
1.7689288 0.42045116 -0.012978077 8751240
1.770427 0.42245913 -0.013096333 8488582
1.7725146 0.4249022 -0.012703776 8423046
1.7744063 0.427297 -0.012507319 8423046
1.7759514 0.42936736 -0.013380706 8224896
1.7779505 0.43160462 -0.013107181 8291206
1.7802107 0.43425721 -0.013213694 8422790
1.6919948 0.33554906 -0.013999224 9803396
1.6941928 0.33777559 -0.013925076 9606277
1.6961014 0.34016329 -0.01402688 9474692
1.6980337 0.34268916 -0.013875663 9211782
1.6996014 0.34488434 -0.013257504 8356742
1.7628 0.41707164 -0.015294433 1904910
1.7641064 0.41990137 -0.014491618 3483160
1.7670413 0.42240244 -0.014298737 6184017
1.7685856 0.42450327 -0.015249729 8485993
1.7705855 0.42669106 -0.014891446 7368285
1.7728496 0.4286108 -0.015128672 8618355
1.7746592 0.43140543 -0.015284836 7039845
1.7761581 0.43322539 -0.015060723 8684408
1.7786896 0.43569762 -0.014883041 8947846
1.7803421 0.43809342 -0.015392363 7302244
1.6921811 0.33977485 -0.014852643 9868929
1.6940229 0.34203184 -0.014842629 9540481
1.6959937 0.34425265 -0.014627159 9408896
1.6978958 0.34631276 -0.014196396 9145734
1.7618129 0.41972315 -0.015219808 1051143
1.7627485 0.42206544 -0.017214656 1710094
1.7647471 0.42312342 -0.016461194 1510410
1.7670145 0.42618603 -0.016430914 3353619
1.769171 0.42859733 -0.016308069 7103040
1.7704959 0.4308055 -0.016108453 5393985
1.7724485 0.43290114 -0.015808046 8355186
1.7737954 0.43564343 -0.015823185 7434089
1.7760894 0.43748426 -0.016016245 8815475
1.7782032 0.43961716 -0.016202569 6907740
1.7799866 0.44191855 -0.016046047 8945767
1.6915979 0.34362191 -0.015750349 10132096
1.6940759 0.34535193 -0.015421867 10000765
1.6961172 0.34736013 -0.014956892 9737852
1.7621312 0.42575902 -0.017456114 2499361
1.7647371 0.42813748 -0.017118454 2893070
1.7661425 0.4298315 -0.017024517 2959115
1.7682852 0.43330622 -0.017287433 6643535
1.7701675 0.43439561 -0.016346157 6446416
1.7715911 0.43715125 -0.016726077 5526346
1.7744145 0.43975568 -0.017317176 6051905
1.776053 0.44121045 -0.016817927 7696732
1.7781501 0.44425118 -0.016791403 8615767
1.7804062 0.44600153 -0.017035723 10194271
1.7634547 0.4320218 -0.01931262 2960156
1.7664289 0.43376273 -0.018078506 1775368
1.7701612 0.43868679 -0.019210398 2563851
1.771587 0.44012219 -0.019043982 5260828
1.7730542 0.44260591 -0.018124938 9736043
1.7790332 0.44762576 -0.017563462 10390626
1.7617736 0.43303496 -0.019711077 3223337
1.7673743 0.439825 -0.019762635 2761475
1.7438488 0.33465743 0.011056066 724250
1.7461662 0.33767396 0.010791898 789524
1.7474294 0.3397631 0.011869788 263689
1.7496306 0.34215343 0.011506259 723981
1.7512646 0.34394014 0.011975288 723977
1.7542109 0.34731513 0.011519849 1052426
1.75472 0.3484953 0.012868762 986636
1.7378404 0.33217239 0.010896325 1842225
1.7401083 0.33465743 0.010930121 2435379
1.7420495 0.33679652 0.010925531 2105644
1.7440614 0.33896446 0.010810673 2040101
1.7460394 0.34111077 0.011122882 1513243
1.7480472 0.34311384 0.011211157 1250325
1.7500855 0.34541291 0.011315942 1118478
1.7522548 0.34738302 0.011653483 987145
1.7537906 0.34992617 0.012300074 723973
1.7322598 0.32976431 0.0089274645 2631755
1.7340474 0.33153862 0.0097712874 4211806
1.7361312 0.33358938 0.0094106197 4080726
1.7381201 0.33585078 0.0095570683 3619648
1.7400665 0.33795673 0.0097241998 3290168
1.7423106 0.34009123 0.010020256 2631726
1.7447879 0.34232467 0.010380805 2105634
1.7466586 0.34466326 0.010867119 1513240
1.7478255 0.34693354 0.011197686 1644827
1.7288294 0.32911867 0.0076233149 10461365
1.7303108 0.3308152 0.0080697536 10329506
1.7324159 0.3331126 0.0081383586 8093066
1.7343917 0.33521074 0.0085747242 4738919
1.736429 0.33691454 0.0092127919 3751500
1.7379277 0.33900958 0.009639442 3816505
1.7398965 0.34054422 0.0092718005 3421487
1.7252078 0.32840168 0.0060321093 7503770
1.7264762 0.33020502 0.0067085028 8751247
1.7284384 0.33240014 0.0066712499 10920859
1.7301993 0.33417684 0.0072694421 12040117
1.7319622 0.3361448 0.0080829859 8618888
1.7207637 0.32819533 0.0041178465 2171429
1.7226911 0.32974327 0.0050262809 1646368
1.7245531 0.33196461 0.005226016 1973012
1.726146 0.33370095 0.005916357 5196086
1.727906 0.33546668 0.0068657398 9471867
1.7171299 0.32734746 0.0024559498 2368801
1.7186329 0.32893562 0.0040355325 2171170
1.7207103 0.33128768 0.003287971 1973530
1.7222822 0.33320719 0.0040168762 2105112
1.7236925 0.33544093 0.0045585632 1579276
1.7146013 0.32894582 0.0020130277 1776407
1.7168992 0.33090717 0.0018392205 1381908
1.7185667 0.33280897 0.0024126172 1907733
1.7201617 0.33473134 0.0030067563 2565403
1.7112894 0.32877898 -0.00063741207 1841939
1.7128713 0.33005369 0.00080525875 1250064
1.7150352 0.33254266 0.00058990717 1447439
1.7164595 0.33414167 0.00099396706 1579025
1.7175673 0.336658 0.001731813 2105110
1.7091761 0.33006507 -0.0010109544 1578773
1.7107835 0.33171749 -0.00087291002 986893
1.7129426 0.33417243 -0.00072044134 1250060
1.71444 0.33589447 2.0444393e-05 1513230
1.7069705 0.33155751 -0.0018795729 1447441
1.7087076 0.33386952 -0.0023415685 921099
1.7106493 0.33567196 -0.0023524761 1118731
1.7121693 0.33759403 -0.0013254285 1447436
1.7045579 0.33275694 -0.0037668347 922384
1.7069991 0.33505732 -0.0041968226 986894
