# .PCD v0.7 - Point Cloud Data file format
VERSION 0.7
FIELDS x y z rgba
SIZE 4 4 4 4
TYPE F F F U
COUNT 1 1 1 1
WIDTH 1164
HEIGHT 1
VIEWPOINT 0 0 0 1 0 0 0
POINTS 1164
DATA ascii
1.3081683 0.16743433 0.092827305 9411008
1.3104453 0.16940874 0.09271498 8095413
1.3121769 0.17194849 0.092423737 5660551
1.3140563 0.17427778 0.09150809 922671
1.3163822 0.17556566 0.091861911 463148
1.3179567 0.17669678 0.091103271 661823
1.3244374 0.18602741 0.090865776 198696
1.326566 0.18724966 0.090856075 2567247
1.3520904 0.21541005 0.083124168 10263708
1.3545229 0.21788633 0.08265654 10329501
1.3563907 0.22012025 0.082702637 10264224
1.3584635 0.22227764 0.08267501 10330276
1.3604009 0.22449756 0.082788333 10396070
1.3623596 0.2267195 0.082927153 10461864
1.3644686 0.22898269 0.083051153 10593192
1.3662066 0.23113686 0.083004132 10593708
1.3683157 0.2329483 0.082919002 10856622
1.370156 0.2353515 0.082785524 11184810
1.4266145 0.29771751 0.069551334 11777731
1.2566569 0.11453915 0.10055587 9017791
1.25826 0.11635256 0.10033642 13029082
1.2600703 0.11824477 0.10083725 12240090
1.2688234 0.12791866 0.099843442 13357779
1.2701788 0.12932998 0.099373728 13160401
1.2720377 0.13161635 0.098727524 13094351
1.2741791 0.13415056 0.097850434 12765643
1.2761691 0.13629037 0.097311139 12765385
1.2782471 0.13796556 0.097093746 12568007
1.2802389 0.14033228 0.096517749 12370886
1.2823193 0.14243412 0.096210763 12107714
1.2841361 0.14465988 0.095500603 11976130
1.2864525 0.14665282 0.09529341 11844801
1.2883205 0.14923471 0.094969109 11516095
1.2906902 0.15119392 0.094221815 11121599
1.2922908 0.15339458 0.093887374 10792894
1.2943614 0.1555019 0.09381634 10792638
1.2963076 0.15798861 0.093606457 10792638
1.2980804 0.16031545 0.093004391 10529726
1.3000669 0.16238433 0.092793062 10398144
1.3022683 0.16434407 0.092812002 9937600
1.3044169 0.16689003 0.092509769 9345473
1.3063748 0.16909575 0.092578441 8424121
1.3086739 0.17164034 0.091407686 4212328
1.3107158 0.17331398 0.090534836 987691
1.3124349 0.17477697 0.091027483 790828
1.3383552 0.20393461 0.08318983 10198171
1.3398485 0.20596397 0.083074272 10263708
1.3422605 0.20848382 0.082883053 10263708
1.3447194 0.21041578 0.083064348 10263708
1.3464437 0.21271265 0.082714811 10263968
1.3486261 0.21475673 0.082533114 10264481
1.3507612 0.21712399 0.082317114 10264484
1.3526131 0.21934652 0.082292862 10198692
1.3544116 0.22159129 0.082247645 10264742
1.3563287 0.22380018 0.082396738 10396328
1.3584756 0.22601122 0.082429178 10462122
1.3606391 0.228001 0.082268633 10790571
1.3620336 0.22983247 0.082067028 10987431
1.4224417 0.29716492 0.069450699 11975111
1.2550218 0.11522478 0.098630168 9938120
1.2560871 0.11749226 0.098558605 12502998
1.2580976 0.11981702 0.09879908 12831963
1.2748704 0.13818926 0.096442178 12765643
1.2781801 0.14155072 0.095858067 12173765
1.2801571 0.14356595 0.09545175 12239558
1.2821248 0.14611268 0.0945182 11647425
1.2849891 0.14849138 0.094582051 11318977
1.2865046 0.1507346 0.09384802 10924481
1.2881777 0.15251774 0.093520291 10726847
1.2905536 0.15471554 0.093248628 10726590
1.2930655 0.157296 0.093016043 10923709
1.2943491 0.15845376 0.093066297 10923710
1.2988586 0.16413748 0.092117965 9805761
1.3039308 0.1723693 0.089144699 1250351
1.3065989 0.17284513 0.089042045 1250605
1.3081086 0.17393434 0.088627122 1119276
1.3262036 0.19433004 0.083291404 10197915
1.3285079 0.19654357 0.083305985 10198171
1.3305404 0.19856626 0.083253853 10132638
1.3325266 0.20082384 0.082982369 10067104
1.3347249 0.20305252 0.082860358 10198431
1.3366832 0.20536429 0.08263512 10198688
1.3385825 0.20751667 0.082467347 10264225
1.3404295 0.20962715 0.082332827 10264225
1.3425833 0.21196383 0.082227789 10264484
1.3447118 0.21408939 0.082170859 10330276
1.3466768 0.21633267 0.082034566 10396068
1.3487252 0.2184062 0.082017824 10330277
1.3504972 0.22067511 0.081754118 10461605
1.3527594 0.22302455 0.081758603 10790052
1.4202647 0.29705864 0.068991423 12172491
1.2531667 0.11676484 0.096542522 11384522
1.2540808 0.11881334 0.096750244 12437204
1.2558291 0.12090778 0.096887141 13226459
1.3024664 0.1724984 0.087058753 1053483
1.3046519 0.17363822 0.087069504 1382191
1.3065376 0.17431045 0.086767301 1513775
1.3187721 0.1894117 0.083005346 10198172
1.3206357 0.1913411 0.083043754 10132380
1.3228478 0.1931653 0.082974046 10132638
1.3244004 0.19566518 0.082849719 10132639
1.3265402 0.197891 0.082698032 10198431
1.3287148 0.20010412 0.0825883 10067104
1.3306763 0.20230675 0.082583264 10198433
1.3326011 0.20455754 0.082435697 10198689
1.3346648 0.20694727 0.082274333 10264482
1.3367577 0.20892727 0.082061127 10198949
1.338747 0.2110607 0.081708245 10199464
1.3405294 0.21307963 0.081649646 10330275
1.3434165 0.21581799 0.081544295 10592673
1.2509506 0.11783457 0.094694838 8357772
1.2522399 0.12015653 0.095072508 12042704
1.2542884 0.12267047 0.094769321 13160925
1.2985306 0.1713022 0.085260697 1712702
1.300627 0.17247719 0.085361011 1185328
1.3031868 0.17362517 0.085250832 1448499
1.3129252 0.1862489 0.082133129 3822719
1.3147764 0.18829489 0.082310922 9147293
1.3165944 0.19045323 0.082526803 10067361
1.3188095 0.19273359 0.082532614 10067362
1.320882 0.1950295 0.082604505 10067362
1.3227066 0.19726801 0.082203753 10133156
1.3248527 0.19936556 0.081917919 10067879
1.3265578 0.20139337 0.082009375 10198948
1.2470615 0.11725342 0.092783608 3883075
1.248698 0.11962587 0.093528599 7634315
1.2506045 0.12124181 0.092606917 9542578
1.252247 0.12385762 0.09307535 10464964
1.2868605 0.16150767 0.083846152 6058662
1.2887309 0.16335082 0.083855532 5991839
1.2907014 0.16552269 0.083767921 5070216
1.2929058 0.16791445 0.083466277 5003389
1.2948017 0.17007858 0.083967902 4015202
1.2969379 0.1716857 0.08426214 3027532
1.3088353 0.18589926 0.081245452 1914211
1.3107729 0.18731278 0.081552438 5991048
1.312793 0.18949419 0.081892475 10001573
1.3149322 0.19193244 0.08197014 9607594
1.3167846 0.1936239 0.082058363 10067107
1.2410612 0.11410207 0.091058716 9408912
1.2430365 0.11641169 0.091337293 8422284
1.2448046 0.11838865 0.092175543 3621709
1.2469716 0.12053633 0.09082038 6780286
1.2483988 0.12298101 0.091377974 12699863
1.2498138 0.12438846 0.091987595 9608122
1.2597179 0.1343919 0.087269574 8296129
1.2608745 0.13593358 0.087074116 10135998
1.2627 0.13792241 0.086722545 10528947
1.2645844 0.14019126 0.086398229 9872311
1.2666839 0.14236891 0.086105719 9083316
1.2688715 0.1447491 0.08567296 8425134
1.270968 0.14701074 0.085241154 8621480
1.2727684 0.14902574 0.084950387 8489636
1.2748672 0.15139264 0.084615901 8621223
1.2769423 0.15362686 0.084326997 8358826
1.2789407 0.15580863 0.084074467 8555943
1.2810144 0.15812731 0.083835326 8095908
1.2830815 0.16026944 0.083692968 8095906
1.2849932 0.162489 0.083418265 7635099
1.2869775 0.16460651 0.083190054 7700119
1.2889378 0.16686475 0.083055101 6450060
1.2909325 0.16913629 0.083154589 5067636
1.292758 0.1706903 0.083517425 3883099
1.305403 0.18517387 0.080471106 728130
1.3069541 0.18615443 0.080778807 1715542
1.2408442 0.11753976 0.090486526 10329502
1.2432071 0.11989778 0.089463234 9738392
1.2449374 0.12210965 0.090173364 11252153
1.2578176 0.13529706 0.085916281 8558784
1.259271 0.13725811 0.086152814 9740727
1.2610991 0.13967115 0.086021885 10331827
1.2630017 0.14186817 0.085693419 10068399
1.2649393 0.14418787 0.085354686 9213609
1.2669823 0.14627612 0.085081443 8292768
1.2689949 0.14853007 0.084855974 8226976
1.2710385 0.15081608 0.084574431 9147044
1.2728925 0.15296972 0.084181629 9278626
1.2750039 0.1551156 0.08387886 8883866
1.2770001 0.15734428 0.083679847 8687001
1.278964 0.15954363 0.083547451 7700878
1.2809691 0.16177332 0.083175346 7897485
1.2829804 0.16412419 0.082724892 8423316
1.2850826 0.16606706 0.082713366 6646918
1.2871814 0.16824502 0.082805678 4739183
1.2888193 0.1701625 0.082676463 1120822
1.2994776 0.18427503 0.079259589 463666
1.239224 0.1191135 0.088870056 11447722
1.2406347 0.120933 0.088881031 11381674
1.2427301 0.12248248 0.089364797 11316398
1.2561806 0.13667637 0.084354147 8229307
1.257211 0.13894701 0.084657513 9411506
1.2590461 0.14113635 0.08478561 10725805
1.2610633 0.14342391 0.084792428 10725547
1.2633106 0.14545655 0.084706113 9673380
1.2654629 0.14773184 0.084490716 7832476
1.2671795 0.14979422 0.084113523 9410209
1.269172 0.15163416 0.083498031 10068132
1.2713636 0.15425402 0.083810911 6253183
1.2733554 0.15667653 0.082906164 9346211
1.2759383 0.15911263 0.083132133 7109777
1.2803205 0.16407984 0.082367897 8885922
1.2540333 0.13826406 0.082037851 8491703
1.2552693 0.1402055 0.082765028 8753580
1.2570734 0.14257097 0.083187483 10133927
1.2587478 0.1445024 0.083404273 9675431
1.2479339 0.13543129 0.080432698 8229830
1.249665 0.13724774 0.080412686 8754104
1.251775 0.13926917 0.08071506 6715284
1.2532636 0.1417582 0.080946475 7636125
1.2547112 0.14404887 0.081055954 10002342
1.2434542 0.13403821 0.078888163 7370620
1.2459602 0.13635516 0.079264894 8819368
1.2476087 0.13853067 0.079506725 9673649
1.2495149 0.14086998 0.079683244 8753062
1.2512534 0.14290172 0.079559878 8555673
1.2534429 0.14451331 0.079746917 7965599
1.2377288 0.1310299 0.078475997 8949395
1.2396389 0.13331687 0.078143053 8817552
1.2418742 0.13549405 0.078160875 8553865
1.2436761 0.13785946 0.078060657 8817036
1.2455212 0.14012748 0.07822448 8686225
1.2474518 0.14218158 0.078003451 9739429
1.2491903 0.14456171 0.078130573 10134695
1.237779 0.13474506 0.077662006 9738138
1.2397952 0.13695925 0.077265188 9869466
1.2416611 0.13925231 0.076949187 10001053
1.243746 0.14124137 0.076804169 8685448
1.2457169 0.14290339 0.077222772 8160911
1.2376299 0.13801181 0.076504275 10987431
1.2397294 0.14014101 0.07621856 9804967
1.435312 0.26459014 0.099109486 11517669
1.4392662 0.26862055 0.098296821 11647693
1.4287469 0.26057577 0.097683713 11188705
1.4296279 0.26176411 0.098154753 11057379
1.4317892 0.26442564 0.098380841 11123172
1.4336971 0.26655221 0.097809717 11451095
1.4357911 0.26881343 0.097693488 11385040
1.4377116 0.27135336 0.0975236 10924231
1.4387909 0.27358919 0.097558722 12108235
1.4158096 0.25062561 0.098152027 8689872
1.4180238 0.2525475 0.098219536 8755664
1.4198689 0.25505137 0.098442808 8821457
1.4220147 0.25774515 0.097485259 10333656
1.4239624 0.25957817 0.096856147 11319511
1.42576 0.26156092 0.096969306 11122390
1.4281683 0.26377821 0.096970707 11319508
1.4300168 0.26576108 0.096769705 11318989
1.4316905 0.26807773 0.096794181 11647435
1.4333932 0.27031803 0.096912786 11976396
1.4357586 0.27286953 0.09686441 11648212
1.4378384 0.27431971 0.095706403 7505088
1.4403831 0.27651423 0.095384359 6582938
1.4417329 0.27907896 0.094058424 3095927
1.4479685 0.28593254 0.09162204 1118753
1.4078516 0.24531931 0.097293958 8492236
1.4101825 0.24736983 0.096985981 8623820
1.4121945 0.24968404 0.097419694 8689870
1.4139378 0.25186825 0.09715271 9478866
1.4160026 0.25442845 0.097223103 9610453
1.4181283 0.25609207 0.09639433 10661837
1.4198432 0.25853795 0.096215963 11318992
1.4220773 0.26053917 0.096215963 11516367
1.4239398 0.26262569 0.096209988 11384521
1.4261351 0.26488394 0.096302681 11384778
1.4279388 0.26705945 0.096452758 12239057
1.4384358 0.2787739 0.091472074 11447982
1.4417622 0.28260046 0.093270868 134490
1.4437683 0.28495926 0.091295913 197924
1.4458084 0.28746289 0.091178223 723738
1.448457 0.28860509 0.091306075 329239
1.3974193 0.23734349 0.096354797 8558282
1.3999306 0.23986298 0.096553728 8426699
1.4021819 0.24199194 0.096936382 8426442
1.4041885 0.24445337 0.096860185 8821197
1.4060121 0.24697351 0.096464708 9478609
1.4082184 0.24902809 0.096069127 10201550
1.410115 0.25096643 0.095556766 10858443
1.4123571 0.25322896 0.095517486 10727110
1.4141941 0.25545716 0.095426902 11252937
1.4160103 0.25789189 0.095617145 11384521
1.4182293 0.26010299 0.095489219 11450053
1.4203098 0.26193261 0.095738031 11449798
1.4337931 0.27742058 0.090403274 11579568
1.4360871 0.27877533 0.090453193 11382189
1.4446663 0.28936607 0.090897188 263173
1.4486911 0.29377514 0.087913886 5198962
1.3398247 0.17711455 0.10590357 396578
1.3904648 0.23282886 0.0959002 8558026
1.3922019 0.2349388 0.095958643 8558028
1.3941095 0.23709053 0.096053511 8426443
1.3964926 0.23922235 0.096016571 8821195
1.3981738 0.24163765 0.095809996 9280970
1.4002957 0.24358237 0.095237657 9938119
1.4021448 0.24591649 0.094839439 10398150
1.4040313 0.2481603 0.094751433 10595010
1.4060688 0.25000763 0.094850942 10726592
1.4080949 0.25250065 0.095124781 10792385
1.4104981 0.25450367 0.095238924 11581641
1.4121509 0.25659013 0.095189661 12042188
1.4242985 0.27029169 0.089365557 11053481
1.4260285 0.27206397 0.089327559 11119795
1.4283565 0.27449739 0.089211702 11448242
1.430405 0.27662694 0.089622706 11843516
1.4323199 0.27837443 0.089941874 11842740
1.4441166 0.29144841 0.087414049 986652
1.4465696 0.29530865 0.086377703 8028063
1.3346117 0.17521852 0.10413129 658465
1.3364323 0.17647654 0.10509653 592930
1.3800559 0.22510058 0.095726028 8623818
1.3820848 0.22732252 0.095603853 8426440
1.3842905 0.229128 0.095742926 8426440
1.3862519 0.231475 0.095831648 8623562
1.3883587 0.23418987 0.095552206 8886471
1.3903979 0.23653406 0.094963446 9543877
1.39219 0.2383343 0.094539225 9872061
1.3942192 0.24064058 0.094195627 10266303
1.3964705 0.24274057 0.094066918 10529474
1.3985486 0.2449289 0.094396785 10529475
1.4001856 0.24705374 0.094500095 10660800
1.4022148 0.24871826 0.094575018 10989249
1.4163069 0.26439244 0.088649392 10922152
1.418468 0.26693171 0.088720582 10988727
1.4207126 0.26908642 0.088672072 11186364
1.4225614 0.27150351 0.088695318 11514552
1.4246508 0.2735709 0.088575505 11777724
1.4263077 0.27587593 0.08872126 11975104
1.4284575 0.27778131 0.088625833 12370119
1.4307184 0.27970427 0.087703004 12961221
1.4430826 0.29241556 0.085973546 3289653
1.4447038 0.29559672 0.085106 7038827
1.4486386 0.29939258 0.083032057 9606579
1.330776 0.1749106 0.1030265 658722
1.3326044 0.1759454 0.1036628 724002
1.3340065 0.17772645 0.10412979 527909
1.372561 0.22014725 0.095142663 8229319
1.374933 0.22253972 0.095122591 8360904
1.3766491 0.22479278 0.095174171 8492233
1.3785839 0.22677755 0.09515734 8557763
1.3803998 0.22891957 0.094844401 9017793
1.3825934 0.23098511 0.094040379 9674682
1.3847382 0.23323059 0.093757115 10134972
1.3865662 0.23530382 0.093681663 10463420
1.388464 0.23741233 0.09385509 10397883
1.3904254 0.23981309 0.093824849 10726593
1.3924711 0.24195296 0.093860239 10660800
1.3943281 0.24393743 0.093976825 10068664
1.3958535 0.24546146 0.094002187 11186373
1.4067385 0.25744879 0.088176481 11119017
1.4089322 0.25989884 0.088269472 10987688
1.410568 0.2616725 0.088216767 10791345
1.4125407 0.26386583 0.088200122 11119795
1.41453 0.26612532 0.088151023 11185845
1.4165213 0.26828033 0.088058889 11580605
1.4184916 0.27064657 0.088067621 11711674
1.4203689 0.27281588 0.087964013 11975103
1.4224815 0.27493304 0.088101298 12172482
1.4245605 0.27726227 0.087259308 12763842
1.4260441 0.27940774 0.087106057 12895428
1.4283429 0.28048408 0.087571576 13092807
1.4429853 0.29680932 0.082065418 8551544
1.4444394 0.29778856 0.083955988 8290395
1.3288507 0.17541212 0.10213901 592930
1.3305357 0.17656863 0.10227135 526878
1.3317688 0.17848796 0.10251507 462114
1.3641896 0.21445769 0.094360948 8229060
1.3664336 0.21698374 0.094501525 8492231
1.3686514 0.21929872 0.094238319 8557502
1.3705549 0.22131258 0.09419176 8623291
1.3725204 0.22362059 0.093892589 8885945
1.3746359 0.22593969 0.093238249 9608888
1.3767126 0.2276867 0.092986159 10003383
1.378423 0.23007458 0.093030684 10134712
1.3804176 0.23223019 0.093290597 10266297
1.3825616 0.2345022 0.093292773 10331832
1.3843043 0.23641342 0.093279943 10989503
1.38588 0.23856682 0.093054652 11318210
1.3988192 0.25258368 0.087311432 10593186
1.4007095 0.25468612 0.087477185 10462120
1.4026507 0.25655031 0.087629944 10791087
1.4047749 0.25875652 0.087814465 10791346
1.4067378 0.26081777 0.087788448 10988724
1.408581 0.26326925 0.087654173 11317432
1.4105405 0.26538455 0.087739661 11514295
1.4126267 0.26783544 0.08763168 11777727
1.4147434 0.26980525 0.087513864 11974326
1.4165008 0.27162719 0.086922169 12500670
1.4187158 0.27422208 0.086980693 12632256
1.4207498 0.27627671 0.08710134 12698049
1.4416182 0.29885936 0.08000128 9472129
1.3246684 0.17494285 0.10029747 790053
1.3263816 0.17615575 0.10067 724001
1.3286937 0.17808634 0.10038354 395548
1.3306844 0.17929858 0.10069315 264221
1.3506685 0.20293039 0.09420336 8557764
1.3524528 0.20516914 0.094071537 8491973
1.3541355 0.20673734 0.093867958 8558021
1.356889 0.20974219 0.093811616 8492230
1.3585849 0.21188754 0.093857639 8360647
1.3607411 0.21410066 0.09401834 8295111
1.3627424 0.21636641 0.094185077 8492488
1.3645108 0.21884602 0.093547523 8951999
1.3665745 0.22071075 0.09293963 9214384
1.3688109 0.22268701 0.092571206 9806005
1.3706958 0.22520316 0.092250407 10200502
1.3725519 0.22723973 0.09248431 10332088
1.3747553 0.22931796 0.092701018 10200502
1.376585 0.23165178 0.09260945 10529209
1.392947 0.24913478 0.086609028 10527655
1.3948253 0.25133127 0.086792201 10659500
1.3966837 0.25350291 0.08694388 10659244
1.3987758 0.25567639 0.086972162 10922416
1.4006101 0.25807601 0.086900555 11185590
1.402797 0.26015228 0.086924471 11317171
1.4047339 0.26209992 0.086871274 11646138
1.4065508 0.26405478 0.086875111 11909311
1.4087021 0.26622307 0.086931035 12303291
1.4370272 0.29865921 0.078296386 9078414
1.4391338 0.29961497 0.079022422 9275264
1.3208793 0.17438591 0.098759025 1120562
1.3225095 0.17536932 0.09973368 921640
1.3245623 0.17865342 0.099385895 527140
1.3269017 0.18026596 0.098010302 264221
1.328804 0.18287235 0.096445583 67099
1.3366508 0.19153994 0.094848186 8557762
1.338771 0.19311279 0.094611213 8360386
1.3405919 0.19600827 0.094526127 8491971
1.3427868 0.19756687 0.09440311 8360642
1.3449697 0.19998831 0.094340414 8492228
1.3469441 0.20209521 0.094188452 8558022
1.348635 0.20423567 0.094179153 8558021
1.3506902 0.20619148 0.094104886 8557765
1.352764 0.20874774 0.093918264 8623814
1.3549016 0.21118307 0.092973068 9346500
1.3568294 0.21327507 0.092882663 9215173
1.3586472 0.21503389 0.091601759 10398143
1.3609109 0.21722406 0.091219142 10726591
1.3626223 0.21981424 0.091490328 10332088
1.3645718 0.22184604 0.091423869 10857916
1.3666511 0.22414535 0.091435887 10792381
1.3687525 0.22637773 0.091613673 10989759
1.3712113 0.22896421 0.091923922 11318207
1.3834088 0.24266821 0.08795394 9738906
1.3844315 0.24392837 0.085643306 10921638
1.3869042 0.24627155 0.085711211 10527655
1.3890197 0.24839848 0.085983023 10725291
1.3910344 0.25044084 0.086205959 10790830
1.3927457 0.25269699 0.086157478 11054002
1.3948922 0.25495762 0.086125895 11317174
1.3967683 0.25715178 0.086082585 11579828
1.398916 0.25933027 0.085667446 11974326
1.4005179 0.26115495 0.085862972 12040119
1.4308128 0.29574227 0.079146639 10266837
1.4332111 0.29722404 0.077221282 12830151
1.4347512 0.29900599 0.07743381 10723753
1.3168535 0.17377949 0.097291872 2305610
1.3185978 0.17458355 0.097991183 1449270
1.3230022 0.18003833 0.098374203 396322
1.3251377 0.18212169 0.096830875 66841
1.3274025 0.183936 0.095597297 659497
1.3285722 0.18531144 0.094334304 1055286
1.3308641 0.18809992 0.094339281 8030378
1.3330767 0.19030011 0.094600536 8623297
1.3347737 0.19271415 0.094777502 8491970
1.3368878 0.1951884 0.094423212 8557764
1.3386919 0.19690329 0.094491772 8557764
1.3404895 0.19919181 0.093411148 9346498
1.3428707 0.20108521 0.093123689 9412290
1.3449709 0.20340866 0.092820257 9806529
1.3467848 0.20548326 0.091160774 10989756
1.3491182 0.20773667 0.091109067 10989500
1.3510528 0.20975375 0.091209672 11121085
1.3527312 0.21227473 0.091123305 10923966
1.3547523 0.21470124 0.091026276 10858172
1.3567138 0.21687549 0.090949275 10858175
1.3587832 0.219154 0.090926692 10923710
1.3613307 0.22146028 0.090836279 11054779
1.363688 0.22388935 0.090751812 11186621
1.3768423 0.2389459 0.084920585 10790052
1.3789439 0.240753 0.085047305 10790569
1.3809941 0.24289072 0.085180894 10725038
1.3830214 0.24524122 0.085178323 10856624
1.3849247 0.24741918 0.085261971 11054002
1.3868835 0.24967682 0.085336432 11119792
1.3889173 0.25200927 0.085345037 11382707
1.3907888 0.25441033 0.084968001 11711154
1.3928015 0.25600725 0.085224688 11842740
1.4291039 0.29738057 0.077041 13224915
1.4311842 0.29795557 0.076939628 12500683
1.2628609 0.11736488 0.10461815 6386855
1.2647967 0.11893499 0.105037 6254492
1.2667817 0.12090355 0.10475865 8556727
1.2685717 0.12296855 0.10382279 10003906
1.2705579 0.12508649 0.10287493 9807553
1.306286 0.16493195 0.095649861 7636407
1.3110523 0.1700483 0.095142975 5333386
1.31264 0.17217243 0.095940799 4147822
1.3148482 0.17409909 0.096373349 2699599
1.3173788 0.17454517 0.09612681 3094098
1.3228219 0.18388003 0.09517552 330012
1.3247268 0.18545359 0.094399601 1844027
1.3270695 0.18735498 0.093938932 6385293
1.3287351 0.1895467 0.093980685 8819900
1.3312476 0.19171411 0.092488013 10266302
1.3329012 0.19388354 0.092170201 10660796
1.3352072 0.19590378 0.091790661 10989500
1.337065 0.19845951 0.091563754 10989500
1.339052 0.20073801 0.091436535 10989499
1.3409257 0.20268273 0.091229044 10989499
1.3430808 0.20505095 0.091113195 10989499
1.3449399 0.20724654 0.090992279 11055292
1.3472211 0.20940304 0.091085285 11121084
1.3492522 0.21179122 0.091214687 11055550
1.3514628 0.21418059 0.090850107 11055292
1.369249 0.23377568 0.08414413 10658466
1.3712227 0.23586184 0.084228657 10658982
1.3732836 0.23785937 0.08431232 10790313
1.3751698 0.24003065 0.08447291 10659502
1.3770248 0.24224603 0.084564239 10725552
1.3788321 0.24458414 0.08468882 10725554
1.38094 0.24669516 0.084573776 11119536
1.3830357 0.24875188 0.084601104 11186104
1.3852026 0.25168192 0.08443661 11711154
1.2595863 0.11639357 0.10362321 8426694
1.2607582 0.11854434 0.10399351 7505338
1.2629993 0.12049586 0.1035276 7833271
1.2649488 0.12254924 0.10295984 10726345
1.2668579 0.12460285 0.10250908 11910602
1.2691374 0.1268335 0.10189578 10727363
1.2709882 0.1292569 0.10141701 10136000
1.2730529 0.13127875 0.10102639 9347261
1.2748687 0.13354361 0.10050216 9412796
1.2771124 0.13574356 0.099847868 9281212
1.278764 0.13791203 0.099202044 9281468
1.2808826 0.14000165 0.098789126 9018043
1.2833021 0.14239001 0.098666176 8886458
1.2848742 0.14470363 0.098112151 8952508
1.2866888 0.14663422 0.097936809 8755130
1.2887126 0.14850277 0.097324498 8557756
1.2908604 0.15149808 0.097041726 8294843
1.2931535 0.15340298 0.096743956 8163002
1.2952435 0.15593392 0.096364476 8031674
1.2970488 0.15792251 0.095950216 7966140
1.29904 0.15993071 0.095577717 7966396
1.3009293 0.16209453 0.095646366 7768505
1.303113 0.16415536 0.095528431 7505335
1.3052907 0.16661155 0.095113441 7307439
1.3074608 0.16908008 0.094926089 6188698
1.3090879 0.17112291 0.094839692 5135235
1.3111038 0.17322391 0.094556376 4541808
1.3131111 0.17539537 0.093634374 1779009
1.3226824 0.18665087 0.091392934 1580350
1.3250159 0.1886574 0.091477498 7436695
1.3270553 0.19075143 0.091550633 11055038
1.3289082 0.19293648 0.091624431 10923451
1.3309665 0.19532555 0.091711015 10923706
1.3333485 0.19755173 0.091672942 11055035
1.3350344 0.19982892 0.091442242 10923449
1.3371131 0.20161957 0.091127872 11055291
1.3390379 0.20372057 0.091073424 10989241
1.3406336 0.20524055 0.090920702 10923449
1.361032 0.22813946 0.08316943 10724259
1.3631248 0.23048007 0.083395198 10461604
1.3654817 0.23261666 0.083559096 10527656
1.3673486 0.23478574 0.083527885 10659242
1.369153 0.23706722 0.083642006 10725036
1.37099 0.23931563 0.083803684 10725295
1.3730686 0.24145401 0.083920956 10856881
1.3749769 0.2432676 0.084024295 10857141
1.3768334 0.24565715 0.083962671 11513775
1.2573708 0.11713523 0.10201149 9084104
1.2591318 0.11969185 0.10228 9609930
1.2610695 0.12188721 0.1020835 9083078
1.2630522 0.12437695 0.10185942 11384268
1.2650552 0.12629932 0.10157108 12568013
1.2670313 0.12858748 0.10075116 11845064
1.2692293 0.13059479 0.10024184 11845319
1.2710384 0.1328035 0.099755988 11450564
1.2727578 0.13507819 0.099396348 10858944
1.2747004 0.13718462 0.098941147 10464447
1.2771282 0.13923472 0.098615885 10069693
1.2789587 0.14160311 0.098031417 10398654
1.2810808 0.14390188 0.097969919 9149628
1.283012 0.14604372 0.097446069 9675196
1.2848707 0.14821911 0.097115114 9149629
1.2871723 0.15041387 0.096697226 8755132
1.2887883 0.15297085 0.096028715 9215164
1.2911823 0.15471143 0.095909104 9017787
1.293098 0.15702206 0.09554588 9083580
1.2947698 0.15937728 0.095336378 8557498
1.29689 0.161542 0.095129922 8228795
1.2989337 0.16372228 0.094846748 8425659
1.3012099 0.16607171 0.094041035 8359350
1.3033543 0.16802323 0.09367495 8029874
1.3051851 0.17023855 0.093272597 6911136
1.3072188 0.17255318 0.093009636 5528448
1.3093605 0.17473221 0.092369318 1580858
1.3112879 0.17601192 0.09215115 529200
1.3191308 0.18644184 0.091010377 790576
1.3210649 0.18819994 0.091001451 5594241
1.3234489 0.18996251 0.091175638 10331320
1.3250631 0.19207394 0.091647342 11055036
1.3534398 0.22322345 0.0828152 10461087
1.3552618 0.22524136 0.082722671 10461346
1.3575747 0.22747403 0.082755372 10461605
1.3593953 0.22961283 0.082730383 10593191
1.3613932 0.23174256 0.082804203 10527658
1.3632566 0.23405516 0.082980528 10593707
1.3652903 0.23625785 0.083023563 10725037
1.3670762 0.23848397 0.082941338 10922673
1.3694341 0.24042898 0.083348371 11316396
1.3707978 0.24201792 0.083158657 11316396
1.2557421 0.11864609 0.10031469 9149894
1.2571168 0.12133563 0.1003821 10990538
1.2591517 0.12344825 0.10030118 11056078
1.2610413 0.12619346 0.10026173 11450321
1.2632 0.1282832 0.099745847 13291731
1.2654133 0.1302591 0.098993368 13160144
1.2670726 0.13219631 0.098849237 13028299
1.2691376 0.13434911 0.098281734 12765385
1.2711267 0.13661474 0.098099023 12107717
1.273319 0.13875192 0.097321555 12239301
1.2752821 0.1408664 0.097206391 11516098
1.2770274 0.14310032 0.096412554 11844802
1.2793092 0.14521748 0.096122295 11516096
1.2811797 0.14770681 0.095750079 10990271
1.283293 0.14962614 0.09532056 10529982
1.2852564 0.15189433 0.095043063 10201021
1.2871964 0.15398765 0.094099462 11121085
1.2890918 0.15619355 0.094161868 10923965
1.2913876 0.15830338 0.09386602 10595262
1.2933539 0.16071081 0.093046829 10529471
1.2954924 0.16277456 0.092881352 10003135
1.2971811 0.16521353 0.092566073 9542849
1.2991607 0.16740769 0.092678204 9147839
1.3013284 0.16965842 0.092289716 8029105
1.3032184 0.17237759 0.09200798 4212328
1.3051226 0.17397982 0.091104232 987947
1.3072791 0.17558247 0.091298044 528169
1.3090873 0.17741054 0.091049179 925255
1.3163488 0.18568063 0.091166914 66065
1.3392966 0.21160281 0.082782298 10329501
1.3409114 0.21306795 0.082610279 10329501
1.3433251 0.21539086 0.082537971 10330017
1.3453182 0.21775013 0.082376227 10264483
1.3474246 0.21996927 0.082318284 10264483
1.3496199 0.22206849 0.082265273 10330276
1.3514607 0.22435904 0.082285181 10396070
1.3534818 0.22657567 0.082208723 10461864
1.3553643 0.228787 0.08219748 10527914
1.3572397 0.23098475 0.082318932 10593450
1.359187 0.23296803 0.082218811 10659502
1.3612299 0.23522979 0.082072444 11119017
1.4152513 0.29596287 0.069348663 11711154
1.2541726 0.12056345 0.09854418 9215684
1.2551833 0.12245566 0.098483682 11582412
1.2572504 0.12465823 0.097860754 12765911
1.2587794 0.12740082 0.098309591 11647693
1.2607391 0.1295526 0.098469004 12962771
1.2631794 0.13100481 0.098567024 13291985
1.2653432 0.13370973 0.09800373 12897229
1.2672557 0.13591993 0.097122103 12108233
1.2691965 0.13794255 0.0966461 12305354
1.2708733 0.14026225 0.096415512 12502215
1.2732253 0.14273232 0.095996469 12239044
1.2751352 0.1450029 0.095256738 11976131
1.2771975 0.14670908 0.094855182 11647426
1.2793171 0.14893943 0.094604239 11056065
1.2809675 0.1514582 0.094296202 10595520
1.2834665 0.15343177 0.093810074 10923967
1.2852823 0.15574443 0.093483232 11120831
1.2872969 0.15777552 0.092971995 10923455
1.289328 0.1603325 0.092545226 10266047
1.2911661 0.16227549 0.092585772 9608640
1.2932662 0.16407079 0.092214271 9345473
1.2951677 0.16687685 0.091772862 8950463
1.2976596 0.16909766 0.091852315 8226741
1.2989151 0.17189062 0.0900333 1777467
1.301273 0.17317629 0.089600086 921897
1.3034992 0.17493623 0.089802042 1053483
1.3045907 0.17651683 0.090566993 397359
1.3256569 0.20008749 0.083120488 10198171
1.3274148 0.201563 0.083038963 10198171
1.3293271 0.20352334 0.083026446 10263708
1.331589 0.20635462 0.082632579 10198432
1.3336191 0.20834351 0.082477137 10264224
1.3357964 0.21037549 0.082329698 10329759
1.3376329 0.21255934 0.082218371 10330017
1.3394732 0.21478111 0.082199372 10330018
1.341423 0.21700162 0.082174249 10330275
1.3434217 0.21930254 0.082088016 10330277
1.3454559 0.22140819 0.081941396 10396070
1.3473961 0.2236886 0.081896938 10396070
1.3494034 0.22583544 0.081804991 10527656
1.3512583 0.22791177 0.081738487 10724777
1.4115474 0.29564869 0.06929753 11776947
1.4135164 0.29663461 0.069051333 12304076
1.2523186 0.12164712 0.096224919 10596294
1.2532387 0.12395686 0.09687005 11450824
1.2553837 0.12592775 0.095945835 12831700
1.2564795 0.12849927 0.096474066 12437203
1.2786038 0.15138835 0.093821928 10595523
1.2820432 0.15480757 0.093072459 10923457
1.2951536 0.17100173 0.088689059 724776
1.2977312 0.17232364 0.088192917 855847
1.2996793 0.17324632 0.088285878 921640
1.3160553 0.1925199 0.083136544 9804442
1.3176787 0.19447631 0.082957745 10067101
1.3194009 0.19633037 0.083021276 10132379
1.3219094 0.19848979 0.082783297 10132638
1.3237017 0.20073879 0.082780935 10198174
1.3257861 0.20305485 0.082567446 10198689
1.3277092 0.2052297 0.082525812 10198689
1.3294625 0.20738041 0.08229968 10264482
1.3315308 0.20959467 0.082144439 10330018
1.3334656 0.21178466 0.081967734 10330275
1.3355466 0.21409839 0.081807964 10330533
1.3375154 0.21629971 0.081748173 10396068
1.3394127 0.21823192 0.081482485 10461604
1.3415775 0.2203272 0.081344992 10658466
1.343643 0.22238922 0.081281438 10724259
1.4103162 0.29586184 0.068769321 12436446
1.247472 0.12110913 0.093813106 7372448
1.2497017 0.12283093 0.094463915 7505058
1.2514046 0.12507206 0.094922841 10925253
1.2533891 0.12729096 0.094490126 13291988
1.2542892 0.12968063 0.09451139 12963283
1.291543 0.1708101 0.087109685 922668
1.2937298 0.17166221 0.086443126 1251120
1.295724 0.1723671 0.086418554 1250861
1.3082814 0.18728203 0.082330957 8029594
1.3097478 0.18935496 0.082494535 10132893
1.3118718 0.19105208 0.082621694 10001309
1.313767 0.1935063 0.082493678 9738654
1.3157835 0.19575477 0.082553543 10067104
1.317919 0.19788659 0.082406357 10132898
1.3196468 0.20002013 0.082399428 10198690
1.3216736 0.20228726 0.082159758 10198690
1.3236227 0.20454562 0.082216822 10264225
1.3257489 0.20657468 0.082057729 10329760
1.3275635 0.20892394 0.081738934 10395294
1.3302302 0.21121711 0.081645489 10461087
1.3314285 0.2129482 0.081406035 10526880
1.244067 0.12051779 0.092607662 7569809
1.245888 0.12234068 0.0934266 10727108
1.2476734 0.12448752 0.093104504 10003388
1.2496269 0.12669194 0.092855699 9214646
1.2515737 0.12881738 0.092949718 11320008
1.2521797 0.13126129 0.092918187 11648980
1.2869844 0.16790944 0.083640203 6316416
1.2898598 0.17104262 0.084983185 2435138
1.2920357 0.17182344 0.084617928 1909048
1.3038932 0.18631315 0.081353992 2307938
1.3056943 0.1882633 0.081909351 8489110
1.3076583 0.19030339 0.082282491 10198690
1.3097782 0.19270903 0.082195058 10001569
1.3118064 0.19476533 0.08191517 9870244
1.3138211 0.1967634 0.081813686 9739177
1.3160616 0.1992746 0.081983998 10199465
1.3182259 0.20170319 0.081667416 10395294
1.2401283 0.11915624 0.091519147 7567481
1.2417347 0.12128693 0.091740817 9278356
1.2438741 0.1236642 0.091775894 12568015
1.2458267 0.12573284 0.091568187 13291736
1.2475264 0.12830162 0.091598824 12042446
1.2496746 0.13021845 0.09162496 8885948
1.2504985 0.1320312 0.091657117 8425918
1.2637577 0.14579213 0.085727617 4216451
1.2659432 0.14802808 0.085461006 6911132
1.2678597 0.15029514 0.085271783 10067120
1.2698419 0.15188825 0.084948562 10790572
1.2712948 0.15359503 0.08459805 2439528
1.2758449 0.15879953 0.083854191 6846090
1.2776687 0.16100305 0.083570369 7832987
1.2798362 0.16292799 0.083183683 6582410
1.2818712 0.16514921 0.082987323 5594746
1.2838454 0.16743463 0.082989007 4607345
1.2859557 0.16990048 0.083201781 3028306
1.2879789 0.17137229 0.083767802 1975101
1.2983474 0.18423921 0.079796992 595243
1.2999468 0.18539107 0.081332877 3292761
1.3021262 0.18754989 0.081183836 4804719
1.3037138 0.1890254 0.081598178 7305098
1.3053885 0.19106704 0.081853516 7834533
1.2398863 0.12281179 0.09001866 10329501
1.2415681 0.12486911 0.090063423 11250862
1.2438011 0.12719965 0.090388447 12568013
1.2454863 0.12967336 0.090511069 12831705
1.2582269 0.1422348 0.085692003 7045555
1.2600567 0.14466488 0.085473269 8030118
1.2620332 0.14676201 0.085322477 6253199
1.2639961 0.14890265 0.085004777 7107473
1.2660058 0.15105158 0.084647 7502219
1.2682221 0.1531083 0.084179692 6187392
1.2701154 0.15537179 0.083718583 4806520
1.2723248 0.15763956 0.083500639 5004675
1.2742248 0.16001058 0.083258092 3820663
1.2760282 0.16226304 0.083044738 3885943
1.2781394 0.16445148 0.082675241 3490412
1.279974 0.16665983 0.082610548 3095135
1.2820923 0.16887975 0.082652502 2305101
1.2837074 0.17121637 0.082591206 1317941
1.2860515 0.17270094 0.08314652 1514547
1.2964106 0.18464416 0.080403954 1383990
1.2984114 0.18680555 0.079783827 1384006
1.3002501 0.18862593 0.080085307 923184
1.2398088 0.12661517 0.088971242 11184553
1.2415435 0.12754208 0.089476332 10724772
1.2550378 0.14241636 0.083334088 6583454
1.2564728 0.14377981 0.084157154 7437983
1.2581391 0.1462388 0.084397696 7305615
1.2599838 0.14854884 0.08469671 3819374
1.2619907 0.1507054 0.084410474 4346480
1.2639971 0.15308923 0.08388333 3624312
1.2660536 0.15516788 0.08340089 4281979
1.2681258 0.15743673 0.083176732 4281469
1.2700438 0.15956259 0.082774416 5004415
1.2719587 0.161686 0.082561091 5727107
1.2738881 0.16408402 0.08219 6779531
1.2760959 0.1661523 0.082037777 6055049
1.2781556 0.16844153 0.082093038 5067899
1.2801263 0.16982478 0.081944823 3094107
1.2528169 0.14419723 0.081126072 7966135
1.254449 0.14534551 0.082397811 9279149
1.2558572 0.14760411 0.083023474 7831186
1.257512 0.14970261 0.083455816 2109791
1.2612804 0.15297866 0.083438389 1849967
1.2625828 0.15491742 0.082582161 4544635
1.2641993 0.15633816 0.082639799 7700880
1.2662389 0.15840048 0.082217082 9606807
1.2682877 0.16064155 0.081859477 10263965
1.270762 0.1630764 0.08163698 9541273
1.2726307 0.16590679 0.080770507 7504024
1.2487663 0.14304703 0.079936489 8621749
1.2508231 0.14451367 0.080281213 7635099
1.2525058 0.14667064 0.080821648 8687262
1.2537222 0.14907128 0.081281297 6319234
1.2556206 0.15080887 0.082066849 2113121
1.2442814 0.14122921 0.078807913 6975592
1.2467377 0.14353329 0.079147547 9279410
1.2485703 0.14590186 0.079387307 9542060
1.2501602 0.1482352 0.079637073 7831696
1.2516993 0.1501205 0.079710558 4741230
1.2531012 0.15205395 0.079921417 735588
1.2386575 0.13845414 0.07785473 7567225
1.2406826 0.14068472 0.077852979 7434349
1.2427971 0.14289951 0.077833474 7829359
1.244559 0.14503998 0.077987097 9475224
1.2463007 0.147313 0.078401849 9738660
1.2483002 0.1493609 0.078925796 7239309
1.2498469 0.15077645 0.079039663 3424862
1.2367674 0.13988632 0.077316031 9145485
1.238646 0.14217383 0.077174909 8420984
1.2406735 0.14433402 0.077102378 9210759
1.2427002 0.14643824 0.077012382 10724260
1.2440252 0.14850515 0.0772788 10724259
1.2365925 0.1430583 0.076735899 8881019
1.2389166 0.14565325 0.076448865 10461085
1.4221091 0.26046199 0.098304346 9018579
1.428067 0.2668342 0.097931027 11254243
1.4306173 0.26942766 0.097775549 11582941
1.4328542 0.2718367 0.097531624 11779797
1.434778 0.27381104 0.097134918 12108240
1.4370786 0.27601123 0.09713766 12568269
1.4386833 0.2786122 0.09657608 12108231
1.439965 0.28114498 0.095888451 6386344
1.4480174 0.28912079 0.093741588 2171710
1.4148662 0.25621074 0.097851783 8821458
1.4170191 0.25759578 0.098277614 9018578
1.4188513 0.26007932 0.098435462 8886995
1.4211097 0.26207948 0.098307505 8887251
1.4231629 0.26418608 0.097582117 10070485
1.4246981 0.26634079 0.097137555 11122132
1.4267844 0.26882648 0.097003482 11582160
1.4289649 0.27072918 0.096715271 11976396
1.4309006 0.27328521 0.09660162 12370891
1.4326725 0.27569741 0.096672088 12370889
1.4348006 0.27762479 0.096686125 12699850
1.4370508 0.28022832 0.096517965 13357264
1.4385767 0.28108531 0.096109167 11713214
1.4405384 0.28386796 0.094930917 925275
1.4425038 0.28577101 0.092631906 131877
1.4470719 0.28957278 0.092946537 2632523
1.4054899 0.2492637 0.097384512 8820943
1.4069166 0.24997884 0.097604178 8623822
1.4088043 0.25232714 0.097703584 8821198
1.4106424 0.25462073 0.097740754 8886992
1.4128637 0.25721782 0.097231209 9544660
1.4148455 0.25927937 0.096985906 10201809
1.4168687 0.26112694 0.096670121 10727633
1.4188402 0.26325977 0.096109211 11450576
1.4209602 0.26563996 0.096190587 11713229
1.4227459 0.26801908 0.096358225 11713225
1.4249587 0.26983976 0.096543469 12042189
1.4273078 0.2726118 0.096360743 12436684
1.4294192 0.27447659 0.096385241 12370887
1.4446537 0.290007 0.092169449 1316100
1.4462874 0.29121405 0.091196388 4474967
1.4466448 0.29291028 0.091842547 9738172
1.3989363 0.24530643 0.096939981 8360906
1.4011891 0.24724865 0.097369552 8558027
1.4031773 0.24934155 0.097174078 9281488
1.4053361 0.25170559 0.096488521 10069965
1.4071499 0.2538929 0.096108973 10661581
1.4091802 0.25621301 0.095645264 11187145
1.4113033 0.25805289 0.095567144 11515849
1.4129205 0.2604568 0.095567115 11647434
1.4149482 0.26270181 0.095441774 11647434
1.417043 0.26479375 0.095723957 11844814
1.4294688 0.27899879 0.090444997 11447982
1.4304287 0.27979225 0.090628542 11513775
1.4439783 0.29152787 0.089510396 1445641
1.4452363 0.2958076 0.089724496 12501430
1.3867602 0.23543489 0.096158057 8689611
1.3892688 0.23809266 0.096090734 8558284
1.3910289 0.24049169 0.096363947 8492234
1.3933797 0.24195582 0.096189238 8426442
1.3950936 0.24444342 0.096467152 8558028
1.3968897 0.24625885 0.095634475 9675206
1.3993447 0.24844605 0.095023632 10661063
1.4011674 0.251064 0.095001623 10989765
1.4030497 0.25330347 0.09519586 11055557
1.405236 0.25546688 0.095189176 11318468
1.4073716 0.25730616 0.095289961 11647432
1.4092717 0.25954384 0.095185325 11712965
1.4107188 0.26195323 0.094972849 12173261
1.4229293 0.27504671 0.089514703 11184810
1.4252625 0.27748632 0.089382589 12106946
1.4272544 0.27894485 0.089761376 12040381
1.4441622 0.29813355 0.086066492 8422224
1.3787756 0.2302292 0.095742859 8558026
1.3815302 0.23256993 0.095795237 8558282
1.3831515 0.23483431 0.096057266 8689611
1.3853248 0.23701149 0.095898598 8886731
1.3872666 0.23914629 0.0953767 9412552
1.3890479 0.24118483 0.094722614 9806529
1.3910239 0.24331248 0.094457343 10003392
1.3932348 0.24561441 0.094485775 10463683
1.3951778 0.24803132 0.094417587 10726592
1.3972065 0.25007206 0.094544537 10923714
1.3993437 0.25245607 0.094728038 11252676
1.4174207 0.27251333 0.088678926 11185066
1.4193468 0.27430069 0.088729769 11448500
1.421401 0.27667999 0.088981584 11909569
1.4232403 0.27820963 0.089190558 12238017
1.4432273 0.29971159 0.084735647 6777939
1.3268993 0.17671454 0.1028693 527134
1.3712518 0.22542018 0.0945272 8558027
1.3733912 0.22740686 0.095009208 8492491
1.3756549 0.22953832 0.095462158 8426698
1.3775887 0.23178965 0.095662549 8492234
1.3793857 0.23398685 0.094649941 9215172
1.3814629 0.23608994 0.094016805 10266563
1.3833303 0.23832923 0.093954697 10069179
1.3853154 0.24065924 0.093681037 10397628
1.3872036 0.24267256 0.093846604 10397628
1.3891339 0.24501878 0.093869448 10594749
1.3914442 0.24690545 0.094082616 10397624
1.3931789 0.24849284 0.09426412 10068659
1.4056687 0.26329017 0.0884258 10856358
1.4073789 0.26481432 0.088374317 10725292
1.4093539 0.2669872 0.088238262 11054258
1.4113089 0.26889277 0.088209867 11317173
1.4135032 0.2711978 0.08792372 11514810
1.4154811 0.27337044 0.088014357 11711930
1.4173877 0.27570081 0.088011786 12041153
1.4193276 0.27766246 0.088049196 12303807
1.4217377 0.27911168 0.087400056 12895428
1.3235495 0.17624223 0.10219398 527140
1.3249376 0.17761379 0.10225736 461086
1.3632262 0.21978188 0.094286263 8558025
1.3653829 0.22188699 0.094427854 8623817
1.3671751 0.22418648 0.094293147 8558026
1.3690786 0.2264061 0.094187871 8754880
1.3714414 0.22851747 0.093905866 9215168
1.3733923 0.23062575 0.093228802 9937852
1.3755291 0.23290986 0.093234412 9872056
1.3775876 0.2351495 0.093092993 10332091
1.3794435 0.23738033 0.093270577 10069176
1.3814902 0.23968655 0.093205169 10660796
1.3836775 0.24193466 0.093280107 10660539
1.3846998 0.24350923 0.093311727 11252417
1.3955326 0.25574923 0.087880924 10396064
1.397664 0.25734687 0.088296182 10396064
1.3997104 0.25939953 0.088154078 10659499
1.4013934 0.26165366 0.087880239 10856879
1.4037141 0.26392084 0.087719344 11185588
1.4057158 0.26598966 0.087597921 11448760
1.4075935 0.2681973 0.087509736 11580603
1.4093219 0.27059728 0.087394051 11843518
1.411576 0.27266324 0.087289229 11974843
1.4135444 0.27471954 0.087143816 12303810
1.4153893 0.27682781 0.086784966 12698049
1.41751 0.27880585 0.087001577 12829635
1.3196639 0.17576218 0.1009141 724005
1.3218389 0.17680418 0.1013952 526882
1.3225447 0.17878073 0.10052399 198682
1.3495841 0.20842522 0.09421435 8755142
1.3512511 0.21013778 0.093973242 8689607
1.3531826 0.21231908 0.093891516 8689609
1.355243 0.21464515 0.093946427 8558024
1.3575351 0.21678406 0.094063267 8492232
1.3597012 0.21896535 0.09411408 8558280
1.3616912 0.22155744 0.093649112 8754619
1.3636913 0.22354746 0.093525544 8885680
1.3657272 0.22549897 0.092982948 9345455
1.3674462 0.2279281 0.092051752 10266292
1.3695682 0.22989774 0.092412904 10332086
1.3715842 0.23229086 0.092556059 10463672
1.3734784 0.23436069 0.092738122 10397881
1.3752956 0.23614389 0.092646226 11121088
1.3769583 0.23773718 0.092480801 10989503
1.3882678 0.25013632 0.087328203 10198685
1.3892914 0.25159234 0.087536186 10198685
1.3919276 0.25443792 0.0871628 10461861
1.3935769 0.2565335 0.087271333 10725291
1.395748 0.25869077 0.087048709 11119795
1.3976963 0.26071137 0.087013215 11251640
1.3994367 0.26301593 0.086943291 11448760
1.4014578 0.26508033 0.086944237 11777466
1.4036845 0.26734078 0.087045416 11777726
1.4056494 0.26966006 0.086753838 12172225
1.4077051 0.27209294 0.086416051 12500670
1.4099576 0.27428257 0.08649829 12632256
1.4295387 0.29668051 0.079427704 9279420
1.3155332 0.17516607 0.099786207 855848
1.3174181 0.17612571 0.10011573 789796
1.3192027 0.17862636 0.099492013 330013
1.3217211 0.1800018 0.098505743 527395
1.3393886 0.20094806 0.094249882 8623300
1.3415844 0.20253628 0.094107881 8689350
1.3432409 0.20476162 0.094211534 8755142
1.3455793 0.20689189 0.09420526 8754886
1.3476859 0.20890814 0.094093904 8755143
1.349448 0.21163511 0.094019607 8689607
1.3512933 0.21392494 0.093841985 8689608
1.3537611 0.21601218 0.094032928 8558025
1.3561263 0.21857381 0.093245097 9412550
1.3579128 0.22088116 0.091616049 9937327
1.3597572 0.22250098 0.091676325 10068656
1.3615617 0.22508347 0.091486841 10266036
1.3636655 0.22722304 0.091611743 10463413
1.3656352 0.22933304 0.091782942 10331571
1.3675835 0.2313965 0.091780804 10792119
1.3841453 0.24934024 0.086032182 10790309
1.3858471 0.25151819 0.085705504 10922934
1.3879449 0.25339407 0.086104974 10922673
1.3897743 0.25553906 0.086306624 10922674
1.3916605 0.25784123 0.086192735 11317174
1.3937242 0.25995791 0.086204007 11580087
1.3956344 0.26221192 0.086156912 11711415
1.3974086 0.26427191 0.085904591 12171705
1.3992383 0.26545596 0.086226061 12171705
1.4252421 0.29585683 0.079353534 9937359
1.4276004 0.29720712 0.078560278 10791104
1.3117621 0.17402935 0.097915784 1910853
1.3135657 0.17555457 0.09857516 987947
1.3155344 0.17879039 0.098711103 461345
1.3176129 0.17998552 0.098438054 263968
1.3199525 0.18098921 0.097252026 330020
1.3257811 0.18920493 0.094231516 8622779
1.3275694 0.19123608 0.094499126 8557763
1.3298252 0.19304204 0.094747126 8426178
1.3316838 0.19519377 0.094504774 8689093
1.3337331 0.19722879 0.094199814 8623813
1.3358312 0.19964504 0.09410207 8689349
1.3374285 0.20211613 0.094083384 8689349
1.3399239 0.20417112 0.094011866 8755142
1.3417711 0.2064569 0.094089642 8754887
1.3441489 0.20927048 0.09252274 10003906
1.34597 0.21055281 0.091622576 10726846
1.3476968 0.21309692 0.091204576 11121084
1.3498577 0.21512282 0.090986334 10989757
1.3516862 0.21724772 0.090912543 10858172
1.3537755 0.21971393 0.090856239 10792123
1.3559499 0.22177696 0.091174558 10463157
1.3576884 0.22381592 0.091225818 10397622
1.3594663 0.22580916 0.091218591 10528949
1.3764766 0.2446636 0.084620789 10528692
1.3779026 0.24638796 0.084832706 10790829
1.3799574 0.24820006 0.085104302 10791089
1.3819699 0.25034022 0.085239105 10922676
1.3837416 0.25274813 0.085381731 11119794
1.3860126 0.25472224 0.085378096 11251380
1.3875444 0.25676703 0.085116729 11579828
1.3895533 0.25925446 0.084759265 11908533
1.3921751 0.26121587 0.085207641 12040119
1.4237134 0.29704064 0.077609494 12698312
1.3080359 0.17337322 0.096717983 3095385
1.309792 0.17490107 0.097141206 1778494
1.3132529 0.1808098 0.096380383 329499
1.317776 0.18381703 0.095335871 198423
1.320262 0.18555152 0.09475489 2568008
1.3218491 0.1880756 0.094049022 7240606
1.3237739 0.19023418 0.094327152 8688832
1.3259296 0.19225693 0.094119236 8885952
1.3279231 0.19471842 0.093124419 9740478
1.3299637 0.19693696 0.092618585 10266557
1.3318148 0.19887543 0.092418246 10332350
1.3338518 0.20118415 0.091433272 10989755
1.3360298 0.20340878 0.091286406 10923707
1.3381338 0.20543706 0.091054633 10857914
1.3401818 0.20742005 0.090968296 10923964
1.3416905 0.2098915 0.090970695 10989498
1.3439119 0.21212059 0.091006935 11186876
1.3457565 0.21438879 0.091033086 11121340
1.3480709 0.21666485 0.090947591 11055292
1.3499806 0.21879458 0.09077058 10924224
1.3520216 0.2213549 0.090302497 10923449
1.3680663 0.23885626 0.084134974 10855845
1.3703737 0.24107695 0.084291317 10855845
1.3720729 0.2429415 0.084176645 10790829
1.3741388 0.24517953 0.084246442 10791088
1.3759885 0.24732435 0.084411159 10857138
1.3778582 0.24967211 0.084471911 10922674
1.379903 0.2518959 0.084543027 11316913
1.3820236 0.25413597 0.084222026 11776947
1.3839989 0.25597143 0.084346332 11776947
1.4202633 0.2967158 0.076467417 13619410
1.4218044 0.29764032 0.076528668 13027022
1.2599927 0.12326771 0.10290422 6913198
1.2622464 0.12535882 0.10262041 9608893
1.2637984 0.12743205 0.10208251 9807295
1.2653872 0.12963122 0.10148139 9675709
1.2675248 0.13165075 0.10115702 9610173
1.2963136 0.16310936 0.095628701 7439542
1.298113 0.16603142 0.095188275 7241388
1.299794 0.16757053 0.094806701 6978214
1.3012824 0.16906732 0.094743162 6188953
1.3038381 0.17221302 0.09530215 4345457
1.3059435 0.17381579 0.095445246 3686749
1.3077905 0.1751287 0.095473766 3159630
1.3142984 0.18349278 0.093738273 330276
1.3159082 0.1847508 0.093459681 1119534
1.3179619 0.18696803 0.093309946 4082027
1.3196896 0.18921632 0.092739224 9411257
1.3218651 0.19144726 0.091624931 11252415
1.3238394 0.19370908 0.091709122 10923707
1.3258561 0.19598013 0.091718875 10989498
1.3278704 0.19823945 0.091711923 10989243
1.3300896 0.20063007 0.091377795 11055290
1.3322444 0.20260239 0.091115177 11055289
1.3338366 0.20482934 0.091085732 10989241
1.3360848 0.2070086 0.091085389 10989756
1.3381556 0.20928311 0.090807147 10923706
1.3606272 0.23407286 0.083382815 10724259
1.3620524 0.23566365 0.083529457 10724259
1.3641223 0.23769391 0.083529197 10724776
1.3661921 0.23984528 0.083552495 10725292
1.3680694 0.24208814 0.083586954 10791086
1.3699851 0.24436557 0.083682083 10922415
1.3720136 0.2464565 0.083725594 11119536
1.373933 0.24885064 0.08337824 11513775
1.3758177 0.25078541 0.083400711 11645361
1.4165018 0.29626137 0.075301513 13817043
1.4181943 0.29650581 0.074597806 13948630
1.2575002 0.122495 0.10185896 8294594
1.2580935 0.1249373 0.1015749 8031416
1.2600586 0.12679571 0.10155807 10529730
1.261951 0.12885284 0.10134184 11253187
1.2639438 0.13124651 0.1006809 10727360
1.2664499 0.13329774 0.1003885 9872830
1.2685194 0.13536561 0.099674538 9478592
1.2699471 0.1376034 0.09930069 9281212
1.2718689 0.13983256 0.099051975 9281212
