# .PCD v0.7 - Point Cloud Data file format
VERSION 0.7
FIELDS x y z rgba
SIZE 4 4 4 4
TYPE F F F U
COUNT 1 1 1 1
WIDTH 1155
HEIGHT 1
VIEWPOINT 0 0 0 1 0 0 0
POINTS 1155
DATA ascii
1.9127319 0.58380342 0.042286158 11252413
1.8266881 0.4749071 0.047435045 9477825
1.8289143 0.47645807 0.04859364 9938371
1.8301971 0.4804464 0.049126744 9675204
1.8317809 0.48230445 0.048139691 11121356
1.8344277 0.48419392 0.047448516 11055297
1.8362259 0.48704451 0.047424018 10660797
1.8380659 0.48942983 0.047504663 10068916
1.8401016 0.49098855 0.046576142 11646913
1.8413022 0.49380165 0.046909094 10792382
1.8433359 0.49580961 0.046776772 10989500
1.8458002 0.4982838 0.046117544 11383738
1.8469939 0.50044543 0.046276152 11383738
1.8484502 0.50275296 0.046218634 11581116
1.8501947 0.50568503 0.046224594 11581116
1.8521016 0.50788152 0.045733929 12370122
1.8536608 0.51047915 0.045924425 11975362
1.8555295 0.51273412 0.044849098 11909818
1.857482 0.51424092 0.045600414 11383734
1.859435 0.51710474 0.045426667 11186351
1.8615673 0.52002227 0.04512316 11646390
1.8632371 0.52270234 0.04527545 11581110
1.8654923 0.52444845 0.04566443 11581110
1.8672349 0.52670062 0.046261489 12435649
1.868341 0.52918935 0.045411587 11712439
1.8703926 0.53188533 0.044386864 10857900
1.8729436 0.53441542 0.044407725 10857900
1.8753471 0.53843504 0.042822778 11186867
1.877066 0.54117942 0.043059826 11186868
1.8800585 0.54282939 0.044126391 10858158
1.8823392 0.54639316 0.042752385 11121332
1.8843696 0.54976708 0.04134351 11515579
1.8864284 0.5534541 0.040889084 11252410
1.8896065 0.55468231 0.040915132 10857913
1.890263 0.55770564 0.041527033 10594999
1.8926747 0.55959851 0.041713953 10989497
1.8945534 0.56282395 0.041625977 11383995
1.8964546 0.56566906 0.041725039 11449788
1.8981357 0.56918383 0.041768014 11318459
1.9033847 0.57325047 0.041858792 11318203
1.9053897 0.57700515 0.041708589 11318204
1.8231863 0.47366238 0.04581058 5466793
1.8246371 0.47651649 0.047372937 9609154
1.8265806 0.47809726 0.048318803 9938372
1.827611 0.48125744 0.045794487 11515069
1.8295341 0.48249072 0.046143293 11646656
1.8310037 0.48525208 0.046485424 11186361
1.833971 0.48768669 0.0465433 11449536
1.8358973 0.49003941 0.04627955 11251897
1.8366876 0.49196881 0.045654058 10857391
1.8384678 0.4944464 0.045542061 11252408
1.8407311 0.49671113 0.045202792 11449785
1.8428292 0.49941301 0.045243382 11712445
1.8442287 0.50185382 0.045222998 11646909
1.8461723 0.50393957 0.044709086 11449784
1.8481567 0.50702232 0.044879675 11844031
1.8500681 0.50921005 0.044282675 11383473
1.8517841 0.51202595 0.044344485 11317938
1.8538982 0.51407176 0.043781996 10529450
1.8561544 0.5166871 0.044734299 11646646
1.8574655 0.51897931 0.043673873 11581112
1.8577762 0.52018446 0.041861534 11383994
1.8612441 0.52339017 0.043225706 12107199
1.864203 0.52725005 0.043253541 11120818
1.8658011 0.53005952 0.041712701 11450041
1.8685448 0.53261232 0.041515946 11449786
1.8710862 0.53480989 0.0412637 11450042
1.872468 0.53764147 0.042440891 11186867
1.8744663 0.54081482 0.041350126 11515835
1.8762386 0.54362816 0.041400552 11581372
1.879588 0.54690289 0.041287601 11450042
1.8797476 0.54966474 0.041535616 11384252
1.8822839 0.5523113 0.041314244 11384252
1.8850226 0.55503953 0.040913403 11186618
1.8874828 0.55731374 0.040826976 10792119
1.8899486 0.56151122 0.041120052 11055032
1.8931932 0.56474191 0.041518807 11383995
1.818238 0.47294867 0.044798851 1981534
1.8206226 0.47442174 0.046101213 5927080
1.8227377 0.47746325 0.045249462 9543084
1.8248374 0.48001879 0.044856131 9870244
1.8260474 0.48223448 0.045275152 10791099
1.8281893 0.48517615 0.044386148 10594214
1.8297048 0.48781431 0.044512153 10528422
1.8322525 0.48954046 0.0439744 11251889
1.8338397 0.49180454 0.043880701 10923694
1.8359433 0.49430919 0.043844461 10923695
1.8377583 0.49650639 0.044080257 10923951
1.838517 0.49888712 0.044376254 11317943
1.840463 0.50063056 0.043941617 11251888
1.8420933 0.50319844 0.044076204 10858158
1.8444717 0.50688338 0.043803573 10858161
1.8465524 0.50874001 0.04369998 10791593
1.8481066 0.51172537 0.043805242 10726057
1.8512483 0.51353735 0.041492939 11318458
1.851059 0.51707792 0.042777538 10201513
1.8532234 0.51643264 0.041363835 11318203
1.8548408 0.5192728 0.041808128 11252410
1.8564055 0.52163386 0.042086661 11318202
1.8588241 0.52392197 0.041792631 11450042
1.8604399 0.52684999 0.041773438 11581371
1.862932 0.52932477 0.041368842 11581371
1.8646541 0.53252757 0.041093826 11581627
1.8666086 0.53557873 0.041123629 11450042
1.8696172 0.53681374 0.041184008 11515835
1.8683052 0.53856653 0.041056275 11384249
1.8713593 0.54013413 0.040985048 11581371
1.8729365 0.54273939 0.041277289 11581371
1.8747088 0.54555303 0.041327655 11450043
1.8167121 0.47317463 0.044106483 1914449
1.8189083 0.47634393 0.044240475 6191271
1.8204904 0.4789229 0.043783307 7831437
1.8222513 0.4811461 0.044453084 9475504
1.8267591 0.48552799 0.042707622 10791595
1.8277187 0.48884785 0.042939186 11252402
1.8299592 0.49068576 0.043019235 11318453
1.8314183 0.49322265 0.043614745 11055280
1.8337218 0.49562579 0.043020129 11055282
1.8355415 0.49758101 0.042937756 11252405
1.8369 0.49970418 0.043506503 10660264
1.8383322 0.50245732 0.04203105 10923184
1.8407903 0.50367683 0.040682793 11121081
1.8422515 0.50622135 0.040705025 11120825
1.8440675 0.5095917 0.040277958 11121081
1.8463414 0.51128221 0.040551066 11121081
1.8478162 0.51395881 0.0407601 11186873
1.8494463 0.51622343 0.041235924 11186617
1.8512745 0.51997471 0.040940106 11120824
1.8533847 0.52124757 0.041507125 11120824
1.8551722 0.52380782 0.041682184 11120824
1.8616986 0.53149855 0.040964305 11581628
1.8634815 0.53478056 0.040682495 11581628
1.8655629 0.53808755 0.040415049 11515836
1.8135116 0.47342157 0.042683601 1253405
1.8148952 0.47535217 0.042951584 1455448
1.8169 0.47736812 0.043143392 5468565
1.8187296 0.48085839 0.041300535 4540512
1.8206122 0.48295492 0.041045308 8622755
1.8225765 0.48471445 0.042042255 10265774
1.8236921 0.48710376 0.041951537 11515321
1.8253964 0.48980117 0.042323828 11318454
1.8280592 0.49318093 0.041584134 11186616
1.8305327 0.49583578 0.040906072 11055544
1.8321623 0.49862242 0.040838659 10989752
1.8344822 0.50105536 0.040610075 11055289
1.8365786 0.50410879 0.040467262 11121081
1.8388302 0.506589 0.040183246 11055288
1.8404306 0.50922412 0.040292144 11055032
1.8428342 0.51176578 0.039873481 10989752
1.8443838 0.51437992 0.040027261 11055288
1.8459611 0.51698518 0.040319502 11121081
1.8057539 0.46845698 0.039908171 7170394
1.8093631 0.47247273 0.040936768 4144670
1.8110514 0.47471803 0.041459918 1187088
1.8127999 0.47661442 0.041159034 1059139
1.8162904 0.48179626 0.040474176 4609381
1.8183658 0.48374909 0.041071415 8360357
1.8199242 0.48594075 0.040846229 9739960
1.8330839 0.50251383 0.04069674 10989752
1.841563 0.51348007 0.039662838 10989495
1.8013225 0.46543479 0.040157378 7500140
1.8032503 0.46914679 0.040290594 6775635
1.8063729 0.47129381 0.040226221 5854525
1.8072721 0.47335464 0.039894879 4802599
1.8088256 0.47611052 0.03989476 1845020
1.8105447 0.47925889 0.037864506 1581861
1.8128587 0.48106754 0.038838446 2568756
1.814127 0.48254675 0.039729118 3098981
1.8163968 0.48571837 0.038543224 4742277
1.7996874 0.46787894 0.038586497 7697262
1.801182 0.47032571 0.037042081 7828850
1.8029013 0.47293329 0.037161648 7104350
1.8054876 0.47506875 0.037756205 6051906
1.8067458 0.47803855 0.036806703 8023380
1.8089941 0.47983271 0.037320673 5327925
1.8104998 0.48192167 0.037877083 2961449
1.8131059 0.48496503 0.03599894 1055241
1.8133199 0.48657036 0.03747195 2243683
1.7962601 0.46732378 0.036830366 8749176
1.7980678 0.46987939 0.036886692 8354677
1.7997541 0.47189349 0.037033558 8353898
1.8015292 0.4739691 0.036974132 8353125
1.8029456 0.47647059 0.037074745 7695446
1.8047149 0.47914475 0.035807908 7103052
1.8064289 0.48097086 0.036645651 4801582
1.8086231 0.48281085 0.036334157 3618596
1.8102839 0.48579592 0.035677493 1186066
1.7935317 0.46788961 0.036707461 8815226
1.7956522 0.47056276 0.036028802 8814713
1.797787 0.47334301 0.034523487 8880247
1.7991636 0.47581613 0.034919143 8879473
1.8011231 0.47803539 0.034067035 7827810
1.8026762 0.48007536 0.034863174 6708811
1.8038235 0.48251337 0.033423662 7037506
1.806409 0.48437333 0.034404576 4735517
1.7927446 0.46992296 0.033813 9012608
1.7935839 0.47221142 0.033588171 8946813
1.7954695 0.47488081 0.033218145 8749177
1.7973552 0.47692949 0.033316135 8091504
1.7987136 0.47963178 0.033456028 8221797
1.801286 0.48189181 0.032948852 7629395
1.8030922 0.48456985 0.033922791 5656111
1.7882565 0.46946454 0.032607198 9078398
1.7897542 0.47086048 0.032816887 9078397
1.7910783 0.47395492 0.032650113 8618364
1.7924104 0.47639823 0.032402396 8946299
1.795409 0.47810006 0.032905161 8814452
1.7961173 0.47968608 0.033182502 7959656
1.7997968 0.483778 0.032793105 6906181
1.7863286 0.47154033 0.031847 9012607
1.9447801 0.59505188 0.05340749 9412306
1.9466277 0.59796453 0.053810716 9214675
1.9500906 0.60045183 0.05339402 9740250
1.9524691 0.60471576 0.052950263 9477333
1.9539168 0.60701632 0.053681612 9346773
1.9567564 0.60951227 0.053678811 7965899
1.9588535 0.61301255 0.053962946 7570109
1.932601 0.58340383 0.05318296 11055068
1.9345348 0.58661073 0.053371787 11515616
1.9369966 0.586972 0.053085625 10266840
1.9386445 0.58971512 0.05340898 10135255
1.9411513 0.59343964 0.052976131 10069719
1.9412311 0.59557402 0.053535581 10003415
1.9439129 0.59608543 0.053287864 10200792
1.9454762 0.59951508 0.05325222 10463451
1.9479563 0.60280746 0.053307712 9937367
1.9505826 0.60667628 0.052806377 10200283
1.9540155 0.60933077 0.052840292 9214162
1.9535811 0.61090392 0.051839232 10265565
1.9563506 0.61328632 0.052095711 9015757
1.9211287 0.57144636 0.0527246 9872590
1.9228983 0.57475752 0.052664042 9806798
1.9253559 0.57698303 0.052719474 9806799
1.9272079 0.58010536 0.052666068 9741263
1.9296846 0.58242399 0.052507043 10266580
1.9319444 0.58425564 0.05282855 10595287
1.9331691 0.58701539 0.052755713 10398421
1.9349048 0.58925736 0.052932024 9346767
1.9355695 0.59113538 0.053032637 10726874
1.9384391 0.59425449 0.052715957 10397913
1.9405345 0.59703511 0.05330193 11383778
1.9444957 0.60292172 0.049868643 11120584
1.9464703 0.60609043 0.049974561 11317705
1.9490486 0.60806447 0.050386548 11251913
1.9509302 0.61096609 0.049987435 10660547
1.9522001 0.61287874 0.049283385 9610167
1.9537482 0.61567563 0.050075769 10857669
1.9566033 0.61844373 0.050437093 11448781
1.9571364 0.61921066 0.048936725 9544887
1.9588587 0.62209034 0.049796283 9216436
1.9130843 0.56393737 0.052312076 9872587
1.9147947 0.56692064 0.052313805 9741260
1.9150994 0.56982493 0.052084804 9806796
1.9175884 0.57129484 0.052444935 9741260
1.9192424 0.57415986 0.052775264 9741004
1.9216661 0.57638425 0.051789522 10726869
1.9238358 0.57892531 0.051718593 11055576
1.9257488 0.58143532 0.051455736 11515357
1.9274762 0.58407754 0.052045703 11449565
1.9290364 0.58554196 0.051651299 11055313
1.930514 0.58797306 0.052457571 9741007
1.9316343 0.58988595 0.050916195 11778515
1.9337077 0.5916307 0.050040781 12106950
1.9356353 0.59471565 0.050222754 12106951
1.9378059 0.59799284 0.049429715 10858430
1.9392066 0.59971297 0.049120188 9018798
1.9416482 0.60213822 0.049155891 9741239
1.9434474 0.60483539 0.049554467 10003896
1.9449124 0.60816091 0.049880803 10463933
1.9467361 0.60821265 0.049123287 9741492
1.9485052 0.61070442 0.049803257 9478325
1.9507405 0.61453146 0.049611926 9281461
1.9524078 0.61663514 0.048552275 9347255
1.9540751 0.61873853 0.047492564 9215930
1.9558496 0.62132782 0.047888875 9347770
1.9584152 0.62374091 0.048151851 9347768
1.9605178 0.62705326 0.048133492 9150132
1.9009991 0.55434471 0.050398946 9938632
1.9028749 0.55697477 0.050705552 9938377
1.9073167 0.56103694 0.050884783 9938378
1.9090986 0.56349939 0.051343441 9872586
1.9108531 0.56706417 0.051158309 9872331
1.9125924 0.56978941 0.051353931 9806539
1.9137621 0.57117641 0.050743222 10792658
1.9160261 0.5738517 0.049169064 11909582
1.9176939 0.57561934 0.050073981 11646683
1.9193075 0.57838625 0.05036968 11646683
1.921544 0.58032519 0.050992012 11581148
1.9236584 0.58273911 0.050188899 11778256
1.9252354 0.58445078 0.048904419 11121593
1.9273431 0.58799726 0.048719883 11121594
1.9293312 0.59116113 0.048895001 11121337
1.9317937 0.59388208 0.048512697 10661814
1.9333946 0.59611923 0.048775673 10267568
1.9350011 0.59867764 0.048541129 10004913
1.9372997 0.60130364 0.048413873 9610672
1.939503 0.6038931 0.048598289 9610164
1.9424469 0.60708106 0.047663271 9019314
1.9409806 0.60858715 0.047694445 9545139
1.9455054 0.61052275 0.04739064 9348022
1.9475975 0.61391288 0.047451735 9347766
1.9498808 0.6177116 0.047357321 9216184
1.9526417 0.62033302 0.04737848 9084601
1.954565 0.62307137 0.047899544 9084601
1.9561129 0.6244449 0.045370102 10200265
1.9580393 0.62777871 0.045496583 10397641
1.9598792 0.63081801 0.045837522 10726603
1.9620159 0.63410652 0.04584682 11252940
1.8901939 0.54353136 0.050100446 9478088
1.891974 0.54621828 0.050213158 9872584
1.8936071 0.54962456 0.050041676 10069960
1.8964942 0.5507012 0.050115645 10135496
1.8975632 0.55389762 0.050548494 10003912
1.8991024 0.55659014 0.050781786 9938376
1.901692 0.55875933 0.050626457 9807048
1.9035408 0.56056231 0.050377727 10661325
1.905525 0.56321025 0.049905181 10990033
1.9073212 0.56607783 0.050062776 10924497
1.9079053 0.56665385 0.048756242 12172749
1.9098365 0.56926554 0.049339592 11384271
1.9107598 0.57154173 0.049523592 11844055
1.913819 0.57437456 0.048547983 11450051
1.9152991 0.57680088 0.049076438 11844045
1.917448 0.57859093 0.048176885 11450043
1.9197216 0.58103937 0.047958612 10924469
1.9211104 0.58412737 0.04802537 11121592
1.9222453 0.58597118 0.047518253 10858934
1.9239872 0.58865416 0.047734618 11318717
1.9263235 0.59078944 0.047501028 10596277
1.9283835 0.59333962 0.047422409 10136496
1.9304655 0.5962615 0.047815681 10070960
1.9333532 0.60036838 0.047151566 10005171
1.9353664 0.60328823 0.046185553 10464442
1.9371648 0.60588235 0.045385242 10923970
1.9377043 0.60763985 0.047128558 9939636
1.943396 0.6128267 0.045832753 9938617
1.9457407 0.61624491 0.044075072 10595011
1.9475505 0.61979115 0.044166684 10660804
1.9506369 0.62240368 0.044050097 10397380
1.9523882 0.62496334 0.044629753 10200262
1.9547983 0.62669545 0.045131445 10134471
1.9550862 0.62914568 0.045345247 10134470
1.958813 0.63348269 0.045287848 10528968
1.8729438 0.52495056 0.050353944 9938372
1.8750355 0.52872604 0.049754262 9938372
1.8765038 0.53141707 0.050073922 10003909
1.8811054 0.5358234 0.049810529 9938374
1.8829689 0.53930223 0.049597979 9740742
1.8852493 0.54097807 0.049760461 9280454
1.8876691 0.54315406 0.049639404 9083846
1.8862758 0.54498363 0.049677491 9214916
1.8893325 0.54605347 0.049717247 9478087
1.8917699 0.54939121 0.049308598 10726606
1.8939903 0.55199355 0.050158858 10004167
1.8942474 0.55380833 0.049324989 10990030
1.8970544 0.55564445 0.04870677 12173270
1.8989255 0.55899662 0.048556447 12041686
1.900656 0.56157988 0.048250675 12173008
1.9024038 0.5643416 0.048091769 11647174
1.9048297 0.56636643 0.048103929 11844290
1.9066648 0.56943256 0.047977924 11318204
1.9093175 0.57070518 0.048238158 11383991
1.9093176 0.57345402 0.047650099 11055539
1.9114425 0.57568651 0.047639728 11187133
1.9130969 0.57852727 0.047318101 10792883
1.9155173 0.5809204 0.047157168 10727604
1.9182609 0.58451009 0.046902895 11187386
1.9208646 0.58763099 0.046193719 10268081
1.9225779 0.58986807 0.047084689 10202032
1.9246366 0.59410167 0.04637754 10136499
1.9273543 0.59657592 0.046505928 10070962
1.9302049 0.59896892 0.045410216 10464441
1.9320762 0.60193574 0.04592073 10464184
1.9336376 0.60501856 0.045019448 10923712
1.9355438 0.60823452 0.045069933 10989504
1.938947 0.6112138 0.044697821 10923971
1.9413004 0.61567259 0.044091344 10989250
1.9444184 0.618622 0.043774128 10857924
1.9459419 0.62129486 0.044370532 10726596
1.9482105 0.62521034 0.044034004 10529219
1.8583848 0.51106352 0.049876988 9938371
1.8626318 0.51464391 0.050063014 9806788
1.8641992 0.5176 0.049946904 9872580
1.8657594 0.52068299 0.049768567 10003908
1.8679841 0.52251387 0.049771786 9938372
1.8704774 0.52487659 0.049540162 9938372
1.8713071 0.52782971 0.050148964 9938628
1.8739208 0.53046304 0.049730659 9938628
1.8752953 0.53298664 0.05020237 9938373
1.8783653 0.53512019 0.049515307 9938374
1.8770401 0.53690219 0.049608946 9872837
1.8794562 0.53914148 0.049456656 9872582
1.8819938 0.54153937 0.049290776 9543878
1.8840666 0.54408765 0.047963023 10595520
1.8859813 0.54703176 0.047379494 10989758
1.8884616 0.54872817 0.048575342 10660815
1.8905151 0.55208158 0.048111796 11515091
1.8908278 0.55331498 0.047131896 11449535
1.8928238 0.55514324 0.047024012 11646655
1.8947887 0.5575968 0.047174692 11975617
1.8969727 0.56065249 0.047025442 11646908
1.8988872 0.56364846 0.046868145 11515319
1.9012877 0.56553894 0.047291934 11384246
1.9019219 0.56781203 0.046702385 10989745
1.9029963 0.56965315 0.045020938 10596272
1.9054236 0.57216197 0.046257198 10990003
1.9077809 0.57505417 0.046196222 10529965
1.9104722 0.57822061 0.04532814 10464944
1.9119225 0.58056992 0.04591763 10333616
1.9141426 0.5846504 0.045601666 10268081
1.9169288 0.58707708 0.045785546 10202289
1.9195528 0.58938396 0.046065986 10202289
1.9193826 0.59065795 0.043222129 11120830
1.921479 0.59321445 0.044635892 10464184
1.9238952 0.59556562 0.043587863 10923711
1.9261292 0.59854871 0.043846548 10923713
1.9289396 0.60143924 0.043767333 10989505
1.9289055 0.60328859 0.044402838 10923712
1.9430052 0.62033421 0.0437361 10857923
1.8491728 0.50273842 0.049390078 9675460
1.8526412 0.50507486 0.04946804 9806788
1.8528259 0.50702536 0.049560785 9740995
1.8557534 0.51027441 0.049554348 9938115
1.8561089 0.51265264 0.049533129 9938114
1.8599117 0.51405823 0.049843788 10004162
1.8604014 0.51714098 0.048939526 10661320
1.8619227 0.51993054 0.04891789 10595784
1.8651538 0.52251154 0.048746288 10924235
1.8675723 0.52591735 0.048960149 10661321
1.8684547 0.52861726 0.048566222 11055819
1.8716838 0.53175372 0.047010899 11383740
1.8729534 0.53525609 0.046918273 12173010
1.8748851 0.53535897 0.046732664 11646910
1.8761324 0.53773862 0.046846867 11317948
1.878377 0.54000533 0.046802878 11581118
1.8802605 0.54305482 0.046774566 11581118
1.8822458 0.54538053 0.046865702 11910084
1.8846219 0.54880053 0.046648145 11515331
1.8868575 0.55059063 0.047369123 10660798
1.8868257 0.55173153 0.046403527 11055026
1.8888664 0.55435646 0.046652853 10923439
1.8909004 0.5572654 0.045742154 11120818
1.8927863 0.56009072 0.045963407 11186867
1.895371 0.56297386 0.04525435 10595501
1.8968472 0.56516528 0.045226038 10596015
1.899616 0.56806999 0.04493928 10596015
1.9017122 0.57139689 0.045031548 10530479
1.9036129 0.57451546 0.045365572 10530736
1.9069629 0.57660568 0.045197904 10596272
1.9090738 0.57967907 0.045414805 10399408
1.9146534 0.58676636 0.042461216 11120829
1.9162023 0.58965409 0.042850137 11055038
1.9180553 0.59266418 0.042969763 10923710
1.9197409 0.59545708 0.043469608 10857662
1.9219286 0.59917581 0.04306376 10726079
1.8328912 0.48523843 0.049558401 9543876
1.834439 0.48807734 0.049366236 9543875
1.8388894 0.49255878 0.048632264 9609411
1.8404369 0.49539745 0.048440099 9543875
1.8416928 0.49835795 0.048530936 9609412
1.8443358 0.49930036 0.049270928 9675203
1.8474264 0.50360483 0.049037099 9675459
1.8489333 0.50648189 0.048927903 9543875
1.8501282 0.50822085 0.048227191 10003379
1.8525746 0.51054907 0.049375415 9675203
1.8547835 0.51349139 0.046746135 11317946
1.8568021 0.515755 0.047734499 10923709
1.858332 0.51863241 0.047837496 10923709
1.8604202 0.52112609 0.046984732 11054772
1.8628936 0.52322632 0.046462595 10594214
1.8638527 0.52550042 0.047087252 11844037
1.8664 0.52776694 0.046805859 11383736
1.8675567 0.53051823 0.046884537 11844291
1.8689463 0.53276372 0.046829045 11449276
1.8704402 0.53412986 0.046296775 11580853
1.872417 0.53725219 0.046495557 11778494
1.8743873 0.53980327 0.04648304 12106940
1.8766208 0.54215908 0.046790361 11252669
1.8784603 0.54475999 0.045464516 11844032
1.8803616 0.54808158 0.0447402 11647161
1.8825089 0.54887021 0.045147181 10398379
1.883081 0.55084926 0.045839071 11646649
1.8851972 0.55296874 0.044811368 10792882
1.8871686 0.55625433 0.044781148 10924211
1.8887566 0.5593735 0.044539392 10661294
1.8910477 0.56113279 0.045030475 10727086
1.8931416 0.56468385 0.044776738 10661550
1.8984406 0.56972772 0.044922531 10530479
1.8999536 0.57232994 0.041686893 11252667
1.9017837 0.57462734 0.042124987 11186875
1.9039563 0.57859969 0.041594505 11252412
1.9072855 0.57975268 0.04209125 11318204
1.9075587 0.58231974 0.042062879 11252412
1.9076419 0.58477598 0.041992664 11318205
1.9104891 0.58714527 0.042052209 11186619
1.9126396 0.59029251 0.042013228 11055036
1.9149132 0.59211951 0.042403936 10923451
1.8252859 0.47937244 0.048661709 9807044
1.8277966 0.48121983 0.048958302 9609668
1.8293037 0.48449451 0.049549818 9478083
1.8317841 0.48684877 0.049597144 9543876
1.8320006 0.48913658 0.0494892 9543876
1.8360651 0.49133694 0.048897386 9543876
1.8361499 0.49354452 0.048882663 9543876
1.8364317 0.49573588 0.04897207 9478083
1.839359 0.49740779 0.047524095 9937588
1.8408368 0.50013316 0.047591329 9937588
1.8436694 0.50332683 0.04756391 10003380
1.8452501 0.50538045 0.047349095 10134703
1.8463709 0.50750834 0.04635179 11054766
1.8488281 0.51024324 0.046693981 10988979
1.8515301 0.51285523 0.046328843 10988979
1.8529271 0.51504624 0.046442866 11317943
1.8549315 0.51815748 0.046027184 11449529
1.8568268 0.52081627 0.046229482 11449788
1.8593154 0.52242923 0.044955373 10923179
1.8600936 0.52454245 0.046349645 11909826
1.8613228 0.52684981 0.045463085 11646645
1.8634031 0.52899349 0.045371413 10660264
1.8654947 0.53152716 0.045014381 11186351
1.8673512 0.53421313 0.045798182 12435914
1.8684509 0.53573549 0.044668555 11712439
1.8709834 0.53924048 0.043385029 10857900
1.8732228 0.54109126 0.043748021 10857900
1.8756773 0.54326802 0.043945193 10792365
1.87625 0.5465802 0.044231772 11121330
1.879209 0.54892439 0.044267237 10595757
1.877897 0.5506773 0.044139504 10464429
1.8811609 0.55247319 0.044186234 10398893
1.882905 0.55556923 0.04433322 10464429
1.8901193 0.56414956 0.041008472 11318202
1.8918509 0.56700158 0.041141808 11383995
1.8942091 0.56827891 0.041768074 11383995
1.8960891 0.57193851 0.041600406 11252666
1.8978906 0.57504064 0.041591883 11186874
1.9003677 0.57683718 0.041976094 11186618
1.9023602 0.5803476 0.041812062 11055292
1.9043273 0.58364278 0.041855693 11120829
1.8192741 0.47640395 0.047206283 9149119
1.8209792 0.47792339 0.047762096 9938372
1.8230029 0.48049611 0.048228025 9740996
1.8251197 0.48355103 0.047310591 11055819
1.8266721 0.48564297 0.046923399 11121346
1.8278191 0.48743516 0.046777666 11910093
1.8311992 0.48996669 0.046380401 11383743
1.8329594 0.49317348 0.046001673 11383744
1.83462 0.49468714 0.046337247 10331556
1.8356701 0.49707001 0.045961142 11120569
1.8374796 0.49977189 0.045779884 11186357
1.8395945 0.50235999 0.045891523 11120569
1.8412359 0.50487548 0.045352101 11580864
1.8429356 0.5069679 0.045549691 11712445
1.8458498 0.50936252 0.045157909 12173003
1.8475668 0.51160669 0.045313954 12238536
1.8494508 0.51451236 0.0450086 11844034
1.8507618 0.51762331 0.044992507 12106948
1.8518736 0.51757652 0.044815898 11383741
1.8536185 0.52064776 0.043949604 11515317
1.8558501 0.52266288 0.044192553 11909562
1.8577526 0.52555108 0.044191837 11712439
1.859111 0.52855825 0.04439187 11383731
1.8620954 0.53134137 0.044126272 10792107
1.8623387 0.53304887 0.044119 11712439
1.8648112 0.53556746 0.044046283 11646646
1.8670597 0.53783774 0.043496013 10726572
1.8697321 0.54107243 0.043250442 10792108
1.8692133 0.54237533 0.042031407 11055283
1.8716049 0.54428744 0.042259812 11120819
1.8732427 0.54697192 0.04254514 10989747
1.8767195 0.54940522 0.040893793 11384252
1.8783979 0.55205113 0.04109627 11252668
1.882005 0.55639082 0.040737748 11055034
1.8820188 0.55859691 0.040809333 10857913
1.8845737 0.56092662 0.040743828 10857657
1.8869894 0.5627563 0.040961862 11120827
1.8880764 0.56684095 0.040872037 11252411
1.890397 0.56875199 0.04118669 11383995
1.8921361 0.57147706 0.041382313 11318459
1.8157241 0.47532451 0.045602381 4809631
1.8174142 0.47753209 0.046676636 8820416
1.8193262 0.48021179 0.047882557 9807044
1.8222437 0.48262012 0.045365453 10922937
1.8231063 0.48547137 0.045816481 11054771
1.8248959 0.48744291 0.046505988 11515328
1.8275092 0.48992282 0.045776427 10331300
1.8285873 0.49149764 0.046280324 11317950
1.8302577 0.49432707 0.045123696 10989235
1.8321683 0.49689972 0.045437694 11120565
1.8341587 0.49895674 0.044147909 10792108
1.8351269 0.50084043 0.044426918 11383996
1.8377383 0.50361985 0.044260144 11318201
1.8394066 0.50657713 0.044059634 11317943
1.841742 0.50919086 0.044237375 11581120
1.8436606 0.51096839 0.044121087 11383996
1.8454893 0.5131672 0.044206142 11383736
1.846431 0.51592177 0.04387629 11449525
1.8481429 0.51699173 0.043678343 10660521
1.8502911 0.52022672 0.043537259 10923694
1.8520014 0.5229122 0.043013453 11515320
1.8539684 0.52550787 0.042878091 11318197
1.8560293 0.52768344 0.041515946 11186872
1.8582135 0.52955276 0.041602135 11384250
1.8604144 0.53324217 0.040974975 11383994
1.8621716 0.53630906 0.040900707 11318458
1.8664539 0.54152954 0.040646791 11383994
1.8686948 0.54367828 0.040812492 11384250
1.8703325 0.54636258 0.04109782 11383994
1.8721355 0.54976231 0.040892065 11252409
1.8745167 0.55161554 0.041082382 11055289
1.8769922 0.55363649 0.041120589 11055033
1.8757663 0.55568343 0.040778458 10923450
1.8789012 0.55744785 0.040776491 10989241
1.8805315 0.56025892 0.040999532 10791863
1.8855989 0.5651812 0.040605366 10989242
1.8133836 0.47669291 0.045419335 5072543
1.8154892 0.47899622 0.044592619 8491949
1.8176911 0.48144352 0.044701576 10265003
1.819288 0.48312628 0.045020163 10791097
1.8212888 0.48513603 0.045542359 11449531
1.8215292 0.48822337 0.043206811 10725544
1.8245742 0.49070066 0.043836117 10791851
1.8264794 0.49333775 0.043751955 11055280
1.8284895 0.49520689 0.04351151 11120559
1.829741 0.49725801 0.043759644 10989488
1.8315254 0.50048137 0.043545842 10989488
1.8337226 0.50333184 0.043405652 10923694
1.8356345 0.50568908 0.043434024 10923694
1.8379061 0.50831205 0.0438779 11186618
1.8383462 0.50910968 0.042398095 10332585
1.840481 0.51118171 0.042929053 10398121
1.8423166 0.51439649 0.042824864 10332329
1.8445096 0.51823795 0.040475368 11055290
1.8468974 0.52021325 0.040672541 11055290
1.8492293 0.52248085 0.04082793 11121080
1.8517474 0.52685946 0.040761352 11121080
1.8556279 0.53130698 0.041150331 11121080
1.855714 0.53381199 0.040938377 11120824
1.8588722 0.53492278 0.040888309 11252410
1.8607156 0.53828388 0.040599704 11252411
1.8632596 0.54066706 0.040323138 11252665
1.8644025 0.54391342 0.040527761 11186874
1.8673676 0.54568452 0.040560067 11318458
1.8692007 0.54857713 0.040603638 11318458
1.8101014 0.47606862 0.043786287 926787
1.8125089 0.47850579 0.042191744 3299471
1.8127326 0.48030651 0.043820322 8754339
1.8156891 0.48278219 0.043160558 8949662
1.8171095 0.48602545 0.041894674 10002348
1.8184955 0.48758477 0.042516708 10857646
1.8208199 0.48938352 0.042298198 11252661
1.8223944 0.49248457 0.04264009 11318197
1.826206 0.49591684 0.042183518 10857906
1.8279619 0.49913317 0.041878581 10857906
1.8293061 0.50134826 0.041191816 10923704
1.831754 0.50392497 0.040838897 10923961
1.8344117 0.50659311 0.040486336 10989496
1.8359705 0.50992477 0.040252507 11055288
1.8366978 0.5103783 0.042449832 10398378
1.8384655 0.51244861 0.039705992 11055288
1.8405524 0.51585305 0.039154887 10989752
1.8424804 0.51702517 0.03986001 10989752
1.8435524 0.52081686 0.039898276 10923704
1.8450632 0.52324522 0.040480912 10792120
1.8481505 0.52490133 0.040264487 11055289
1.8496925 0.52764225 0.04035604 11121081
1.8044558 0.47246534 0.041155934 4736297
1.8061019 0.47465014 0.042309642 1712912
1.8073812 0.47710609 0.042615235 334396
1.8097986 0.47964317 0.042265773 3824521
1.8109782 0.48256713 0.040526867 4088986
1.8132952 0.48417866 0.041334689 6516354
1.814803 0.48664778 0.041661263 10331826
1.8172767 0.48862779 0.041335821 11712445
1.818103 0.49122608 0.041705012 11449788
1.8224438 0.4949739 0.041738987 10989752
1.8238975 0.49764502 0.041698933 10989496
1.8256857 0.50102478 0.041133404 10989496
1.8303481 0.50551021 0.040863216 10857912
1.8323112 0.50925404 0.040214896 10923704
1.8338532 0.51199526 0.040306389 10989496
1.836966 0.51386636 0.039882421 11055288
1.8387742 0.51736349 0.039393008 11055288
1.8404605 0.51988274 0.039657772 10989497
1.7971539 0.46699518 0.040225029 7500396
1.7983394 0.46913433 0.040419877 7104860
1.8008199 0.47141439 0.04094398 5854781
1.8025794 0.47414505 0.041750073 3553051
1.8039252 0.47723746 0.039049923 3093022
1.8051698 0.47817075 0.040796638 793902
1.8076241 0.48142248 0.038446069 532013
1.8091687 0.48363042 0.039905429 2834008
1.8110989 0.4849664 0.040127575 5138825
1.8125317 0.48867047 0.039430559 8359353
1.8150407 0.49000919 0.040645063 11186876
1.7948022 0.46863806 0.04032135 7237219
1.7971458 0.47045034 0.040673018 6644300
1.7984676 0.4724946 0.040978849 5591864
1.7998117 0.47557521 0.038856387 5196853
1.802633 0.47801495 0.039503694 2173207
1.8051993 0.48250735 0.038105607 3093036
1.8072815 0.48414111 0.038674414 2106654
1.808875 0.48756415 0.037304223 1321804
1.8100734 0.48887944 0.03830874 6189992
1.7920134 0.46894109 0.036863267 8814969
1.7942746 0.47158778 0.037130237 8288883
1.7962205 0.47404349 0.037501574 7498845
1.7974498 0.47628623 0.037821054 7038031
1.7998033 0.47823608 0.036686599 8681572
1.8016632 0.48159677 0.036683559 5853498
1.8032084 0.48329931 0.03768605 3158567
1.8045506 0.48656827 0.035643518 1974284
1.8064609 0.48726177 0.03650099 594464
1.7901466 0.47106481 0.036834657 8946294
1.7925546 0.47302115 0.036990345 7763056
1.7936707 0.47481102 0.036910892 8682091
1.7954404 0.47763383 0.036071241 8484713
1.7976651 0.48073107 0.035327792 6906191
1.7992104 0.48218799 0.035704792 6510915
1.8014022 0.48560369 0.034545243 4735519
1.8031676 0.48777354 0.035854816 1054226
1.7862936 0.47008103 0.034820616 8816004
1.7892797 0.47284377 0.034139156 8947072
1.7910042 0.4751392 0.034224868 9077626
1.7920423 0.47770047 0.033971369 7828590
1.7939692 0.47950619 0.033547163 8222313
1.7953331 0.48225039 0.034159482 7432275
1.797207 0.48441559 0.034242928 6905662
1.7998314 0.4864738 0.035060763 3946772
1.7843859 0.47173083 0.033378959 9144449
1.7870902 0.47379571 0.033131182 8947070
1.7881168 0.47595072 0.032975793 8946812
1.7894816 0.47820175 0.033424079 8157811
1.7915635 0.48049283 0.033168495 9471091
1.7928643 0.48280478 0.033098936 7892571
1.7821203 0.47270817 0.032378197 8816001
1.7843709 0.47537076 0.032491803 8816001
1.7878528 0.47808778 0.03197825 9012349
1.7882392 0.47998375 0.03249681 9471609
1.790332 0.48255408 0.032575607 8551021
1.9861569 0.61579078 0.068574309 2895688
1.9845998 0.61881769 0.067857623 3224393
1.9590758 0.61488843 0.054621339 7505364
1.9499128 0.60790074 0.053238034 8951762
1.9514867 0.6112771 0.053654432 8952017
1.9541452 0.61342359 0.053845108 9346770
1.9558611 0.61541957 0.054165542 9214670
1.9574165 0.61778361 0.054397821 9214412
1.93715 0.59480757 0.053033829 8820941
1.9390434 0.59791619 0.053188086 9871827
1.9413292 0.59944099 0.053845286 9215184
1.9430507 0.60212678 0.053668499 9872085
1.944603 0.60498458 0.052766204 10857433
1.9453317 0.60653067 0.053735137 9083345
1.947659 0.60942864 0.053355396 9543124
1.9505985 0.61242551 0.052727699 10200537
1.9522622 0.61477041 0.052720428 10791645
1.9536223 0.61688864 0.053493202 10331610
1.9564376 0.6194672 0.053500652 8752845
1.9203622 0.57860649 0.052775204 9741005
1.9253459 0.58273673 0.05270642 9675213
1.9277127 0.58678085 0.052539408 10595286
1.9290824 0.58934325 0.052689493 9675214
1.9312184 0.59132397 0.052660227 10332628
1.9333601 0.59420502 0.052629411 10661079
1.9350846 0.59719598 0.052845597 10069459
1.9376252 0.59925735 0.053198695 9740751
1.9392998 0.60171819 0.054148257 9346767
1.9406273 0.6028294 0.052476287 10528978
1.94157 0.60599345 0.051414728 10726092
1.9428433 0.60829002 0.050554812 11186372
1.9453263 0.61035794 0.051570058 11054543
1.9478085 0.61366212 0.050807059 10594502
1.9492685 0.61594021 0.049926758 9412533
1.9514205 0.61760885 0.050331116 11054024
1.953914 0.62026978 0.050624967 11251403
1.9549748 0.62212354 0.05030787 10332605
1.9555954 0.6245749 0.050563812 10529725
1.96218 0.631046 0.048428655 9018288
1.9167237 0.57611555 0.052323461 9675468
1.919621 0.58110106 0.05167979 10595283
1.9217803 0.58359963 0.05200541 10266833
1.9235897 0.58604068 0.052336752 10595284
1.92573 0.58884352 0.052240849 10858199
1.9277294 0.59140784 0.052879691 9741005
1.9280455 0.59284282 0.051828206 11449564
1.9307606 0.59581488 0.05184567 11581149
1.9330406 0.59659684 0.05043149 11975366
1.9354181 0.60042644 0.050067484 11646915
1.9365041 0.6023007 0.050698102 10069694
1.9380131 0.60427028 0.051070035 10726084
1.9398811 0.60691565 0.049777567 10332853
1.9406641 0.60954899 0.050169766 10661306
1.9434035 0.61175525 0.050312161 10660795
1.9461544 0.61511284 0.049264252 9478579
1.9469552 0.61777765 0.049932003 10332092
1.9494224 0.61842257 0.050783575 10988230
1.9512801 0.62160528 0.049287975 9675194
1.9529898 0.62466347 0.047958136 9018808
1.9564991 0.6262784 0.048088372 9282233
1.9567299 0.62858617 0.048340201 9479096
1.957432 0.63150728 0.0481776 9742265
1.9601849 0.63384563 0.048506677 10070455
1.9049044 0.56454664 0.051093102 9806793
1.9068439 0.56785113 0.05099833 9741257
1.9087074 0.57133001 0.050785661 9675209
1.91081 0.57272929 0.051290452 9675210
1.9127177 0.57569671 0.05139637 9609418
1.9140567 0.57794654 0.052037597 9543627
1.9166524 0.57980323 0.051246047 10595282
1.9184701 0.58308607 0.051282465 10595283
1.9203638 0.58576006 0.050793648 11581147
1.9216112 0.58802772 0.051562607 11515355
1.9243793 0.59183925 0.050071836 11646671
1.926659 0.5936026 0.049288988 11318460
1.9288075 0.59680617 0.050006866 11318212
1.9305384 0.59921134 0.049713194 10990009
1.9325912 0.60190493 0.049886346 10661558
1.9350419 0.60494828 0.049359143 10070705
1.9356806 0.60528207 0.050121069 11712709
1.9370515 0.60798085 0.049665809 10070705
1.9400383 0.61091244 0.047242045 9808053
1.9425182 0.61324203 0.049431324 9807538
1.9422863 0.61498392 0.047064424 9807797
1.9449506 0.61727697 0.04803431 9479092
1.9468944 0.6206547 0.047606349 9281974
1.9489737 0.62393737 0.047771215 9084598
1.9519461 0.62694794 0.047595501 8953015
1.9544294 0.63048172 0.046937823 9609663
1.9572246 0.63510394 0.045567751 10462919
1.9598501 0.63702506 0.045786142 10989258
1.9609258 0.64075345 0.045855582 11054537
1.8908935 0.55251426 0.050630212 10003911
1.8956165 0.5570789 0.050353169 9872584
1.8972214 0.55967492 0.050783753 9807048
1.8997424 0.56202841 0.050690472 9872584
1.9013689 0.56490284 0.050882339 9938376
1.9030118 0.56775939 0.050527871 10529997
1.905301 0.56980491 0.051146746 9872585
1.9072659 0.57332462 0.050844371 9741001
1.9086838 0.57457942 0.050175428 10661328
1.9101443 0.57636654 0.048738539 11975373
1.9128129 0.57962734 0.048760355 11843792
1.9143047 0.5823977 0.048743427 11384008
1.9165471 0.58436352 0.049486756 11121354
1.918498 0.58692706 0.05066514 11581145
1.9195911 0.58797991 0.047699153 11055544
1.9211755 0.59059495 0.048171282 10989752
1.9233249 0.59271568 0.048425496 10727093
1.9244746 0.59560794 0.049219489 10924217
1.9266839 0.59905875 0.048827648 10136238
1.9287952 0.60066718 0.046707273 10005170
1.9326887 0.60508537 0.046874881 9873586
1.9330074 0.60743856 0.046967864 9807794
1.9358274 0.61052483 0.047044218 9808050
1.9379915 0.6138041 0.047191918 9742259
1.9406445 0.61639911 0.047413528 9808052
1.942875 0.61985534 0.047270775 9610420
1.9499717 0.62782884 0.044651628 10331844
1.95186 0.63070315 0.044971943 10200261
1.9537909 0.63331467 0.045555353 10134469
1.9557118 0.63655084 0.045965552 10331334
1.9602398 0.64445931 0.044649005 10856646
1.8853481 0.54732889 0.049584806 9478085
1.8868977 0.54994345 0.049738586 9806790
1.8889918 0.55158168 0.050008059 9938118
1.8898368 0.55482793 0.05048883 9938374
1.8921187 0.5568015 0.05045408 9872583
1.8934305 0.55925512 0.049801588 10529995
1.8955219 0.56155682 0.049441338 10858702
1.8979799 0.56380695 0.049787164 10858446
1.899729 0.56678993 0.047938704 12107211
1.9013696 0.56872797 0.049113274 11975636
1.9035014 0.57152158 0.048223555 11384007
1.9040554 0.57382143 0.047109842 10463915
1.9062957 0.5751214 0.048411489 11975631
1.9082301 0.57795984 0.048359036 11449798
1.9107156 0.58114475 0.048195541 11252416
1.9121641 0.58399153 0.048192263 11909569
1.9148881 0.5853709 0.047885358 10727092
1.9144757 0.58750772 0.04800117 10923958
1.9174316 0.59032243 0.047461629 10661301
1.9196963 0.59199357 0.048306227 10792632
1.9209483 0.59496796 0.047062039 9807534
1.9227862 0.59695262 0.046141088 9873585
1.9246073 0.59976226 0.046578884 9808049
1.9268982 0.60343432 0.046546817 9873585
1.9290591 0.60547298 0.04473412 10923456
1.9309611 0.60656667 0.045764327 10398648
1.9312949 0.60921288 0.045729101 10332856
1.933587 0.61135691 0.044836581 10857919
1.9355706 0.61469644 0.044807553 10791871
1.9390042 0.61826175 0.04417932 10857665
1.9431945 0.62333888 0.043645144 10726337
1.9437232 0.62633008 0.043485641 10660545
1.9466549 0.62691993 0.044168651 10594755
1.9486799 0.62969923 0.04459995 10397635
1.9506061 0.63303274 0.044726491 10331843
1.8618052 0.52145159 0.049885392 10003908
1.8709607 0.53143495 0.050060272 9872836
1.8712631 0.53415364 0.049855471 9806789
1.8735461 0.53656143 0.049740911 9806789
1.8752047 0.53963637 0.049614668 9740997
1.8774524 0.54163355 0.049552083 9609669
1.8798718 0.54394639 0.049548626 9346501
1.8823851 0.54642659 0.049392939 9543622
1.8811264 0.54838544 0.049196064 9412037
1.8844428 0.55139965 0.048825502 10135240
1.8869679 0.55413461 0.048678517 10923469
1.8895441 0.55649066 0.048128724 12041427
1.8900998 0.55871558 0.046648443 10594729
1.8917816 0.56088841 0.047252297 11318206
1.8936137 0.56266367 0.047510862 12238538
1.8958776 0.56549591 0.047753453 12106957
1.8975226 0.56807035 0.047560453 11581124
1.8999962 0.57024479 0.047657371 11515584
1.9007158 0.57268822 0.047724485 11449792
1.9027669 0.57537639 0.046843886 11646906
1.9051131 0.57819927 0.046640754 11187126
1.9074273 0.5802263 0.047369063 11252918
1.9076525 0.58211398 0.046847463 10924467
1.9099643 0.58336544 0.046277046 10267565
1.9119911 0.58690584 0.046276808 10070446
1.9147542 0.58914155 0.045994997 10070704
1.9137106 0.59142625 0.045632303 9939119
1.9165245 0.59425342 0.045584321 9807535
1.9187613 0.59605569 0.046089053 9741743
1.9206344 0.59918332 0.046284795 9676208
1.9238367 0.60107446 0.043965697 10660543
1.9258437 0.60460502 0.044161379 10660544
1.9276989 0.60739088 0.044626951 10792127
1.9293873 0.61077899 0.044732213 10792127
1.9377909 0.62055296 0.043850899 10791871
1.9401989 0.62496871 0.043230772 10726080
1.942239 0.62858737 0.043281257 10660545
1.9456902 0.62962544 0.043529272 10594754
1.853549 0.51423675 0.049534559 9740995
1.8551548 0.51765233 0.049224734 9806787
1.8567829 0.5206877 0.04910177 9806787
1.8594222 0.52107662 0.049251735 10004164
1.860878 0.52352345 0.049557626 9938371
1.8631462 0.52604812 0.049200952 9872324
1.8646526 0.52851534 0.049461961 9806787
1.8662605 0.53156996 0.049380541 9806788
1.8677034 0.53336275 0.050042927 9740995
1.8699607 0.53555548 0.05013597 9609412
1.8722128 0.53869402 0.048703372 10858443
1.8752394 0.54322296 0.047329187 11384264
1.8776634 0.5461427 0.047569752 10529727
1.8796197 0.54709828 0.047243237 12041683
1.8809311 0.55015218 0.046715081 10923964
1.8828237 0.55337292 0.046696305 10857916
1.8844455 0.55524904 0.046624064 11055288
1.8864648 0.55809617 0.046985149 11383741
1.8887255 0.56009156 0.046724796 11778238
1.8897679 0.56244427 0.04592669 11844283
1.8916032 0.56524515 0.046023965 11515318
1.8939781 0.56677139 0.046392441 10858416
1.8955147 0.56989729 0.04674542 10923953
1.8976192 0.57168978 0.045722485 10333100
1.899472 0.57434618 0.045764446 10793138
1.9013977 0.57744628 0.045496225 10924725
1.9036081 0.5805034 0.0451864 10333616
1.905695 0.58365935 0.045413613 10333615
1.9082142 0.5863986 0.04538238 10399152
1.9100873 0.58952624 0.045578122 10267823
1.9131551 0.59374756 0.042718112 10923450
1.9157428 0.59575582 0.042877555 10791867
1.9177821 0.59880352 0.04289031 10660284
1.9208368 0.60162544 0.042721629 10528958
1.9226816 0.60394293 0.043519497 10397629
1.9248182 0.60723144 0.043528795 10463167
1.8321232 0.49125695 0.049533427 9543876
1.8336983 0.49408627 0.049479663 9609412
1.837949 0.49908149 0.048530638 9477828
1.8405955 0.50169122 0.048862875 9543875
1.8434676 0.50509536 0.048697114 9609668
1.8449895 0.50771892 0.048712492 9543875
1.8475525 0.50855565 0.0489797 9609668
1.8477817 0.51137722 0.049073339 9609411
1.8497794 0.51451349 0.048522174 9872057
1.8521862 0.51665229 0.049316525 9609411
1.8546739 0.52094197 0.047949553 10003380
1.8571877 0.52358365 0.048201978 10595528
1.8586842 0.52635646 0.048256457 10529736
1.8620421 0.52971917 0.047172189 11121090
1.8637332 0.53263438 0.046824038 11581378
1.8667219 0.53494412 0.046478033 11383740
1.8690226 0.53783035 0.046211183 10463142
1.8695946 0.53942025 0.0462991 11647168
1.8705463 0.54159617 0.046302199 12501450
1.8731976 0.54393721 0.046127796 11318200
1.875181 0.54719621 0.045894742 11252409
1.8771002 0.54937083 0.046433389 11121085
1.8786879 0.55164117 0.045938969 11647171
1.8805569 0.55416924 0.045589864 11186874
1.8815435 0.55694127 0.045201659 11252664
1.8841702 0.55901527 0.045249343 10924210
1.8857582 0.56174099 0.045571446 11121074
1.8876398 0.56442726 0.045603693 10990001
1.8900478 0.56653243 0.046022177 10397864
1.8904921 0.56797445 0.044728816 10595758
1.8929529 0.57027346 0.044932902 10530222
1.8959457 0.5732649 0.044715643 10464686
1.8976568 0.57627273 0.045007944 10267822
1.8988607 0.57838172 0.042090178 11120826
1.9000212 0.58013135 0.044865251 10070701
1.9009138 0.58197117 0.041919351 10923450
1.9061928 0.58689725 0.041989028 11120829
1.9080915 0.59024024 0.041977167 11120828
1.9099522 0.59312361 0.042159081 11055035
1.9123523 0.59657323 0.041982055 10923707
1.9141648 0.59962183 0.042184591 10791867
1.9158483 0.6026386 0.04233849 10594747
1.9193271 0.60366756 0.042724848 10397628
1.8229094 0.48247284 0.048835754 9543876
1.8244418 0.48556495 0.048518896 9412548
1.825852 0.48767918 0.048956335 9346755
1.8275452 0.48881757 0.049380839 9478083
1.8289683 0.49144912 0.049344182 9412291
1.8304989 0.49383378 0.049594939 9412291
1.8325123 0.49527556 0.049795151 9478083
1.8345618 0.49794739 0.0492028 9543619
1.8362453 0.50134963 0.048695922 9478083
1.8377254 0.50412363 0.048621297 9478083
1.8402433 0.50503755 0.048649669 9478083
1.8417914 0.50837713 0.047924638 9674937
1.8437688 0.51080775 0.047679901 9806259
1.8458345 0.5124433 0.048027039 10003124
1.8473562 0.51520354 0.048160017 9937844
1.850296 0.51810092 0.04711616 10397349
1.8517931 0.51968956 0.047356844 11252684
1.8530425 0.52235419 0.046526134 11252410
1.8553916 0.52481449 0.046510279 11383739
1.856252 0.52729201 0.046268582 11317947
1.8585863 0.52953553 0.046175063 11055028
1.8601625 0.53202736 0.045875907 11449528
1.8621523 0.53462601 0.045609713 11778238
1.8627779 0.53711283 0.045349121 11383988
1.865365 0.53827709 0.045476794 11646909
1.8671123 0.54102433 0.045756578 11844287
1.8689117 0.54326993 0.046052814 11844030
1.8713923 0.5461399 0.045730948 11646915
1.8727291 0.54849613 0.044663668 11187135
1.8743794 0.55051202 0.044631124 11121339
1.8758585 0.55318511 0.044351339 10858674
1.8784077 0.55515212 0.044913113 10135464
1.8802583 0.55836225 0.044396222 10267564
1.8838578 0.56228203 0.044228137 10398636
1.8890319 0.57029891 0.041128159 11252411
1.8940907 0.57452816 0.041412175 11252666
1.895726 0.57771015 0.041586637 11186618
1.8975866 0.58059376 0.041768551 11120826
1.8994142 0.58338898 0.04209578 10923449
1.9023174 0.5865593 0.041691542 10791609
1.9046781 0.58856857 0.042040825 10726073
1.9068177 0.59245235 0.0416556 10792121
1.908757 0.59575695 0.041560769 10923706
1.8176142 0.48091799 0.047439814 9741251
1.8200409 0.48299223 0.048394382 9478083
1.8216535 0.48584658 0.047985554 10332615
1.8231103 0.48840088 0.048081696 10201030
1.8246691 0.48946369 0.048877239 9346499
1.8261151 0.49226141 0.048774838 9280963
1.8291577 0.49490142 0.046392798 11844300
1.8311112 0.49811405 0.047553539 10661064
1.8317931 0.49879414 0.046126127 10331299
1.8333805 0.50186783 0.046086073 10331300
1.836238 0.5044862 0.046196163 10331556
1.8384619 0.50708348 0.046286702 10265764
1.8392429 0.50851274 0.046370506 10265764
1.8414116 0.51170391 0.045536041 11186353
1.8438104 0.51459467 0.045827866 11186357
1.8455322 0.51674604 0.045928657 11384000
1.8476229 0.51923013 0.04596591 11383744
1.8488989 0.52157974 0.046469808 11383744
1.8512871 0.52410561 0.045005441 11252411
1.8529954 0.52647704 0.044485271 11055023
1.8547632 0.52843434 0.044816852 11449529
1.8557229 0.53050494 0.044161022 11778233
1.8578699 0.53302479 0.044820428 11581114
1.8599026 0.53644246 0.043746293 11778233
1.8625112 0.5384317 0.043623328 11186610
1.8641903 0.54136711 0.043772697 11186610
1.8656327 0.54211253 0.045220673 12107473
1.867331 0.54477727 0.042891502 10660779
1.8697847 0.54706621 0.042915702 10529708
1.8705945 0.5495165 0.044109344 11252661
1.8722852 0.55279207 0.043664694 10267307
1.8774555 0.55780417 0.043761849 10398636
1.8772929 0.5589515 0.040980339 10857913
1.8792046 0.56226528 0.040747166 10857912
1.8823676 0.56374705 0.04064852 10791863
1.8842462 0.56697226 0.040560544 10726327
1.885816 0.56970429 0.040790439 10989240
1.8872738 0.57192677 0.041442335 11055289
1.8898604 0.57404733 0.041428804 11120826
1.8920329 0.5774731 0.041151106 11055290
1.8943202 0.57929558 0.041610956 11120826
1.8962064 0.58239412 0.041585326 11055034
1.8138926 0.48011893 0.046828032 9806787
1.8156636 0.48233265 0.047717929 9741252
1.8178012 0.48569554 0.046648145 10726589
1.819683 0.48712319 0.046247482 11712708
1.8211861 0.49003428 0.046502531 11317951
1.8232458 0.49240875 0.046213567 11055032
1.8249915 0.493294 0.045635343 11120564
1.826545 0.4962672 0.045956731 11055032
1.8282986 0.49932909 0.04579258 11054776
1.8306986 0.50174141 0.045673072 11120568
1.8325708 0.50391984 0.045101404 11515327
1.8341322 0.5060975 0.045181632 11449274
1.8363042 0.50827342 0.043833494 11515323
1.8389654 0.51118869 0.044544339 11449534
1.8401831 0.51337183 0.044583976 11317946
1.8418336 0.51617128 0.044339776 11646657
1.8436223 0.51763827 0.044176936 10989237
1.8452512 0.51984125 0.043685555 11317940
1.8474183 0.52325642 0.043480396 11120560
1.84885 0.52636957 0.043365717 11383732
1.8501278 0.52865231 0.043479443 12238528
1.8519794 0.52983713 0.043658733 11383732
1.8532372 0.53227544 0.043569922 10594986
1.8559606 0.53484738 0.043414652 10529450
1.857933 0.53696114 0.042258739 10792369
1.8598185 0.54017186 0.042060077 10726577
1.8622079 0.54320204 0.043519139 10463915
1.8659129 0.54611844 0.042902112 10529707
1.8668728 0.54837012 0.041668177 10792627
1.8678811 0.5504567 0.040413499 11186875
1.8702526 0.55293459 0.040430546 11055288
1.8717992 0.55550027 0.040726244 10923447
1.8734931 0.55843925 0.040800631 10726327
1.8757856 0.56049615 0.041094422 10792120
1.8776898 0.56393647 0.040798903 10857912
1.8801206 0.56605911 0.040888846 10792121
1.8827391 0.56851661 0.040674686 10857912
1.8844302 0.57140708 0.040890813 10989240
1.8087661 0.47768825 0.044834495 3560331
1.8104391 0.47931778 0.046083212 8096956
1.8124292 0.48269665 0.045641303 10331824
1.8145533 0.48438287 0.045028806 10528172
1.8157167 0.48631227 0.0455212 11646660
1.8175447 0.48821521 0.045758843 10988978
1.8195105 0.49106783 0.045785308 10265764
1.8219633 0.49382496 0.045130312 11383738
1.8232291 0.49553841 0.044275284 10857645
1.8253177 0.49809146 0.044118881 11121077
1.8269541 0.50090885 0.043738961 11515319
1.8289583 0.50331831 0.043848753 11186613
1.8307129 0.50576729 0.044149458 11581117
1.8323776 0.50753629 0.042851269 10857902
1.8344078 0.5101757 0.043759942 11778240
1.836375 0.5122391 0.043288052 11120820
1.8375137 0.51468134 0.043211341 10989490
1.8394349 0.51734185 0.042959332 10726573
