# .PCD v0.7 - Point Cloud Data file format
VERSION 0.7
FIELDS x y z rgba
SIZE 4 4 4 4
TYPE F F F U
COUNT 1 1 1 1
WIDTH 1093
HEIGHT 1
VIEWPOINT 0 0 0 1 0 0 0
POINTS 1093
DATA ascii
0.29785466 0.096141204 0.0024251938 9276044
0.30041125 0.098512262 0.0022727251 8815749
0.30258679 0.10105155 0.00084161758 8289660
0.30400327 0.10364332 0.00070381165 8749955
0.30572116 0.10588524 9.6797943e-05 8815239
0.30800146 0.10749256 -0.00097095966 9077126
0.30953127 0.10985178 -0.0012772679 8945798
0.3120797 0.11249621 -0.0013121367 8945284
0.31494218 0.11382017 -0.0012701154 9471884
0.35956001 0.15990438 -0.016695499 7101501
0.36366904 0.16327357 -0.018294096 7628112
0.36709625 0.16427872 -0.018212914 7497555
0.36950028 0.16944674 -0.019431114 7497297
0.2728892 0.07568416 0.0073261261 8749452
0.27587086 0.075707532 0.0080804825 8946828
0.27898321 0.078666195 0.0057352781 8946828
0.28137863 0.083892047 0.0051329136 9275020
0.28452206 0.0855451 0.0051573515 9143439
0.28719983 0.086092629 0.0043262243 9078153
0.28874969 0.092572726 0.002294898 8420992
0.29243791 0.093994729 0.0023838878 8749958
0.29406273 0.095961951 0.00091487169 8486541
0.29632211 0.098250717 0.001093328 9013136
0.29812863 0.10069482 -0.0010390878 9209482
0.30063534 0.10191832 -0.0012911558 9011334
0.30253705 0.10458276 -0.0011590719 9142919
0.30446294 0.10622636 -0.0012549162 9208969
0.30655664 0.10881218 -0.00095903873 8748934
0.35735065 0.15752816 -0.017867148 8153184
0.35886145 0.16159986 -0.01873517 7562320
0.36090815 0.16193649 -0.01901418 7628113
0.36637181 0.16824102 -0.019820809 7365458
0.25366366 0.05842445 0.010663807 9144201
0.25558889 0.059150152 0.010322273 9144201
0.2584309 0.060181051 0.0099408627 8881033
0.26211172 0.065851375 0.0076905489 8947341
0.26504892 0.066917561 0.0072623491 8881547
0.26740813 0.072131552 0.0067375898 8946827
0.2703934 0.072876476 0.0058976412 8815244
0.27954596 0.08249937 0.0022654533 8420738
0.28078237 0.083747409 0.0018734932 8354684
0.2865535 0.090351619 -0.00022387505 8946054
0.28891671 0.092090137 -0.00055134296 8945284
0.29128939 0.093347073 -0.00077515841 9142661
0.29285669 0.095905617 -0.00077241659 9077126
0.29514414 0.098773621 -0.00084209442 9340555
0.29728699 0.1002292 -0.0015026927 9602703
0.24813315 0.05489444 0.0099913478 8946826
0.25010785 0.055597551 0.0097339153 8880263
0.25299364 0.056709208 0.0092884302 9143948
0.25912863 0.063778736 0.0071418285 8881035
0.26358676 0.067580812 0.004073441 8355705
0.2648918 0.068898194 0.0036596656 8354943
0.26743329 0.071463622 0.0028538704 8420738
0.26935655 0.073405072 0.0022441149 8355198
0.27127993 0.075346448 0.0016343594 8289658
0.27303582 0.077975161 0.0013070107 8223868
0.27521729 0.080450825 0.00064092875 8551810
0.27719194 0.082453161 0.00020372868 8880516
0.27876139 0.084342293 -0.00031131506 8945797
0.28115481 0.086832084 -0.00044727325 9142663
0.28355455 0.089257844 -0.00046122074 9143175
0.28572917 0.091193572 -0.0010614991 9076870
0.23576647 0.043741465 0.0098643899 9012358
0.23763835 0.0445356 0.0095725656 9012363
0.24221697 0.050274834 0.0084599257 9933718
0.24475692 0.051437445 0.0083107948 9999768
0.24655193 0.052770726 0.0088038445 9933720
0.25561213 0.063045904 0.0039722919 8223880
0.25684854 0.064293981 0.0035803318 8289673
0.25880617 0.066270076 0.0029597282 8223361
0.26064175 0.068245299 0.0024104714 8224119
0.26448831 0.072128154 0.0011909604 8354943
0.26677203 0.074461646 -0.00047779083 8945541
0.26912433 0.076693811 -7.134676e-05 8879748
0.27237925 0.078680612 0.00033426285 8748674
0.27363557 0.081958979 -0.00041842461 9142406
0.27498299 0.083449438 8.2075596e-05 8880261
0.22575247 0.034328617 0.011678219 8683908
0.22767779 0.035054319 0.011336744 8749701
0.22837928 0.039555058 0.00951159 9143435
0.23030466 0.040280737 0.0091700554 9078156
0.23338959 0.04195632 0.0092350245 8881032
0.23748089 0.046551608 0.0072294474 9407377
0.23911548 0.048606858 0.0083670616 9736595
0.25160277 0.061086841 0.0022318959 9538959
0.25310525 0.062990807 0.0018592477 8684166
0.25810087 0.067994669 2.7060509e-05 9010822
0.25956202 0.069152705 -0.00040215254 8880005
0.26184541 0.070328645 -0.0004761219 9011078
0.26401657 0.07330744 -0.00021588802 8945542
0.26558459 0.075737379 -0.00039076805 8880261
0.21476026 0.027337797 0.010311425 8749702
0.21673483 0.028041027 0.010053992 8815495
0.21910542 0.029925629 0.010673881 8683912
0.22765803 0.037885256 0.0081191063 8946313
0.23847446 0.050502807 0.0036569238 9472652
0.24103522 0.053160071 0.0027453899 9866383
0.24361104 0.055760205 0.0019287467 9800849
0.24511576 0.05774799 0.0011409521 10063766
0.24758762 0.059513062 0.00038385391 9866898
0.25102794 0.061080955 0.00024706125 9932692
0.25178736 0.064200848 -0.0001667738 9275019
0.25383073 0.066539235 -0.00047320127 8682883
0.25631058 0.067716904 -0.00030505657 8945798
0.19720483 0.010101825 0.012793422 8617862
0.2083604 0.023502998 0.0098299384 8684424
0.21127301 0.024580374 0.0093595982 8947340
0.21304123 0.025947854 0.0098774433 8618376
0.22023651 0.033664122 0.0077771544 8814987
0.23199424 0.045152694 0.0024596453 8749693
0.23370215 0.04798723 0.0019478798 8748412
0.23588583 0.050063781 0.0014415979 9208452
0.23805906 0.052577563 0.00068736076 9537674
0.241142 0.053629808 0.00090414286 9866385
0.24259596 0.055992611 0.00092089176 10064020
0.24505256 0.057593822 0.00014483929 10064277
0.2484836 0.062919647 -8.7022781e-05 9801104
0.19130164 0.0069478899 0.012678504 8618371
0.19336587 0.0086733326 0.013356507 8683653
0.19753052 0.013716944 0.011784911 8617860
0.19945586 0.014442667 0.011443436 8617863
0.20288894 0.019996412 0.0091884136 8815756
0.20579191 0.021027811 0.0087711811 8618383
0.2086511 0.022173591 0.0083506703 8684169
0.21706548 0.031274021 0.0039410591 8552066
0.21902311 0.033250108 0.0033203363 8684165
0.22044525 0.034866437 0.0026203394 8683651
0.22281793 0.037855528 0.0023245811 8355451
0.22430971 0.040385664 0.0019834042 8682879
0.2264744 0.041951217 0.0014126897 8551810
0.22892851 0.044089094 0.00094902515 9077640
0.23091021 0.046078585 0.001529336 8945029
0.23364624 0.047699019 0.00062406063 8879747
0.18332654 0.00199949 0.011871815 8618375
0.18530124 0.0027026981 0.011614442 8618375
0.18793075 0.0051784441 0.012637377 8552580
0.20839553 0.025961407 0.0037623644 8880259
0.21083686 0.028029256 0.0031993985 8616832
0.21261169 0.031047724 0.0024892688 8616834
0.2142894 0.032077581 0.0023351908 8616832
0.21721223 0.033872142 0.0022295117 8879491
0.21931875 0.037157573 0.0022292137 8945284
0.22119179 0.039070211 0.0020580292 8682113
0.22273719 0.040630296 0.0015679002 8551038
0.1976651 0.016396746 0.0042105913 8288893
0.19835529 0.018558532 0.0040866733 8682621
0.20022881 0.020339333 0.0038796663 8880001
0.20289682 0.023335867 0.0030854344 8617088
0.20486052 0.024610572 0.0026996732 8616577
0.20630389 0.026544623 0.0021218061 8945284
0.20864663 0.029327229 0.0024135709 8945540
0.21048649 0.030614495 0.0022130609 8813699
0.19026592 0.010925181 0.0034015179 8879492
0.19240952 0.015101567 0.0031023026 8288126
0.19501659 0.016949087 0.0028194189 8550529
0.19675931 0.019909546 0.0015174747 8682368
0.19981006 0.022101484 0.0022765398 9010820
0.20142819 0.022136427 0.0017519593 8945796
0.17685643 0.0011840761 0.0049398541 8683649
0.17912626 0.0036597103 0.004368782 8747653
0.18084392 0.0050183162 0.0037038326 8288894
0.18327194 0.0077973157 0.0032200813 8682113
0.18563306 0.009352006 0.0026068687 8747649
0.1881728 0.011523083 0.0021011829 8748926
0.18986621 0.013886265 0.0018107891 8683136
0.19169703 0.015420027 0.0015628338 8682624
0.19320481 0.018092871 0.001511991 8551039
0.17551769 0.0024840236 0.0030192733 9077126
0.17745304 0.0046432838 0.002222836 8879490
0.18056674 0.0061011761 0.0024507046 8748161
0.18236262 0.00730782 0.0023140311 8813697
0.17693284 0.004902564 0.0014075041 8289920
0.18084808 0.0088547841 0.00016617775 8224125
0.18284002 0.010865539 -0.00046527386 8288886
0.18483201 0.012876354 -0.0010968447 8552565
0.361067 0.14202344 0.012220025 9539488
0.34806681 0.13128079 0.01507473 9277086
0.35011351 0.13161743 0.014795899 9408672
0.35118043 0.13573086 0.012890339 9212056
0.35322315 0.13611349 0.012745142 9277084
0.35504633 0.1397056 0.011565089 9277086
0.35702437 0.13997291 0.011307895 9277086
0.35305309 0.13930044 0.011794209 9277084
0.35616398 0.14244184 0.008189559 9342622
0.34012005 0.12596369 0.011652946 9343643
0.34311444 0.13172166 0.010960281 9080222
0.36202574 0.14863232 0.004142642 9737377
0.33914042 0.12974046 0.010026336 9409184
0.34118712 0.13007715 0.0097474456 9409184
0.36123276 0.15252532 0.0025565028 7829900
0.36327943 0.152862 0.0022776127 7171970
0.34396446 0.13729769 0.0033843517 10065047
0.35116142 0.14372876 0.00064104795 9669777
0.33162248 0.1252965 0.0038488507 10263195
0.33722162 0.12889588 0.0044995546 10262683
0.33644 0.13297261 0.0030750036 10065562
0.33836532 0.13369828 0.0027335882 10131355
0.34113818 0.13553223 0.0030837655 10065561
0.34540129 0.14084721 0.0002374649 9801362
0.3485868 0.14195234 0.0006403327 9801107
0.34969395 0.14416188 -0.00040435791 9801619
0.3516621 0.14602585 -0.00064462423 9801363
0.35391116 0.14819591 -0.0013250113 9735828
0.3562848 0.14987296 -0.0024844408 9867156
0.32609192 0.12176644 0.0031763315 10262686
0.32772255 0.12386759 0.0044478178 10393757
0.32963464 0.1260761 0.0031225681 9999763
0.33117616 0.12910029 0.0021541119 10065557
0.33352035 0.13008177 0.0021111965 9867923
0.33670497 0.13246936 0.0023084879 9604496
0.33814663 0.13447949 0.00021457672 9932948
0.34005955 0.13648969 0.00074005127 9670291
0.34219795 0.13874438 0.00012266636 9735826
0.34449899 0.14052841 -0.0001412034 9867154
0.3462638 0.14366761 -0.00030720234 10063251
0.34862483 0.14410844 -0.0027068853 10065306
0.35271248 0.14897963 -0.0039223433 9802135
0.35468009 0.15155242 -0.0044485331 10064540
0.35697007 0.15253341 -0.0045489669 9998741
0.35860369 0.15405914 -0.0059034228 9603979
0.35965803 0.15637201 -0.0071529746 8813675
0.30969256 0.10985052 0.0058091879 9276043
0.31764883 0.11715911 0.0029739738 9933720
0.32073385 0.11879964 0.0023154616 9999770
0.32221127 0.12068037 0.0017131567 9736855
0.3241002 0.12258712 0.0011143088 9671569
0.32497552 0.12579447 0.0014593005 9736593
0.32748228 0.1270631 8.8453293e-05 9801875
0.33064249 0.12881863 -0.0010001659 10064279
0.33254826 0.13179289 -0.00078737736 10130072
0.33466217 0.13330016 -0.0010302663 10064279
0.33696705 0.13611668 -0.0010941029 10064022
0.35644293 0.15436187 -0.0085405111 9209739
0.35745943 0.15620586 -0.0074534416 9076874
0.3024829 0.10199527 0.0062738061 9473169
0.30428508 0.10452069 0.0055345297 9473170
0.30613673 0.10702366 0.004879117 9144462
0.30904934 0.10810094 0.0044089556 9209738
0.30913699 0.11248242 0.0027934313 9210251
0.31204963 0.11355974 0.0023232698 9144459
0.31505162 0.11525718 0.0019667745 9276046
0.31681484 0.11582057 0.000903368 9736856
0.31854182 0.11895294 -0.00055170059 9998742
0.32017684 0.121133 -0.0011960268 10064535
0.32221889 0.12374144 -0.000685215 10130329
0.32500941 0.1254945 -0.0013787746 10130071
0.32735527 0.12743214 -0.0011268854 10064279
0.32856226 0.13030535 -0.0011059046 10130071
0.33024377 0.13122426 -0.0013714433 10326936
0.35760397 0.15821181 -0.010988474 8221304
0.2827872 0.08739195 0.0078616142 8880781
0.28560233 0.08845716 0.00750494 9078158
0.29778194 0.10170519 0.003839314 9013388
0.31075972 0.11394934 -0.00050461292 8355461
0.31269559 0.11580472 -0.001233995 8814982
0.3156994 0.11775494 -0.0010478497 9735570
0.31740999 0.11910462 -0.0007686615 10129814
0.31892705 0.12246545 -0.0013548732 10195607
0.35580051 0.16024897 -0.014323235 8483437
0.35775244 0.16225865 -0.016002834 7430208
0.36090684 0.16329119 -0.017460227 7694156
0.36432388 0.16925903 -0.017987967 7760217
0.36637056 0.16959569 -0.018266916 7431252
0.37054461 0.17436481 -0.018846214 7628371
0.27881816 0.083689734 0.0062852502 9012104
0.2810345 0.08529003 0.0066616535 9341321
0.2830092 0.08599323 0.0064042211 9209488
0.28687876 0.091756724 0.004127562 9144205
0.28979135 0.092834048 0.003657341 9144205
0.2904045 0.096497372 0.0027905703 8881543
0.29244906 0.09758722 0.0023775101 8881541
0.29477847 0.099378861 0.0018063784 9012871
0.29742649 0.10187277 0.0014147758 8552067
0.2996558 0.1040455 0.00021111965 8683395
0.30121607 0.10585103 0.00047254562 8946562
0.30304074 0.10876274 -0.00035905838 9077387
0.3054513 0.1104959 -0.00069195032 8879749
0.30756459 0.11244486 -0.00081622601 8551297
0.30936199 0.11463774 -0.0013440847 9011078
0.31095812 0.11611819 -0.0014685392 9273736
0.35676011 0.16268639 -0.016852736 7497044
0.35796818 0.16383082 -0.017434359 7036476
0.36016315 0.1671617 -0.018962383 7562831
0.36330187 0.16773602 -0.019402504 7628627
0.26543337 0.071428396 0.0069949627 9012363
0.26960346 0.075887695 0.0063350201 8749452
0.27268475 0.08074075 0.0064795613 8881546
0.27655238 0.082111947 0.0058246851 8946312
0.28451994 0.089248598 0.0029368997 8618114
0.2864089 0.09115532 0.0023379922 8420739
0.28825277 0.094196133 -7.3194504e-05 8880260
0.28933209 0.09560471 0.0011579394 8749186
0.29068524 0.098986469 -0.00033783913 8880519
0.29351339 0.10121024 -0.00086808205 9274506
0.29573876 0.10220616 -0.00085711479 9209226
0.29822493 0.10357492 -0.00097894669 9077128
0.29976231 0.10685578 -0.0011817813 9471628
0.30124292 0.10909247 -0.0012142658 9537936
0.35374445 0.16068871 -0.018949151 8155260
0.35511917 0.16230455 -0.019800007 8415316
0.24709371 0.055265673 0.010879755 9078413
0.24976377 0.056995504 0.011262715 8881033
0.25060254 0.061634943 0.00939399 9210253
0.25252789 0.062360667 0.009052515 9078667
0.25542116 0.063346148 0.0086881518 8683656
0.26160222 0.070068821 0.0075721741 8814732
0.26357675 0.070772044 0.0073146224 9012363
0.2780534 0.08663968 0.0010969639 8682624
0.28000861 0.088621743 0.00071722269 8814722
0.28102469 0.091028348 -4.8279762e-05 9077127
0.28379965 0.092756741 -0.00010436773 8945797
0.28616935 0.094895713 -0.00037610531 9011333
0.28880686 0.096643254 -0.00063598156 9142919
0.28972721 0.099804655 -0.00098443031 9339785
0.29172856 0.10082939 -0.0010523796 9471115
0.23882064 0.049982309 0.0099799037 9736341
0.24074598 0.050708033 0.0096385479 9933720
0.24897209 0.059533767 0.008122623 8881033
0.25825608 0.068401784 0.006174922 8881293
0.26045305 0.071479417 0.00338763 8355462
0.26175809 0.072796799 0.0029738545 8289664
0.26364708 0.074703582 0.0023750067 8420737
0.26560467 0.076679699 0.0017543435 8420994
0.26795509 0.078142941 0.0016583204 8223607
0.26998669 0.079931855 0.00036871433 8682626
0.27219877 0.082143314 -1.0728836e-06 8814467
0.27376634 0.085413091 -0.00010573864 8879492
0.27566773 0.087209567 0.00013160706 8551553
0.27815467 0.088635631 -3.4928322e-05 8880260
0.23138428 0.045818351 0.0095431209 9670801
0.23335889 0.046521634 0.0092856884 9670801
0.23620284 0.047529511 0.0088372231 9670802
0.24151623 0.055278048 0.0077915192 9670033
0.25371471 0.068192653 0.0028945804 8289412
0.25606525 0.069655888 0.0027985573 8420995
0.25841564 0.071119197 0.0027025938 8552584
0.25999606 0.072643325 -0.00031721592 9076357
0.26165837 0.075516433 -8.4638596e-06 9011077
0.26396638 0.078087866 -0.00053650141 8945541
0.26669794 0.079240896 -0.00026512146 8879748
0.26899904 0.082049735 -0.00028896332 8879748
0.27076799 0.084644191 -0.00045466423 8879748
0.21872675 0.035994984 0.010895371 8486537
0.22140583 0.036527261 0.0100196 8617866
0.22454804 0.038195498 0.010088623 9012363
0.22615397 0.0405588 0.0093618631 9011850
0.22782841 0.042991504 0.0086131096 9143437
0.22965762 0.044359483 0.009095192 9275278
0.24647826 0.060978405 0.0016422272 9472393
0.24840155 0.062919855 0.0010324717 9670027
0.24979626 0.066102378 0.0012145042 8945798
0.25203103 0.067880273 0.0011813641 8617347
0.25477105 0.069718562 6.4253807e-05 8814211
0.2576853 0.071669586 -0.00045061111 8945541
0.25897703 0.074409671 -0.00035649538 8879748
0.26098806 0.076791689 -0.00074100494 8814213
0.20810398 0.024867207 0.01129812 8815754
0.21098232 0.025909789 0.010838866 8881548
0.21348698 0.031135447 0.0087435842 8815490
0.21608025 0.033599354 0.0098443627 8552840
0.21901751 0.034665458 0.009416163 8618126
0.23388223 0.051706128 0.003105998 9538441
0.23643422 0.053781793 0.0018455982 9800845
0.23877063 0.056198739 0.0012592673 9932432
0.24068025 0.058318034 0.0009432435 9998229
0.24284241 0.06018357 0.00068461895 9800593
0.24511796 0.062462687 0.0001488328 9340556
0.24717788 0.064309306 0.00021904707 9340298
0.24917185 0.066652864 -0.00026506186 9208971
0.19177797 0.01158575 0.012569785 8749191
0.19463724 0.012731537 0.012149215 8683397
0.19984053 0.019629821 0.01034528 8750471
0.20263252 0.021360539 0.010656714 8618632
0.20544775 0.022425748 0.010299981 8683916
0.21060878 0.030092761 0.0092030168 8618116
0.22279996 0.041710339 0.0033679008 8486786
0.22473919 0.044357374 0.002759099 8749444
0.22705807 0.046559915 0.0020634532 8814980
0.22901931 0.048624031 0.0015267134 8551549
0.23075886 0.050615631 0.0011969209 9077123
0.232443 0.052687831 0.001079917 9734796
0.23556806 0.054929249 0.00077712536 9866897
0.17920452 0.0019694343 0.013928175 8750474
0.18236448 0.0036149696 0.013980627 8618376
0.18484601 0.0048000738 0.013871908 8749706
0.18531714 0.0077505335 0.012123883 8684166
0.18980336 0.010882564 0.012827277 8749702
0.19428273 0.016811334 0.010474563 8486531
0.19712669 0.017819226 0.010026217 8684169
0.21041255 0.030397251 0.0040433407 8420479
0.21171762 0.031714678 0.0036295652 8420479
0.21367532 0.033690728 0.0030089617 8551811
0.21517424 0.036271453 0.0025220513 8814212
0.21701401 0.038045019 0.0022853613 8485504
0.21877715 0.040811211 0.0017762184 8551297
0.22070026 0.042427458 0.0019364953 8682625
0.22379768 0.043904245 0.0020202398 9010821
0.22792152 0.050122052 0.0013030171 9077125
0.22938266 0.051280029 0.0008739233 9208710
0.17734791 0.0013130754 0.014247775 8684682
0.19694282 0.020315468 0.005684495 8552569
0.19890046 0.022291549 0.0050638318 8815484
0.20151062 0.024926335 0.0042362809 8552065
0.20346826 0.026902422 0.0036156178 8420225
0.20539172 0.028763473 0.0028653145 8879747
0.20690203 0.031527862 0.0025399923 8747905
0.209207 0.032902755 0.002248466 8748162
0.21177787 0.034643099 0.0022757649 8747906
0.21390598 0.037109986 0.001765728 8814211
0.216077 0.040235378 0.0018037558 8879236
0.19442859 0.019674882 0.003061831 8485500
0.19574912 0.021130025 0.0026760697 9076098
0.19741762 0.023192227 0.0025656223 9142662
0.19960302 0.025889829 0.0020678639 8879490
0.20215596 0.027480155 0.002081275 8813697
0.20367956 0.030355364 0.0015001297 9011332
0.20620167 0.031992018 0.001349628 8945796
0.18185315 0.01056274 0.0037232637 8747650
0.18380916 0.011564054 0.0034376383 8747648
0.18592848 0.012635611 0.0034318566 8813441
0.18799132 0.015208721 0.0024034977 8748162
0.18969536 0.018032119 0.0021882653 8551555
0.19172001 0.019791052 0.0020058751 8551040
0.19525051 0.022008911 0.0018354058 8879746
0.16973719 0.0006743744 0.0047400594 8945032
0.1712864 0.0019935742 0.004183352 9010825
0.17480588 0.0033856481 0.0043337345 8878982
0.17579183 0.0076030046 0.0041103959 8878983
0.17740387 0.0081649646 0.0027189255 8879235
0.1794396 0.01008451 0.0023941994 8813443
0.18277009 0.011669666 0.0018742085 8616574
0.18575636 0.013229832 0.0020257235 8748161
0.18698074 0.017712735 0.0017931461 9011075
0.18869264 0.018712252 0.001650393 8879748
0.16878423 0.00048292428 0.0038797259 8617087
0.17087673 0.0026323795 0.0035475492 8880763
0.17286748 0.0054005459 0.003333807 8683395
0.17526025 0.0062554777 0.0022764206 8551807
0.17775644 0.0088324398 0.0019763708 8420992
0.17932761 0.010805711 0.0015820265 8486530
0.1813195 0.012816519 0.00095045567 8419706
0.18331154 0.014827289 0.00031888485 8618100
0.18476231 0.01745373 0.00017017126 8683646
0.3461591 0.13492434 0.013540983 9014426
0.35001737 0.13883016 0.012201726 9145755
0.35418865 0.14348328 0.0098668933 9474206
0.34015244 0.13191205 0.012096643 9343135
0.34316641 0.13300791 0.012464523 9342877
0.34698296 0.13700515 0.011055171 9080470
0.35214198 0.1431466 0.010145843 9408413
0.35401589 0.1453615 0.0074957013 9473695
0.33712175 0.130024 0.0109905 9343647
0.35239324 0.14722794 0.0041876435 9013124
0.35425556 0.14916889 0.0036136508 9670541
0.33517733 0.13408825 0.0047108531 9999769
0.33794254 0.13585329 0.0050470829 9999769
0.34127688 0.14074054 0.0021953583 9802132
0.3442142 0.14180657 0.0017671585 9801876
0.34639594 0.14433855 0.0021309853 9341067
0.34844244 0.14631873 0.0013318062 9538443
0.35016441 0.14833251 0.00067448616 9669518
0.3524738 0.15051781 -7.5101852e-06 9735569
0.35457388 0.15205893 -0.00079852343 9998485
0.32893485 0.12873937 0.0026599765 10459804
0.32987824 0.13033801 0.0036845803 10130840
0.33280492 0.13216037 0.0033501387 9933718
0.33432525 0.133919 0.0017140508 9539217
0.33516616 0.13709176 0.0020699501 9407888
0.33839509 0.13903177 0.0015557408 9539219
0.34078997 0.14090572 0.0010020137 9538447
0.34349704 0.14244831 0.00051534176 9734800
0.34452829 0.1450313 0.00024437904 9998485
0.34731808 0.14514351 -0.0010073185 9933203
0.34985161 0.14851236 -0.0011170506 9145222
0.35138854 0.1501753 -0.0021101832 9539729
0.35356164 0.15237561 -0.0027379394 10064534
0.35521716 0.15534252 -0.0036594868 10195861
0.35641363 0.15710548 -0.0054078102 9340553
0.30776727 0.10912481 0.0061506033 9341836
0.31439212 0.11747973 0.0049730539 9143692
0.3223483 0.12478836 0.002137959 10393757
0.32404763 0.12695886 0.0033875704 10196891
0.32649171 0.12915641 0.0024808645 9933975
0.32732826 0.13159409 0.0016306639 9473678
0.33257526 0.13540643 -0.00090652704 10064022
0.33487713 0.13639158 -0.00076496601 9932693
0.33685595 0.13941103 -0.00027740002 9866643
0.35192353 0.15579818 -0.0049057603 10327967
0.35321853 0.1570002 -0.006177783 10458266
0.35689437 0.16058305 -0.0079725385 8090479
0.3022368 0.10559475 0.0054780245 9473169
0.30787423 0.11359813 0.0044292212 9144718
0.3107869 0.11467541 0.0039590597 9144719
0.31258953 0.11607757 0.0044660568 9143948
0.31390518 0.12018102 0.0019356012 9078665
0.31703222 0.12184153 0.0019321442 9802132
0.31958309 0.12302332 0.00180161 10131097
0.32246479 0.12706625 -0.00057393312 9802132
0.32513657 0.12958702 -0.0011110902 9998742
0.32627159 0.13265461 -0.0012338161 9998742
0.32934797 0.13379487 -0.00091046095 9998486
0.33066326 0.13496694 -0.0014484525 10326680
0.35568261 0.16137418 -0.011571884 9405320
0.30026218 0.10489156 0.0057355165 9538962
0.30227506 0.10999871 0.0037785769 9210255
0.31355733 0.11970598 -0.00090360641 8946822
0.31542724 0.12267637 -0.0004722476 8749951
0.31739938 0.12399113 -0.00097125769 9604241
0.31957448 0.12647417 -0.00089931488 9867670
0.32203111 0.12887871 -0.0012222528 10064278
0.32390702 0.12927118 -0.0018620491 10261144
0.35257351 0.15990451 -0.012281775 10259861
0.28086179 0.08666636 0.0082030892 9078665
0.28272802 0.091783851 0.006275475 9143950
0.28566536 0.092849873 0.0058474541 9144204
0.28727582 0.097105749 0.0047319531 9144722
0.28951991 0.098189391 0.0042396188 8881800
0.29112548 0.099164993 0.0039149523 8816003
0.29303271 0.10177147 0.0030760765 8552317
0.29557419 0.10433695 0.0022702813 8551810
0.29661024 0.10618039 0.0024530888 9012617
0.29876819 0.10756111 0.001257658 9012614
0.3057667 0.11385313 -0.0014064312 9076102
0.30725914 0.1164417 -0.0013911724 8617601
0.30986685 0.11875588 -0.0014104843 8814981
0.31187823 0.12048994 -0.0015224218 9143176
0.31396776 0.12236973 -0.0019191504 9406090
0.31695539 0.12625819 -0.0021563768 10194837
0.35284889 0.16272703 -0.014365613 8615296
0.35588318 0.16421014 -0.015532672 7562321
0.35611594 0.16593926 -0.016793191 6576969
0.35914814 0.168394 -0.017321944 7432016
0.36227727 0.16892238 -0.017709017 7563346
0.36364895 0.17319885 -0.019511938 7431245
0.36574903 0.173467 -0.019840539 7628113
0.26883817 0.079243332 0.0070287585 8618633
0.27523988 0.08747045 0.0058884621 9078923
0.27984416 0.090649366 0.0066540241 9012367
0.2816413 0.091463804 0.0034358501 8355200
0.28305775 0.094055511 0.0032979846 8551808
0.28566843 0.095798567 0.0033978224 8947080
0.28718317 0.097563095 0.0035996437 8683646
0.29050207 0.10111979 0.0010551214 9013133
0.29230475 0.10252192 0.0015621185 8947595
0.29432636 0.10470465 0.00042355061 8881032
0.29630601 0.10607219 -0.0011466742 9142922
0.29797545 0.10867751 -0.0011321306 9275018
0.29964334 0.11198198 -0.0018813014 9405836
0.30217901 0.11316776 -0.0016644597 8945542
0.30464005 0.11457852 -0.0015022755 8551555
0.30639791 0.11837692 -0.0022317171 9207943
0.35326225 0.16490605 -0.019440711 8613224
0.35690391 0.16699885 -0.019352913 7495999
0.36148429 0.17281531 -0.019295216 7694417
0.25385559 0.067142569 0.0087202191 9077900
0.26351386 0.076300249 0.006808877 9078669
0.26604632 0.077512518 0.0067175031 9013132
0.27163264 0.084689103 0.0049414039 8947083
0.27752858 0.09094952 0.0021431446 8157574
0.27938551 0.092282169 0.00099265575 8552065
0.28155115 0.093731761 -0.00018882751 8880259
0.28389993 0.097359098 -0.00051760674 9142663
0.28648722 0.099091947 -0.00046241283 9077127
0.28909165 0.10132581 -0.00044173002 8945798
0.29039571 0.1032511 -0.00098961592 9077126
0.29280904 0.10490584 -0.0013490319 9142664
0.29784179 0.11152045 -0.0023748875 9668750
0.24303579 0.058078632 0.0097916722 8946572
0.24574202 0.059820205 0.010096788 9144206
0.24862796 0.060931757 0.0096514821 9144459
0.25199902 0.06648618 0.0090399384 9077643
0.25442046 0.068797536 0.0070462823 9078412
0.25639504 0.069500722 0.0067887902 9078412
0.25844508 0.073921591 0.0071258545 8946828
0.26037034 0.074647255 0.0067843795 8946826
0.26229894 0.077929266 0.0040310025 8683648
0.26360404 0.0792467 0.0036172271 8815235
0.26552734 0.08118815 0.0030074716 8551802
0.26822323 0.083634257 0.00207901 8157567
0.27026653 0.085421689 0.0013574958 8223360
0.27237165 0.087545604 0.00057083368 8486018
0.27439412 0.089784719 0.00018078089 8945799
0.27644181 0.091348045 -1.5974045e-05 8880006
0.27824271 0.094432928 -0.00027936697 9011078
0.28097856 0.096121006 -0.00020438433 9011334
0.23571026 0.053215332 0.0086260438 9801879
0.23818401 0.054557376 0.0087623596 9538962
0.2402705 0.056313582 0.0094554424 9210255
0.25414425 0.07205075 0.0036757588 8093058
0.25606754 0.0739922 0.0030660033 8224137
0.25802511 0.075968333 0.0024453402 8355718
0.2599141 0.077875115 0.0018464327 8487299
0.26515111 0.081802316 -0.00035649538 8879748
0.2670635 0.083694473 -0.00023901463 8879491
0.26871544 0.086263016 -0.00051152706 8814210
0.27091467 0.08808656 -0.00051146746 8945284
0.27268958 0.08941935 -0.00054246187 8880004
0.21672484 0.036003277 0.011954546 8552588
0.22392848 0.041562594 0.0092120171 9011851
0.22660935 0.04399287 0.010252118 9012876
0.22924185 0.049311154 0.0081662536 9802131
0.23269288 0.051042944 0.008110702 9802132
0.23378503 0.052489623 0.0089675188 9933720
0.24821287 0.066153944 0.0020096302 8487038
0.25351524 0.072134838 -0.00033640862 8814467
0.25485668 0.073934868 -1.7285347e-05 9076869
0.25671124 0.075738475 -5.8054924e-05 8945798
0.25874263 0.078381002 -7.9870224e-06 9011078
0.26143646 0.080013044 -0.00032025576 9076870
0.26382059 0.081780225 -0.00094974041 8945798
0.21215591 0.03284765 0.011144757 8552835
0.21489549 0.034635387 0.011472404 8618636
0.21625057 0.038705796 0.010338306 8683914
0.21822527 0.039408907 0.010080814 8683914
0.22113788 0.040486194 0.0096106529 8881035
0.22638258 0.048165359 0.0085867643 9670034
0.24176873 0.061813243 0.00046640635 9406349
0.24322498 0.064706229 0.00086206198 8748418
0.24609584 0.065735556 0.0011176467 8880004
0.24740173 0.069088914 0.00041556358 9011078
0.25034255 0.07052803 0.00038284063 8945540
0.25217879 0.072453827 0.00013738871 8880003
0.19776988 0.019568831 0.01142627 8683913
0.20484647 0.027915694 0.0100407 8749959
0.20689619 0.029679276 0.010717452 8552327
0.20936507 0.03110531 0.010799944 8486279
0.22872224 0.053559288 0.0030628443 9407886
0.23105821 0.055292957 0.0016391873 9735568
0.23328531 0.056319505 0.0016770363 9801617
0.23616044 0.058283843 0.0013870001 9867155
0.23802702 0.060966715 0.00096952915 9538188
0.23957735 0.062893897 0.00051558018 9143431
0.24171543 0.064978719 0.00027447939 8748933
0.24464899 0.067478456 -0.00042229891 8880259
0.17513186 0.0019168854 0.016068459 8619143
0.1780445 0.0029942244 0.015598297 8553351
0.18088846 0.0040021166 0.015149832 8421509
0.18212551 0.0080256462 0.013953567 8815242
0.18404675 0.0087972879 0.013745785 8618377
0.18695174 0.0098057017 0.013261735 8815754
0.19021279 0.016058378 0.011771083 8749191
0.19277246 0.017228849 0.011632264 8486788
0.1958639 0.018934995 0.011662006 8552583
0.19644737 0.023388892 0.0097745657 8750214
0.19935033 0.024420239 0.0093572736 8749960
0.2021156 0.026185244 0.0096935034 8815499
0.21752086 0.042220324 0.0030346513 8487023
0.21944872 0.044505738 0.0021572113 8682883
0.22159427 0.04626552 0.0017848015 8880003
0.22369108 0.048793517 0.0014086962 9076613
0.22600055 0.05049748 0.0014905334 9273991
0.22803041 0.053503118 0.0013907552 9931664
0.22935601 0.05476705 0.0008713603 9932690
0.1754266 0.00054141879 0.014455497 8684682
0.18026894 0.0073692426 0.014273226 8552070
0.18747416 0.01425916 0.011409938 8749191
0.20192112 0.028887615 0.005056262 8682369
0.20390539 0.030829482 0.0044107437 8880007
0.205863 0.032805614 0.0037901402 8485765
0.20798208 0.03498929 0.0029159784 8354432
0.21038869 0.036773607 0.0020753741 8682368
0.21172783 0.038573377 0.0020803213 8748419
0.2139052 0.041543536 0.0016443729 8419708
0.21577214 0.043943651 0.0013988614 8879235
0.21854781 0.045370214 0.0016087294 9076356
0.19669336 0.026024804 0.0037894845 8749697
0.1979984 0.027342185 0.0033757091 8486531
0.19954455 0.029292211 0.0027518272 8682626
0.20254369 0.031798229 0.0021669865 9011078
0.20441715 0.034066148 0.0014061928 8748419
0.20613843 0.035628073 0.0017062426 8747906
0.20822671 0.038133398 0.0018051863 8748161
0.21002761 0.040234789 0.001548171 8748419
0.21142069 0.041713342 0.0010068417 8748164
0.18822953 0.01983425 0.0035322905 8551806
0.19018877 0.02201093 0.0026369691 8551294
0.19228062 0.023531452 0.002519846 8748670
0.19435292 0.026280925 0.0020905733 9077381
0.19672045 0.028197646 0.0021831989 8879491
0.19843894 0.030372746 0.001786232 8748416
0.17904949 0.013454571 0.0031690598 8813445
0.18114188 0.014490895 0.0022770762 8747904
0.1834133 0.01544898 0.0023896694 8813697
0.18496288 0.01836849 0.0019935369 8879491
0.18722919 0.020835035 0.0021859407 8813444
0.18848324 0.022037134 0.0014737248 8748418
0.1633791 0.0012682453 0.0049441457 8945030
0.16645342 0.0026337951 0.0047537088 8945031
0.16930768 0.0044333264 0.0043328404 8945032
0.1718085 0.0067613348 0.0034078956 8879238
0.1731706 0.0093946457 0.0031544566 8813700
0.17506929 0.010777563 0.0024490952 8879491
0.17748535 0.012318075 0.0026527047 8879492
0.17977172 0.013344482 0.0018820763 8813953
0.18122149 0.018127255 0.001478374 8945794
0.18348689 0.018840395 0.0012511015 8814721
0.16320157 0.0011285618 0.0039396286 9142664
0.16582799 0.0028307438 0.0034081936 9077380
0.16767603 0.0044885948 0.0028063059 9011838
0.16892147 0.0065854043 0.0021603703 8945541
0.17304413 0.009139955 0.0012559891 8486273
0.17441787 0.010526694 0.00082045794 8617859
0.16260435 0.0021778643 0.001952827 8946048
0.34096503 0.13599607 0.011820495 9277082
0.33489496 0.13370067 0.011081457 9474718
0.33687162 0.13532272 0.012378275 9342877
0.33891836 0.1356594 0.012099385 9342875
0.33998531 0.13977283 0.010193825 9014939
0.34305537 0.14027777 0.0097754598 8948890
0.34518099 0.14342152 0.0092695951 9276822
0.34759513 0.14437336 0.0098125935 9473674
0.34508353 0.14386949 0.0057966113 9078918
0.34765512 0.14464658 0.0062795877 9013380
0.34845334 0.14661434 0.0063377619 9012872
0.35046953 0.1499511 0.0043411255 9473686
0.35326853 0.1504353 0.0045326948 9998474
0.33192062 0.13440886 0.0067098141 10065562
0.33485785 0.13547495 0.0062816143 9999769
0.33802778 0.14113006 0.0042083263 9867926
0.34098214 0.14211598 0.00380826 9867669
0.34357828 0.14694133 0.0025639534 9604239
0.34670013 0.14834207 0.0029799342 9669005
0.34890455 0.15014048 0.0025336742 9800077
0.35091737 0.15218106 0.00060844421 10129044
0.32441542 0.13017568 0.0062947273 10065054
0.32652777 0.13014525 0.0052837729 10065052
0.32932732 0.13194492 0.0056091547 10327964
0.33152637 0.13451833 0.0035188198 9473936
0.33283141 0.13583574 0.0031050444 9473680
0.33419138 0.13933386 0.0038383007 9408400
0.33671471 0.14086705 0.0033618212 9145228
0.34016854 0.14204027 0.0028375387 9210507
0.34090078 0.14494701 0.0014302135 9603726
0.34310782 0.14612724 0.0016103983 9669263
0.34440446 0.15003112 -0.00060522556 9933203
0.34735143 0.15114312 -0.001086235 9932949
0.34944373 0.15293762 -0.00040620565 10459295
0.35090989 0.15571788 -0.0021594763 9736089
0.35349607 0.15702744 -0.0031493902 9604498
0.3189882 0.12587735 0.0048795938 10131099
0.32372823 0.12834555 0.0049583912 9999513
0.32760429 0.13407435 0.002132833 9473681
0.32957301 0.13436523 0.0028397441 9473681
0.33252656 0.13759769 -5.2928925e-05 9735571
0.33349532 0.13946332 -0.00024133921 9866900
0.33563495 0.14177442 0.0005492568 9603984
0.3375358 0.14315757 8.0823898e-05 9866129
0.34242985 0.1493279 -0.0003477335 9867669
0.34960079 0.15653889 -0.0029857755 10459040
0.35162878 0.15717362 -0.0032929182 10261661
0.35462898 0.16049787 -0.0066645741 8945532
0.30467093 0.11385029 0.0063786507 9210255
0.30755487 0.1149848 0.0060001612 9078669
0.31049216 0.11605085 0.0055719614 9078414
0.31257373 0.12122738 0.0035930872 9077639
0.31536371 0.12298113 0.0039714575 9406606
0.31711698 0.12440579 0.004394412 9341583
0.32210115 0.12983271 0.00065851212 9736334
0.32333755 0.13108076 0.00026649237 9736334
0.32568163 0.13444778 -0.0004466176 9801620
0.32820117 0.13571748 -0.00039631128 9801363
0.3300713 0.13773872 -0.0010724664 10064022
0.33099806 0.14024724 -0.00011175871 9669778
0.33357754 0.14260644 -0.00099509954 10063507
0.35037029 0.1602585 -0.0070836544 10259862
0.35391 0.16067405 -0.0092898607 10129048
0.29922479 0.1096551 0.0050022006 9078925
0.30202439 0.11145473 0.0053275824 9078925
0.30496168 0.11252081 0.0048994422 9276559
0.30966112 0.12015009 0.0040633082 9274761
0.31361902 0.12484673 0.00073480606 8092285
0.31503552 0.12743846 0.00059700012 8289405
0.31759053 0.12841642 -0.00026118755 9867668
0.3193613 0.13042253 -0.0007481575 9867410
0.32234007 0.13212755 -0.0010393262 10064277
0.32407045 0.13505423 -0.0013017058 10064022
0.32651657 0.13674757 -0.0015113354 10261143
0.35265017 0.16272807 -0.010856271 7234403
0.35466155 0.16508159 -0.013549924 7563093
0.27853736 0.091684468 0.0083536506 9143694
0.28308514 0.097006321 0.0068100691 9276044
0.28501046 0.097732045 0.0064685345 9276044
0.29185721 0.10468818 0.0038335323 9012618
0.29365993 0.10609036 0.0043406487 9012618
0.29643321 0.10775168 0.0039896965 9012619
0.29826382 0.11015048 0.0022475123 8552322
0.29978922 0.1120775 0.0018676519 8552064
0.30171251 0.11401894 0.0012578964 8683905
0.304254 0.11658443 0.00045210123 8552573
0.30567044 0.11917615 0.00031429529 8749948
0.30780351 0.12067537 -0.00073564053 8487552
0.30933133 0.12335563 -0.0013120174 8617347
0.31218013 0.12483405 -0.0015479326 8617344
0.31514049 0.12586616 -0.0015523434 9406088
0.31475061 0.12968218 -0.0028008223 10129044
0.31828117 0.13106303 -0.0024218559 10326680
0.35056549 0.16284856 -0.012456059 10325399
0.35261479 0.16474497 -0.013271034 7431782
0.3521592 0.16714929 -0.01485908 8681594
0.35601914 0.1678656 -0.016934633 7497808
0.35943633 0.17383339 -0.017462373 7891284
0.36155167 0.1742394 -0.017763078 7760210
0.27786946 0.089946173 0.0069114566 8946826
0.27947992 0.094201982 0.0057960153 9209745
0.28199804 0.095605664 0.0059623122 9144460
0.28529555 0.10072593 0.0033537149 9473422
0.28845352 0.10250956 0.0030595064 8881542
0.28989029 0.10417933 0.0031268597 8815748
0.29177189 0.10633767 0.0014688969 8354686
0.29369515 0.10827912 0.00085914135 8486531
0.30048218 0.11551028 -0.0015479326 8945798
0.30257469 0.11692543 -0.0019218922 8945542
0.30501741 0.11924309 -0.0018077493 8945796
0.30658424 0.12210668 -0.0019372702 9142920
0.30842656 0.1232102 -0.0024858713 9273736
0.3105346 0.124098 -0.0026531219 9207941
0.35371375 0.16826054 -0.017438531 7759446
0.35534427 0.17180535 -0.018458545 7628628
0.35841423 0.17231035 -0.01887691 7694417
0.25816965 0.075388849 0.0086329579 8947335
0.260095 0.076114573 0.0082914829 8881033
0.26200086 0.07674849 0.0080558658 9209998
0.26685777 0.082863592 0.0056505203 8552583
0.26872981 0.083657682 0.005358696 8815753
0.27238828 0.086393587 0.0063229799 8947339
0.27395749 0.089617558 0.0063837767 8947083
0.27910978 0.094747201 0.0022315383 8223873
0.28001937 0.097989306 0.0025656223 8355200
0.28194261 0.099930711 0.0019558668 8553585
0.28459829 0.10091491 0.0024449825 8619132
0.28873712 0.10528012 -0.0011382103 8946054
0.29118463 0.10775333 -0.0016158223 9142664
0.29294467 0.10937741 -0.0015006065 9011848
0.29508224 0.11127026 -0.001773119 9274762
0.2973282 0.11375406 -0.0014750957 9142664
0.25165188 0.071507193 0.0080891848 9209741
0.25443402 0.073192157 0.0084533691 8881032
0.25647044 0.073218405 0.0073833466 8881035
0.26098317 0.080731452 0.0065068007 9013128
0.26295784 0.081434682 0.0062493086 8815749
0.26429895 0.082812898 0.0049181581 8420738
0.26683003 0.08637239 0.0041068792 8552584
0.26846999 0.08738263 0.0037714243 8618115
0.27238691 0.091598131 0.0017663836 8355200
0.27427578 0.093504988 0.0011674762 8158333
0.2763814 0.095497265 0.00014686584 8617603
0.27847749 0.098594435 -0.00083005428 9142920
0.28087842 0.09951555 -0.00042670965 9077383
0.2839632 0.10160159 -0.0010451674 9208713
0.28591833 0.10424875 -0.0016034842 9274249
0.28715694 0.10671294 -0.0017901063 9339529
0.28912354 0.10750804 -0.0017802119 9273737
0.23448154 0.054170683 0.010317981 9868183
0.23886734 0.059365168 0.0087759495 8749962
0.24284264 0.064511709 0.0087715387 9012874
0.24476793 0.065237388 0.0084300637 9078924
0.24696392 0.066767648 0.0073713064 8947082
0.25505388 0.075292826 0.0040099025 8420740
0.25689116 0.077921994 0.0036348701 8420734
0.25839362 0.079825997 0.0032622814 8420989
0.25984442 0.082452394 0.0031135082 8289144
0.26471692 0.08580327 0.00091081858 8551558
0.26877642 0.090659089 -0.00021290779 8814467
0.27159002 0.091856755 -0.00029104948 8945797
0.27459019 0.093127824 -0.00018954277 8945800
0.27493364 0.096571602 -0.00054001808 9076870
0.27708495 0.097987041 -0.0011866093 9273992
0.21460477 0.035964832 0.012951612 8552076
0.22603852 0.049563311 0.010115623 9670802
0.22916546 0.051223814 0.010112047 9802391
0.23156893 0.053093396 0.010788143 9933976
0.234918 0.057958819 0.0092907548 8684169
0.2368927 0.058661938 0.0090334415 8684169
0.24802417 0.069388054 0.0029867887 8486780
0.24945778 0.071997151 0.0028434992 8355203
0.250857 0.074571572 0.0027110577 8223873
0.25216216 0.075888924 0.0022972822 8158080
0.25600943 0.078027129 -0.00034213066 9207688
0.25882107 0.08239989 -0.00066399574 9142919
0.26172301 0.083890453 -0.00054097176 9011079
0.26407152 0.086302012 -0.00057023764 8682881
0.26546043 0.089256741 -0.00090229511 9010820
0.26740646 0.089975268 -0.00074195862 8880004
0.20721768 0.031778432 0.012598753 8684168
0.20829958 0.033133328 0.013437033 8749961
0.21172655 0.034922242 0.013410985 8683916
0.21212858 0.038675644 0.012394667 8354691
0.21506591 0.03974168 0.011966467 8683654
0.22079873 0.044703774 0.007964015 8618375
0.22367427 0.047709458 0.00946033 9341326
0.24246898 0.067417756 0.0021514893 8815745
0.24377412 0.068735145 0.0017377138 8552573
0.24575248 0.0703784 0.00065851212 8748930
0.24799335 0.073255599 0.0005095005 9011590
0.24983701 0.074877419 0.00023788214 9011588
0.25248888 0.076922052 -0.00011765957 9076869
0.25453761 0.078979619 -0.00011515617 9011334
0.25649056 0.080967508 -0.00025385618 9274248
0.20348983 0.029650562 0.01243329 8749959
0.20524307 0.031075247 0.012856185 8684166
0.21497744 0.042503245 0.0087705851 8815239
0.21791478 0.043569282 0.0083424449 8749446
0.23110929 0.059393585 0.0032233596 8947344
0.23420091 0.06070631 0.0013124943 9472144
0.23548098 0.063325807 0.0012918711 8683139
0.23785476 0.065787047 0.001003027 8814724
0.24054673 0.06694337 0.0008919239 8880261
0.24308047 0.068606496 0.00036484003 8945798
0.24602482 0.072881021 0.00045484304 9208199
0.18818603 0.016078077 0.012788296 9144207
0.19225672 0.023289517 0.011852622 8552325
0.19521871 0.024344206 0.011466503 8749959
0.19899912 0.028180815 0.010273457 8749963
0.21858387 0.046840288 0.0036478043 8484990
0.22054151 0.048816383 0.0030271411 8354426
0.22256309 0.050999135 0.0018885732 8945538
0.22514576 0.051990397 0.0023232102 9341066
0.22586352 0.055795714 0.00093698502 9932947
0.22835131 0.057157017 0.0011793375 10063765
0.23147398 0.05851151 0.0011062622 9998230
0.23249897 0.061558969 0.00072532892 9472655
0.23424822 0.063866563 0.00073254108 8945797
0.23668304 0.065376125 0.00036126375 8880261
0.17259108 0.0045123249 0.015399516 8553608
0.17540833 0.0055545568 0.014976144 8422021
0.17829424 0.0066660494 0.014530659 8355971
0.18073028 0.011822283 0.012457371 8684173
0.18363529 0.012830682 0.011973143 8618377
0.18684423 0.019806296 0.01124239 8617863
0.18968819 0.020814188 0.010794044 8618376
0.19254744 0.02195999 0.010373533 8617863
0.19452219 0.022663146 0.010116041 8552070
0.19587724 0.026733421 0.0089819431 8750214
0.21424967 0.045980312 0.0023925304 8419956
0.21626076 0.046920583 0.0017803907 8813953
0.21931823 0.049107879 0.0012446642 8879488
0.22006807 0.051736556 0.0011116266 9208453
0.22319108 0.054475337 0.0011612773 9800848
0.22475846 0.055947982 0.0011507869 10129045
0.16706052 0.0009822771 0.014727116 8487047
0.1699101 0.0020821244 0.014359415 8487562
0.17688374 0.010324918 0.013006508 8618376
0.17880903 0.011050589 0.012665033 8947341
0.18317035 0.016932569 0.010250151 9144207
0.19567972 0.027325422 0.0047333241 8617858
0.19698477 0.028642811 0.0043195486 8616577
0.19828984 0.029960237 0.0039057732 8616577
0.1994749 0.034581065 0.004447341 8814210
0.20215207 0.036221929 0.0031157136 8682366
0.20455968 0.038524292 0.0021595359 8486015
0.20715982 0.039853387 0.0015435815 8682626
0.21006297 0.041565813 0.0017649531 8813186
0.21092409 0.043831997 0.0014792681 8485248
0.21241373 0.045804918 0.0014004707 8616572
0.2150552 0.048428714 0.00078964233 8944771
0.19098051 0.025843151 0.0034067631 8617597
0.19248921 0.027333826 0.0025032163 8814466
0.19577566 0.031454198 0.0025690794 9010310
0.19697285 0.032579482 0.0019687414 8945540
0.19936243 0.033809833 0.0018666387 9142920
0.20157105 0.035359859 0.001599431 8813700
0.20356882 0.038992301 0.0015577078 8813442
0.20609833 0.041695587 0.0011529922 8814210
0.20750621 0.042921998 0.00077354908 8682881
0.18112017 0.018035591 0.0027036667 8879235
0.18300346 0.019013487 0.0025734901 8944772
0.18522215 0.023527011 0.0023601055 8747140
0.18717816 0.024849124 0.001565218 8747905
0.18981208 0.02572991 0.0020394325 8945026
0.19108965 0.029788755 0.0015428066 8813953
0.19366731 0.030852638 0.0020396709 8813443
0.16877556 0.0082832202 0.0038912296 8944777
0.17123693 0.0089216381 0.004044652 8878981
0.17545564 0.01543764 0.0022802353 8879236
0.17866158 0.017247617 0.0018537045 8879490
0.18193853 0.021291725 0.0021823645 8617083
0.18390839 0.023648322 0.0015872121 8551549
0.18630454 0.026104249 0.0015814304 8420478
0.16030242 0.0012792349 0.0051476359 8945030
0.16123298 0.0036837384 0.0049473643 8879238
0.16364391 0.0053688213 0.0041410923 8813957
0.16676626 0.0073327795 0.0035967827 8814208
0.16831465 0.0091793761 0.0027652979 8880517
0.17058966 0.012219384 0.002630055 8813698
0.17281601 0.013390824 0.0021318197 8813954
0.17696238 0.017755665 0.00063717365 8551808
0.17925917 0.019694567 0.00043207407 8814718
0.15882038 0.0018978566 0.0037435889 8880259
0.16089676 0.0034619644 0.0031809211 8814722
0.16353205 0.0062803924 0.0023283958 9011587
0.16489542 0.0068755746 0.001865387 8946297
0.16953191 0.011555806 0.00039541721 8486531
0.17148957 0.013531893 -0.00022530556 8618630
0.17351586 0.015577376 -0.00086772442 8683652
0.1568781 0.0011356995 0.0014666319 8945545
0.16035527 0.0058075488 0.00067543983 8946047
0.33494705 0.13498694 0.012585759 9342877
0.33396736 0.13876374 0.010959148 9146268
0.33698398 0.13933718 0.010590434 9080475
0.33778387 0.14276093 0.009549737 9342617
0.33987987 0.14307511 0.0093548298 9276824
0.33483216 0.14145118 0.0061715841 9999254
0.33965772 0.14497584 0.0068996549 9145502
0.34313184 0.14898098 0.0042058229 9538189
0.34515801 0.15051046 0.0038716197 9603211
0.32824561 0.13750018 0.0056495667 10130842
0.3312726 0.13815369 0.0048797727 9671058
0.33262593 0.14042987 0.0052598715 9473424
0.3351624 0.14368516 0.0039176345 9210506
0.33877236 0.14437802 0.0038871765 9211017
0.33963895 0.14633384 0.0025925636 9209993
0.34168077 0.14870536 0.0032286048 9800591
0.34310734 0.1511122 0.001041472 9801618
0.34659165 0.15270308 0.0014840364 9406603
0.34801233 0.15510668 0.00030136108 9273729
0.31491625 0.1251474 0.0062428713 10130840
0.3168909 0.12585059 0.0059854388 9933720
0.32264644 0.13390078 0.0049988627 10065307
0.32583478 0.13548456 0.0040262341 9736595
0.32747465 0.13649487 0.0036906004 9802132
0.32865196 0.13855654 0.002718091 9408651
0.33619213 0.14536957 0.0011253953 9537933
0.33804673 0.14782774 0.0019441843 9669006
0.3401604 0.15000015 0.001522541 9801876
0.30739179 0.12082231 0.0059336424 9340813
0.30931708 0.12154797 0.0055921674 9406602
0.31212896 0.1233421 0.00593853 9867156
0.3181819 0.12996531 0.003412962 10131354
0.32028359 0.13156411 0.0029637814 9736595
0.32249629 0.13365623 0.0014505386 9473423
0.32387841 0.13621327 0.0013236403 9605266
0.32599306 0.13754758 -0.00015628338 9801363
0.32815707 0.13984305 -0.00025725365 9670033
0.33035365 0.14191693 -0.00038695335 9866641
0.33244261 0.14429606 -0.00011372566 9735056
0.33429644 0.1457783 -0.00056773424 9931666
0.34520727 0.15700901 -0.0043259263 9736867
0.35106707 0.16274127 -0.0075421929 9537677
0.30181193 0.11731475 0.0051770806 9078411
0.30378658 0.11801795 0.0049196482 9012618
0.30628824 0.11942907 0.0050579906 9209484
0.31599844 0.13061211 0.00088131428 9736330
0.31792173 0.13255356 0.00027155876 9473931
0.31998941 0.13431258 -0.00023382902 9801619
0.32293242 0.13609353 -0.00096982718 9932692
0.32453525 0.13953197 -0.00073236227 9932435
0.32656127 0.14054541 -0.0007583499 9932435
0.32962149 0.14445734 -0.0011512041 10128788
0.35093832 0.16624859 -0.01009798 8156024
0.29057524 0.10571197 0.0055751801 9144204
0.29621267 0.11371535 0.0045263767 9209997
0.29818738 0.11441857 0.0042690039 9209997
0.30016202 0.11512177 0.0040115118 9473169
0.30719829 0.12304223 0.00045233965 8488063
0.30799651 0.12500995 0.00051051378 8223874
0.30990261 0.12693408 -9.3758106e-05 8618117
0.31226215 0.12940636 -0.00096648932 9275270
0.31538785 0.13108219 -0.00092542171 9801619
0.31738922 0.13371813 -0.0016032457 9998741
0.32012975 0.1344271 -0.0019519925 10260887
0.32064325 0.1377809 -0.0015933514 10195094
0.32247719 0.13878128 -0.0018075109 10195094
0.35023004 0.16621858 -0.012427568 9273995
0.35182321 0.16845529 -0.013597488 7892326
0.27624792 0.094511397 0.0078370571 9407122
0.27918518 0.095577426 0.0074088573 9209745
0.28208274 0.10112719 0.0052888393 9274763
0.28461868 0.10250794 0.0054386854 9143433
0.286704 0.1042259 0.0060824156 9078152
0.2906135 0.11011603 0.0038756132 9210252
0.29308543 0.110432 0.0022701025 8749445
0.29490262 0.11187965 0.0021260977 8749959
0.29616696 0.11542188 0.0013204813 8421249
0.29870847 0.11798735 0.00051468611 8552327
0.30101353 0.11955273 -0.00077724457 8880778
0.30270627 0.1213855 -0.0010823011 8749952
0.30441332 0.12373862 -0.0012167096 8815491
0.3073858 0.12543601 -0.0014368892 8879748
0.30987573 0.12728225 -0.0022463799 9010561
0.31214577 0.12968558 -0.0022814274 9799820
0.31309146 0.13203281 -0.0023867488 10260374
0.31509343 0.13344744 -0.0025886893 10326680
0.34772846 0.16796461 -0.014299333 7365716
0.3497752 0.16830124 -0.014578283 7497302
0.35226995 0.17138164 -0.016647041 6840154
0.35634789 0.1750142 -0.017474413 7759954
0.26812422 0.088517368 0.0060638785 9012874
0.26990211 0.08993078 0.0065288544 8947339
0.27267504 0.091764681 0.0068790913 9078412
0.28021085 0.10033306 0.0055806041 9078153
0.28285226 0.10317279 0.0022900105 8290943
0.2847755 0.10511418 0.0016801357 8224897
