# .PCD v0.7 - Point Cloud Data file format
VERSION 0.7
FIELDS x y z rgba
SIZE 4 4 4 4
TYPE F F F U
COUNT 1 1 1 1
WIDTH 1138
HEIGHT 1
VIEWPOINT 0 0 0 1 0 0 0
POINTS 1138
DATA ascii
0.095166422 0.15694778 0.017225606 9538444
0.097020492 0.15962213 0.017037896 9538445
0.099107422 0.16195729 0.017425606 9473167
0.10109825 0.16397865 0.017232466 9604239
0.10244966 0.1665128 0.016740611 9604238
0.10498773 0.16850941 0.016717264 9538702
0.10541268 0.17206815 0.016677422 9538702
0.10719909 0.17431366 0.016259663 9341067
0.10961054 0.17638925 0.016643193 8881031
0.11109722 0.17913514 0.017153421 8749442
0.11633366 0.19018359 0.017650541 8683648
0.11799181 0.1913918 0.017547263 9012357
0.1195439 0.19524993 0.01565888 9603978
0.12090384 0.19676068 0.015854647 9538186
0.12264948 0.19964027 0.016276112 9340810
0.12504882 0.20203726 0.016902052 9209738
0.12734064 0.20447856 0.01578713 8683392
0.12722692 0.2090774 0.016587343 8880514
0.12889518 0.21004531 0.017222211 9077894
0.13134699 0.21186051 0.01746951 9406859
0.13256866 0.2137696 0.017135087 9472651
0.13458733 0.21687208 0.017480785 9472651
0.13809752 0.22610681 0.01750575 9604236
0.14108059 0.22826023 0.018119195 9538444
0.094678909 0.15418835 0.014782736 9670286
0.095894136 0.15602338 0.01470645 9735824
0.097630419 0.15882967 0.014702283 9604236
0.0980445 0.16233887 0.016312925 9472907
0.099201933 0.16420978 0.016310126 9604235
0.10154667 0.16657962 0.015498536 9407369
0.10262198 0.16973728 0.016301829 9472908
0.1049742 0.17259286 0.015758755 9078408
0.10731139 0.17447697 0.014678696 8551806
0.10846889 0.17634787 0.014675837 8551806
0.11020514 0.1791542 0.014671633 8748671
0.11188879 0.18187547 0.014667509 9209730
0.11201014 0.18552503 0.015252884 9012354
0.11430405 0.18796648 0.015093109 9275268
0.11551196 0.1898647 0.014912205 9340807
0.11750781 0.19248109 0.014966303 9406601
0.12110134 0.19663654 0.014571846 9143175
0.12496183 0.20571579 0.016174138 9209988
0.12482437 0.20821084 0.015802426 9012101
0.13356918 0.21949895 0.01607991 9472142
0.13472673 0.22136982 0.016077053 9669778
0.13583162 0.22315562 0.016074412 9604493
0.083931714 0.1434308 0.012672175 9472397
0.085089222 0.1453017 0.012669317 9538190
0.08682555 0.14810793 0.012665132 9472657
0.088561743 0.1509143 0.012660882 9407374
0.089666694 0.15270008 0.012658222 9407374
0.090824261 0.15457097 0.012655377 9604493
0.11724164 0.19713999 0.012517851 9143432
0.14962019 0.25318769 0.011307715 8947854
0.081602775 0.059092995 0.054853026 7300448
0.083985537 0.064907849 0.053752895 9668997
0.084198751 0.068595305 0.052189443 10459292
0.08113803 0.067842625 0.051853314 9866110
0.08171986 0.069482528 0.052396208 10262172
0.083671793 0.072739907 0.050093584 9735828
0.16223344 0.23307011 0.033492673 8948367
0.15685657 0.22933885 0.031903297 8685198
0.1571766 0.23208192 0.03272384 8882832
0.16025278 0.23229633 0.033402842 8751245
0.073064208 0.097031482 0.031672396 8814969
0.07422176 0.098902352 0.031669535 7564902
0.093572065 0.13137753 0.029947242 8091239
0.15158522 0.22454198 0.029758921 8685712
0.1533546 0.22738825 0.030851198 8619917
0.15430345 0.22915378 0.031348769 8685451
0.15717067 0.2350228 0.031011783 9210254
0.073653713 0.10330638 0.028801708 7694439
0.09402965 0.13297489 0.029255046 8288622
0.094630726 0.13483556 0.028138572 9012612
0.14148019 0.21309407 0.028285783 8948882
0.14330129 0.21555418 0.028448872 8883088
0.14426717 0.21842493 0.02801194 8817039
0.14713311 0.2202985 0.028942298 8751247
0.14920171 0.22254682 0.029199101 8948627
0.14927667 0.22544125 0.029889433 8620432
0.1546973 0.23372786 0.02901791 9079183
0.15666349 0.23462786 0.028898342 9144975
0.15735795 0.23772411 0.027661029 9472398
0.093405798 0.13739626 0.027969804 8814970
0.093015082 0.14065456 0.026890168 9144711
0.0950725 0.14267346 0.026364544 9408145
0.13962445 0.21224326 0.028331758 8883088
0.14409699 0.22147085 0.028571831 8751248
0.15141435 0.23175731 0.026648996 9013646
0.15211134 0.23321053 0.028599596 9079182
0.073138267 0.10779548 0.025933662 8154217
0.084899433 0.1273274 0.02428758 9470068
0.086253807 0.13036908 0.023663873 9668481
0.096772581 0.14573504 0.02484501 9342868
0.094879419 0.14878792 0.024932357 9342611
0.099489436 0.15240197 0.02406856 9211540
0.14086483 0.21864162 0.023460211 9277075
0.14252056 0.22302723 0.023984509 9211026
0.144924 0.22365744 0.024340373 9211025
0.14620493 0.22715805 0.025001848 9079696
0.14744261 0.23056823 0.025945924 9145232
0.15109804 0.23641616 0.02310534 9275274
0.15328212 0.23812646 0.025895393 9472653
0.15545091 0.24319041 0.023903437 9340037
0.084932521 0.13224263 0.022187816 9733757
0.086637139 0.13412771 0.022131378 9800329
0.09593267 0.15013438 0.024286032 9342867
0.097350806 0.15137316 0.023979163 9211539
0.099284939 0.1558214 0.024283094 9343124
0.099617548 0.15749583 0.023455074 9343124
0.10181665 0.16021152 0.023268469 9277332
0.10267224 0.16324918 0.023321928 9145747
0.10536375 0.16499378 0.02308807 9211283
0.10721482 0.16702257 0.02246346 9342869
0.10783308 0.17181358 0.022110585 9408405
0.10948662 0.17302443 0.021866005 9342611
0.11693815 0.18534721 0.021711787 8619147
0.12626597 0.20215411 0.021934787 9079441
0.12878445 0.20283084 0.022358416 9144976
0.13005564 0.20757127 0.022407178 9210768
0.13243966 0.2083305 0.022412416 9145232
0.13499492 0.21304126 0.022735853 9276562
0.13754027 0.21787564 0.022991236 9342355
0.13933137 0.22170778 0.023960225 9145233
0.142028 0.22650753 0.024351384 9145488
0.14615868 0.23441443 0.02224228 9341067
0.14911036 0.23652956 0.023599038 9341067
0.15126175 0.24278142 0.02244436 9603724
0.077212825 0.126316 0.020917807 9141367
0.078344122 0.12814428 0.020915089 9338746
0.080688827 0.13051417 0.020103503 10261396
0.084110565 0.13710205 0.022167841 9206890
0.086100027 0.1383398 0.021629369 9471103
0.08788082 0.1406475 0.021154033 9801100
0.089032225 0.14311022 0.02119828 9735825
0.09132874 0.14551041 0.020742681 9538959
0.090511985 0.14907365 0.021086756 9670032
0.092239037 0.15170832 0.020477999 9538704
0.10562699 0.17094411 0.02202655 9474197
0.11011975 0.17880526 0.021178108 9210770
0.1131238 0.18029805 0.021176552 9079439
0.11378042 0.18394941 0.021614222 8882066
0.11696739 0.18950349 0.021614155 8618890
0.11974768 0.19125204 0.021448275 8290440
0.11972513 0.19385272 0.021251515 8356232
0.12100981 0.19687945 0.021125279 8619146
0.12393238 0.19830513 0.021160563 9079440
0.12387734 0.20139751 0.021788256 8816268
0.1275471 0.20677091 0.022051627 9211024
0.13152443 0.21195436 0.022513201 9211025
0.13465647 0.21742471 0.022442745 9342355
0.13822623 0.22291452 0.019845787 9407115
0.13947414 0.22514087 0.019740587 9538188
0.14017272 0.22717872 0.020181082 9538446
0.14258158 0.22925578 0.020493893 9472908
0.14343804 0.2326075 0.021166621 9406859
0.14573523 0.23526058 0.019725326 9406347
0.14711191 0.23781902 0.019763771 9340809
0.14846393 0.23995349 0.020909328 9340808
0.14912796 0.24209964 0.020486291 9209224
0.15020566 0.24519692 0.021252902 9340298
0.15188931 0.24791822 0.021248782 8681335
0.086800992 0.14444843 0.019199898 9735051
0.088591315 0.14761142 0.017974233 9472651
0.089839458 0.14977871 0.017761733 9538444
0.090997338 0.15153143 0.017544389 9538445
0.092897929 0.1536497 0.018618198 9538702
0.094166718 0.15733285 0.018363515 9473169
0.097003475 0.15957563 0.018205183 9473168
0.10257025 0.17018244 0.01733825 9538960
0.10374929 0.17409934 0.018329505 9604497
0.10545497 0.17551343 0.018299436 9604497
0.10804244 0.17761655 0.018217567 9473167
0.11180852 0.18510568 0.018341618 9078412
0.11375355 0.18795829 0.017729715 8552066
0.11936753 0.19653851 0.018025026 8814978
0.12111599 0.19816126 0.017926652 9341066
0.12477863 0.20694795 0.017336357 9341069
0.12637398 0.20831282 0.01737974 9143947
0.12912872 0.21384172 0.018278357 9406860
0.13196369 0.21579204 0.018397518 9407116
0.1314708 0.21939047 0.018979028 9472909
0.13403897 0.22078016 0.018730609 9472909
0.13555163 0.22368358 0.017367775 9603979
0.13738306 0.22643527 0.020189835 9472909
0.1398765 0.23218124 0.018801676 9407115
0.14121181 0.23394194 0.018719917 9406858
0.14366975 0.23600824 0.019031001 9406857
0.090665206 0.15620612 0.017999712 9604236
0.092637055 0.15886641 0.01784317 9604236
0.093727395 0.16077855 0.01763106 9604237
0.095450543 0.1637103 0.017464593 9538702
0.097517408 0.16611592 0.017370785 9538703
0.098827288 0.16861668 0.016726362 9538445
0.10061923 0.17148754 0.017370192 9538701
0.10193548 0.17322083 0.01724139 9604493
0.10317875 0.17632985 0.015702782 9669774
0.10532585 0.17899947 0.015611321 9341067
0.10692571 0.18253805 0.01636887 9143946
0.10881868 0.18389551 0.016649786 9012358
0.1129869 0.19284225 0.017673047 8618118
0.11523064 0.19404116 0.017762268 8420482
0.11675879 0.19544733 0.01759634 8420479
0.11737482 0.2012983 0.01740562 8815234
0.11909048 0.20258874 0.017443631 9209736
0.12094611 0.20473146 0.016290257 9472653
0.12282682 0.20621388 0.016432529 9406860
0.12415045 0.21086524 0.01792853 9407118
0.12539935 0.21226689 0.017170569 9209479
0.12751327 0.21413404 0.01720624 9143685
0.12894723 0.21695042 0.016823158 9406858
0.13029231 0.21858759 0.0168094 9472393
0.13390866 0.22211291 0.017251201 9538186
0.13456216 0.2239435 0.017689185 9604491
0.1345779 0.2275795 0.017971147 9538443
0.1370925 0.23008099 0.018182572 9472651
0.14035477 0.23317701 0.017601792 9341062
0.081557341 0.14243285 0.014289645 9801615
0.090712249 0.15722968 0.014267383 9538701
0.091263801 0.15947662 0.015035281 9472905
0.092973746 0.16224043 0.015031088 9407113
0.094077803 0.16538027 0.015797572 9538187
0.095235288 0.16725115 0.015794769 9472907
0.097184308 0.16945466 0.015252803 9472907
0.098629937 0.17126553 0.015687386 9603980
0.1021838 0.17706192 0.01497202 9670028
0.10450216 0.1793893 0.014160499 9472394
0.1060082 0.18277004 0.014694123 8683652
0.10556668 0.18625851 0.01546045 9406859
0.10757654 0.18693513 0.01507554 8749185
0.10984381 0.19019681 0.015062246 8551805
0.11166273 0.19291282 0.015053529 8551800
0.11296114 0.19469652 0.015067896 8748922
0.1151333 0.19730122 0.014732564 9208962
0.1170136 0.20004763 0.014598366 9538185
0.11869007 0.20247911 0.014412045 9538443
0.1200877 0.20461321 0.014583208 9472394
0.12049519 0.2079493 0.015659992 9538696
0.12223144 0.21075563 0.015655728 9341318
0.12680891 0.21815404 0.015644634 9406600
0.12855014 0.22083953 0.015567074 9406601
0.13028643 0.22364582 0.015562907 9472654
0.079854839 0.14642285 0.012230443 9406601
0.081070028 0.14825794 0.012154223 9538187
0.082227618 0.15012874 0.012151405 9538447
0.083963707 0.15293518 0.012147108 9341067
0.085700005 0.15574148 0.012142925 9472908
0.086857647 0.15761226 0.012140153 9538701
0.14261949 0.25410891 0.011348937 8553097
0.15817413 0.23440646 0.034008928 8684937
0.1540044 0.23318228 0.032781187 8685452
0.14675327 0.22488533 0.02953908 8817553
0.1472508 0.22763638 0.030495394 8751503
0.1489422 0.22964834 0.03116136 8685709
0.15180737 0.23128645 0.03161554 8751500
0.15366669 0.23507275 0.030140014 9210511
0.13804126 0.21504584 0.028580697 8949136
0.14044514 0.21667412 0.028177496 8882832
0.14128691 0.22015214 0.028640984 8751503
0.14274372 0.22325023 0.029500943 8751248
0.14398448 0.22448099 0.029058365 8685710
0.14534234 0.22670053 0.030541563 8817295
0.14972508 0.23551062 0.029007427 9210511
0.071926586 0.1085475 0.027475053 6310462
0.093841061 0.1471971 0.025573475 9473424
0.13842419 0.21874842 0.028710138 8817295
0.1457268 0.23145416 0.026480807 9013903
0.14865035 0.23335098 0.02744507 9079438
0.15080036 0.24025097 0.026586089 9406603
0.15282843 0.24134859 0.026963694 9077124
0.091401108 0.1455908 0.02580142 9143938
0.09072987 0.14970975 0.02544375 9209474
0.091902956 0.15109995 0.025006527 9539216
0.09491615 0.15282197 0.024832213 9473940
0.096690521 0.15472195 0.024278376 9342867
0.098230392 0.15829769 0.025038609 9211539
0.099500112 0.16062674 0.024014885 9211283
0.13934669 0.2256965 0.024001518 9211025
0.14032935 0.22826543 0.025291767 9079439
0.14275065 0.22947234 0.025516624 9013647
0.14295059 0.2322897 0.026342763 8947853
0.1463899 0.23797899 0.024567742 9341067
0.14784981 0.23972318 0.025613766 9406861
0.15131807 0.24533549 0.023694832 8747900
0.0884194 0.14666487 0.02157069 9866381
0.09473218 0.15675762 0.02487902 9408146
0.097531848 0.16278602 0.02454745 9408403
0.099125512 0.16509126 0.023653757 9277075
0.10120939 0.16709362 0.023020826 9342869
0.10300028 0.16915965 0.022398937 9342869
0.10317854 0.17328261 0.022366527 9277076
0.10723075 0.17735898 0.021247376 9342612
0.10856266 0.18059313 0.022078866 9473940
0.11092025 0.18248522 0.021646764 9342612
0.11430215 0.18780148 0.021847945 9013391
0.11698638 0.19390152 0.02166315 8619149
0.12135882 0.20072082 0.021364626 8487560
0.12565827 0.20558795 0.022233855 9276818
0.12809987 0.21066277 0.022426642 9079696
0.13060439 0.21558088 0.022472724 9276818
0.13239565 0.21847087 0.022538995 9211026
0.13483663 0.22048928 0.023132751 9210770
0.13636054 0.2236641 0.02441657 9079697
0.13750584 0.22460125 0.024042321 9145232
0.13987356 0.23089376 0.021607393 9406861
0.14181659 0.23557271 0.022623112 9275531
0.14439236 0.23633178 0.023187961 9209738
0.14609499 0.24139269 0.022874534 9471624
0.1478724 0.24362504 0.023046561 9406087
0.14893614 0.24598485 0.022867642 9142407
0.082927741 0.14041851 0.020573359 9602162
0.084695533 0.14191218 0.02082576 9668225
0.086021073 0.14591381 0.021141537 9734019
0.085135326 0.14916691 0.021446474 9470066
0.087326258 0.15039887 0.021750418 9734279
0.089598775 0.15281424 0.021472946 9866896
0.10109238 0.17233893 0.022276979 9211283
0.10486583 0.17553008 0.021574752 9276820
0.10515455 0.17835136 0.022468718 9342613
0.10914923 0.18440531 0.022451118 9342612
0.11083918 0.1865923 0.021622701 9211027
0.11192132 0.19221313 0.021093423 9145234
0.11423268 0.19325265 0.021177229 8882320
0.11515832 0.1979717 0.021237202 8947855
0.11816718 0.19940273 0.021269754 8553611
0.11902531 0.20310591 0.021772319 8816010
0.12105867 0.20396465 0.021862078 8816267
0.12285986 0.20673102 0.021996427 9145233
0.12484352 0.20938456 0.022193169 9079696
0.1283405 0.21474726 0.022462144 9276819
0.12993418 0.21905328 0.02270388 9210770
0.13413021 0.22462571 0.019945974 9407373
0.13676986 0.23010811 0.020776786 9341324
0.13980831 0.23422788 0.02238166 9275530
0.14260326 0.2383748 0.020103263 9341065
0.14316896 0.24078918 0.020732375 9340808
0.14480697 0.2421885 0.022154858 9472393
0.085790642 0.14846365 0.018898772 9735307
0.086992756 0.15201084 0.018113013 9669773
0.088395655 0.1536122 0.018025963 9604237
0.089761309 0.15665005 0.019524718 9670290
0.090645082 0.15939461 0.0186988 9604495
0.092819639 0.16298828 0.018836599 9538960
0.093366154 0.16547261 0.019007724 9538960
0.096852191 0.16942915 0.018046834 9407630
0.10148824 0.17743853 0.018328626 9538704
0.10379935 0.17971244 0.018082438 9670290
0.10519752 0.18131648 0.017854055 9604752
0.10807689 0.18811929 0.017888585 9538961
0.10994058 0.18978837 0.017858118 9341581
0.11091106 0.19165677 0.017436942 8946825
0.12492566 0.21626568 0.018219111 9407116
0.12792699 0.21787795 0.018361406 9472909
0.12890206 0.22180343 0.019324418 9472909
0.1306702 0.22317898 0.019362193 9473165
0.13254516 0.22648452 0.017452333 9538186
0.13429692 0.22793251 0.019791914 9406603
0.13631834 0.2337364 0.019128392 9406858
0.13880761 0.23578337 0.019473411 9341064
0.14086773 0.23750719 0.01936654 9340808
0.1424228 0.24077938 0.02001428 9209477
0.14476754 0.24314921 0.019202746 9209223
0.083128303 0.15205066 0.018597756 9800069
0.085611254 0.15580587 0.018445151 9735565
0.087326564 0.15721443 0.018697638 9735565
0.089492992 0.16098788 0.017742312 9604236
0.090923294 0.16333643 0.017539099 9538443
0.092009664 0.16589767 0.017257161 9538443
0.093516804 0.16816948 0.017197283 9472909
0.095287107 0.17110144 0.016999619 9407115
0.096742451 0.17361161 0.017282257 9407117
0.09821 0.17584856 0.01683376 9538445
0.100202 0.17875998 0.015991474 9603981
0.10135001 0.18063627 0.015706059 9669773
0.10328111 0.18351927 0.016498776 9538702
0.10463244 0.18619326 0.017755114 9604497
0.11059599 0.19632027 0.017502358 9078158
0.1128349 0.19869728 0.017012909 8617603
0.11500599 0.20017649 0.017180711 8552062
0.11508227 0.20471585 0.017478077 8683906
0.11802682 0.20718487 0.016612843 9078150
0.11953514 0.2089562 0.016525604 9341323
0.12131481 0.21055962 0.0164613 9472396
0.12227298 0.21406509 0.017888406 9341323
0.12433408 0.21692427 0.017296394 9341321
0.12575969 0.21911918 0.017255386 9407114
0.12688741 0.22136188 0.017638123 9406859
0.12903839 0.22410692 0.017217806 9407115
0.13039204 0.22699361 0.017463911 9472651
0.13220128 0.2298741 0.018661611 9472650
0.13385229 0.23226166 0.017909134 9537930
0.13533071 0.23463848 0.017162269 9602955
0.13643554 0.2364243 0.01715959 9537162
0.13759305 0.2382952 0.017156782 9472394
0.078064226 0.14623956 0.013773203 9867150
0.079165719 0.14943981 0.014576398 9669767
0.080323204 0.15131068 0.014573542 9604492
0.082059458 0.15411703 0.014569277 9538699
0.083795778 0.15692326 0.014565095 9538700
0.085505679 0.1596871 0.014560902 9407116
0.098198436 0.18054642 0.014725368 9473164
0.099953361 0.18290965 0.014452452 9472906
0.10111095 0.18478046 0.014449662 9406607
0.10203879 0.18757923 0.015675506 9603982
0.10389503 0.18999769 0.01565975 9669773
0.10552471 0.19222331 0.015718669 9603725
0.10730051 0.19500488 0.01555332 9209480
0.10916021 0.1979112 0.015529225 8881028
0.11082987 0.2000515 0.014435193 8815229
0.11265118 0.2028646 0.014835136 8814720
0.11405838 0.20510986 0.014618851 9012099
0.11559789 0.20773201 0.014504461 9209219
0.11689706 0.21141028 0.015706526 9209220
0.11823969 0.21310782 0.015729483 9406599
0.11953375 0.21507049 0.015653023 9472649
0.12182911 0.21676782 0.016493166 9406857
0.14257371 0.2262961 0.030060815 8619916
0.14446077 0.22912839 0.031184301 8619661
0.14791192 0.23346141 0.031647224 8620172
0.14936617 0.2366789 0.032651093 8421767
0.13527991 0.21657902 0.029340217 8817552
0.13643314 0.21933413 0.02910701 8751503
0.13763902 0.2221743 0.028873634 8685456
0.13918236 0.22459105 0.029316433 8685454
0.14116798 0.22799037 0.03099009 8488077
0.14579338 0.23470862 0.028487412 9144975
0.096983694 0.16089231 0.025449229 9474194
0.13382214 0.22030258 0.028965935 8751759
0.14030285 0.23240019 0.027000146 8882318
0.14197704 0.23383501 0.027820632 9079183
0.14463294 0.23736764 0.029002491 9013133
0.14545937 0.23932403 0.02788027 8749961
0.14616534 0.24147294 0.026978051 8682621
0.092041053 0.15607017 0.02446099 9407631
0.093514532 0.16045053 0.024708368 9539216
0.096433394 0.16440842 0.025889479 9342094
0.13261311 0.22304173 0.023681456 9211025
0.13363349 0.22594012 0.024976924 9013647
0.13570967 0.22700746 0.024998453 9079440
0.13709296 0.22873935 0.025445314 9013646
0.13846603 0.23071294 0.026038682 8948110
0.14307329 0.23785569 0.024677018 9341066
0.14365213 0.24067526 0.026481239 9275018
0.1448832 0.24214476 0.024415949 9471115
0.14569929 0.24428533 0.024217542 8945026
0.14772424 0.24673696 0.024409043 7693924
0.087652519 0.15472502 0.022212185 9536638
0.089354508 0.15538004 0.024184277 9209477
0.090510905 0.15995589 0.023950744 9472649
0.095526144 0.16684832 0.023985773 9276561
0.097725213 0.16889711 0.023420686 9145746
0.099756502 0.17081439 0.022787848 9145747
0.10002075 0.1750019 0.022859849 9277332
0.10221056 0.1768215 0.02246742 9342868
0.10277326 0.18058972 0.022910513 9079955
0.10553475 0.18217352 0.02274204 9277076
0.1075583 0.18315583 0.022763643 9277075
0.1079217 0.18822184 0.02221242 9342869
0.11022659 0.19008788 0.021887802 9342868
0.11276426 0.19510354 0.022253131 9145490
0.12055148 0.20757128 0.022019593 9210770
0.12631671 0.213883 0.022655116 9211026
0.12801085 0.21836184 0.022755394 9145490
0.12838829 0.22118717 0.023717172 9145489
0.13030185 0.22200215 0.023597734 9211026
0.13663706 0.23360163 0.021556411 9341324
0.13809949 0.23622747 0.023468532 9209994
0.14011754 0.2374488 0.023778019 9275530
0.14346002 0.24325942 0.023707049 9472138
0.087467276 0.15854074 0.020204591 9932688
0.088720694 0.16046913 0.019704321 9801617
0.097010106 0.17321946 0.0229975 9408403
0.10510996 0.18655163 0.022451717 9277076
0.10900866 0.19383992 0.021824429 9211283
0.11279982 0.19872554 0.021331241 9145233
0.11492063 0.201177 0.021802574 9079186
0.11657406 0.20238791 0.021557994 8882061
0.11667076 0.20644385 0.02156239 9079182
0.12055654 0.21174279 0.022099942 9079440
0.12325536 0.21342421 0.021970842 9079696
0.12515149 0.21766108 0.022484243 9211026
0.13024966 0.22661521 0.020079698 9407117
0.13062677 0.22955869 0.021256074 9341324
0.13360074 0.23159939 0.021372326 9275531
0.13502187 0.23577665 0.021405155 9341065
0.13650833 0.23779503 0.020226507 9341064
0.13808885 0.23940423 0.02027517 9275272
0.14002995 0.24208625 0.02188923 9275272
0.081605673 0.15040553 0.018475709 9733759
0.083665967 0.15430422 0.018057041 9866378
0.084892601 0.1594267 0.019246917 9866378
0.08720047 0.16204475 0.019729303 9801100
0.089073092 0.1642492 0.019674538 9801358
0.09075851 0.16694035 0.019919982 9736078
0.09208566 0.16932225 0.01898366 9538960
0.094425492 0.17157829 0.018700786 9473166
0.094762944 0.17483932 0.019259553 9472910
0.096734531 0.17691149 0.018867644 9472911
0.098715387 0.1798601 0.018645637 9407375
0.10087036 0.18223038 0.018229676 9538705
0.10760224 0.19452681 0.017250013 9407377
0.11926559 0.21224143 0.018048711 9341325
0.12043571 0.21704526 0.018668279 9407117
0.12212174 0.21870644 0.018502139 9472909
0.12461203 0.2202235 0.01876607 9407115
0.12510553 0.22274099 0.019151937 9341323
0.12745732 0.22501965 0.019275947 9341323
0.12850063 0.22769454 0.018177912 9472394
0.13001011 0.23087759 0.019037807 9538443
0.13191138 0.23287627 0.01901239 9406345
0.13341308 0.23535758 0.019186791 9406601
0.13632509 0.2403767 0.01950415 9209221
0.13742672 0.24357693 0.020307291 9406857
0.080737785 0.15652688 0.01766785 9800320
0.082291856 0.15815264 0.017823888 9866120
0.083575167 0.16082636 0.016983146 9669261
0.088839635 0.16780084 0.017719064 9669774
0.090223238 0.1709812 0.01707348 9538444
0.091657527 0.17328814 0.016916482 9538443
0.092502639 0.17535177 0.016574102 9406859
0.096163407 0.18108279 0.016349223 9472652
0.098188885 0.18388656 0.016335243 9472908
0.099320062 0.18600975 0.016892493 9538446
0.10030354 0.18804756 0.017193684 9538704
0.10324325 0.19028619 0.017527005 9604238
0.10607906 0.19299991 0.017342478 9538961
0.10552026 0.19616711 0.016856465 9669519
0.10692193 0.19941609 0.017190514 9538448
0.11001601 0.20138252 0.017301159 9407117
0.11213952 0.20265587 0.017395804 9078408
0.11091653 0.20658772 0.017513018 9144204
0.11356597 0.20965144 0.017011235 9012101
0.11569553 0.21123399 0.016687125 9077894
0.11646914 0.21373445 0.016756505 9340553
0.11796138 0.21669228 0.017099602 9407112
0.11934191 0.21924786 0.016801784 9407114
0.12151771 0.22146901 0.017042661 9407114
0.12455423 0.22378516 0.017527774 9472907
0.12598957 0.22583692 0.01751898 9538443
0.12564608 0.22910832 0.018513735 9407114
0.12747122 0.2306843 0.018907262 9407113
0.1326267 0.23972078 0.016643947 9471624
0.093837433 0.17858154 0.015707003 9604236
0.099475645 0.19261421 0.015540684 9604237
0.1014088 0.19541603 0.015352817 9603981
0.10418145 0.19750397 0.016196122 9538702
0.10560235 0.20058249 0.015311483 9472652
0.10699035 0.20242822 0.01522968 9209481
0.10928615 0.20506471 0.015203232 8814979
0.11141898 0.20756695 0.015250491 8617344
0.11274455 0.20945123 0.015100809 8814721
0.1146274 0.21522613 0.016351942 9406857
0.076769091 0.15656756 0.014936391 10129299
0.10113959 0.19569924 0.014730517 9669259
0.10461211 0.20131186 0.014722016 9735316
0.1057696 0.20318274 0.014719225 8946311
0.1077185 0.2053863 0.014177252 8420219
0.1091895 0.20871034 0.014710898 8814205
0.11034705 0.21058121 0.014708038 8879738
0.14302281 0.23084658 0.034733288 8816782
0.13319667 0.21869177 0.029805077 8751759
0.1362334 0.22386852 0.029802836 8685710
0.14123315 0.2310084 0.031612389 8750735
0.14282882 0.23334332 0.031727608 8751246
0.14404958 0.23596847 0.031542636 8685452
0.14515541 0.2374 0.030896133 8619403
0.13050301 0.22118181 0.030014608 8817038
0.13235879 0.22203265 0.029968584 8817039
0.13411726 0.22453135 0.030063769 8619660
0.13587588 0.22702999 0.030159043 8619918
0.13812436 0.22928496 0.03062216 8619661
0.13416894 0.22902048 0.025938347 8947855
0.13688712 0.23251466 0.027188111 9013645
0.1388984 0.236798 0.027769204 9079184
0.14069654 0.23768462 0.027796626 9079183
0.14131646 0.23976763 0.025905404 9406605
0.14297892 0.24332657 0.026838081 8023927
0.14411004 0.24515499 0.026835324 7168618
0.093262143 0.16378216 0.025064223 9275270
0.096456937 0.1714465 0.023972651 9539987
0.099271305 0.17734857 0.023850389 9211540
0.12832808 0.22440046 0.024418116 9079184
0.13074711 0.22666737 0.024805125 9013647
0.13332061 0.2314869 0.026792938 8948110
0.13651051 0.23827089 0.024764514 9275788
0.13873594 0.2390113 0.025199249 9472653
0.091814518 0.16961461 0.023668908 9604492
0.094361186 0.17062627 0.023814987 9473938
0.094395079 0.17477985 0.023858735 9342095
0.097617716 0.17613775 0.024094906 9342611
0.098811783 0.17955379 0.024002736 9408403
0.099841639 0.18205182 0.023638975 9408404
0.10253585 0.18373592 0.023368506 9277076
0.10398587 0.19024579 0.022490282 9145747
0.11834804 0.2097584 0.022489879 9211026
0.12067682 0.21596074 0.02224819 9144977
0.12206486 0.21768989 0.022836369 9144977
0.1244574 0.21997328 0.023330728 9145233
0.12551209 0.22379006 0.023864334 9079439
0.1285083 0.22746503 0.0251082 8947598
0.13256459 0.23435858 0.022345033 9275529
0.13654456 0.24071437 0.021555416 9275015
0.13691302 0.24319379 0.023360061 9472394
0.13954082 0.24533139 0.023702027 8879488
0.14385778 0.25006926 0.023966726 6576194
0.086296387 0.16032532 0.021410741 9470840
0.084997863 0.16253962 0.02128494 9536378
0.086765446 0.16526833 0.021649698 9603202
0.088732742 0.16853854 0.021180723 9866376
0.090146497 0.17122896 0.019934986 9670032
0.091487423 0.17275062 0.019565441 9604753
0.10051265 0.18692781 0.023286005 9211283
0.10192109 0.1882901 0.022911122 9079954
0.10496277 0.19346261 0.022165621 9211538
0.10671364 0.1961426 0.022370804 9277075
0.10915765 0.19804001 0.021935919 9342611
0.10958686 0.20042017 0.021861352 9276818
0.11084522 0.20340443 0.02173507 9276562
0.11344806 0.20514494 0.021433504 9144976
0.11412835 0.20889927 0.021907715 9210770
0.11724514 0.21361594 0.022601591 9144977
0.1188983 0.21482696 0.022356952 9079184
0.12522998 0.22819209 0.019996027 9341323
0.12774335 0.22898968 0.020493001 9341324
0.12743776 0.23247252 0.021278199 9275530
0.13023397 0.23344804 0.021910625 9275530
0.13305669 0.23925684 0.021874622 9275015
0.1343801 0.24252537 0.022512453 9406600
0.13615717 0.2443648 0.021922057 9340807
0.13726203 0.24615064 0.021919368 9340807
0.080621935 0.15889302 0.018602028 9008489
0.08209452 0.16217682 0.019111231 9799539
0.085850783 0.16671345 0.019850839 9536380
0.087319963 0.16886103 0.019276824 9866379
0.088258125 0.17213225 0.019644551 9735050
0.089190908 0.17436759 0.019650454 9735308
0.091143437 0.17696105 0.01921618 9472652
0.092599653 0.17944106 0.019321213 9473165
0.094977692 0.18195699 0.018635089 9407372
0.096783437 0.18422984 0.018264443 9473168
0.1095513 0.20531586 0.017605197 9407119
0.11403514 0.21359618 0.018180348 9407116
0.11546793 0.21476766 0.018190054 9406601
0.11693586 0.21732867 0.018367089 9472135
0.11889867 0.22075936 0.018508777 9472652
0.12043867 0.22288458 0.019182041 9407114
0.12141039 0.22558488 0.018605875 9341320
0.12300553 0.22762664 0.019033924 9406858
0.12449701 0.23106691 0.019297872 9275016
0.12579297 0.23366341 0.019233711 9406600
0.12763831 0.23540293 0.019370269 9340809
0.12918806 0.23792462 0.019258367 9274759
0.13072249 0.2409026 0.01906609 9340553
0.13124524 0.2431674 0.019870685 9208967
0.13240279 0.24503827 0.019867826 9208967
0.088802516 0.17487916 0.017574072 9669773
0.09027192 0.17796734 0.017018082 9538188
0.090947703 0.18072319 0.016341053 9538444
0.092671953 0.18353635 0.015983494 9472651
0.094823875 0.18620323 0.016033396 9538444
0.095701173 0.18877771 0.016761197 9472909
0.097293369 0.19055581 0.01660046 9538701
0.098802842 0.19268025 0.01722753 9472910
0.10113446 0.19547035 0.016813748 9473166
0.1013692 0.19991203 0.017351577 9473167
0.10301252 0.20136456 0.017253606 9538960
0.10587873 0.20329565 0.017406674 9538960
0.10796752 0.20947096 0.017738758 9472911
0.10990801 0.21126749 0.016752843 9275529
0.11192854 0.21242839 0.017025696 9275528
0.11480094 0.21900205 0.018188229 9341581
0.11610471 0.22101672 0.017617157 9407116
0.1177962 0.22349767 0.017395822 9472907
0.11985262 0.22575434 0.018184042 9406860
0.09402474 0.1871686 0.016432803 9276041
0.095182292 0.18903947 0.016429946 9275016
0.095390297 0.19161496 0.016154271 9472652
0.096976131 0.19404399 0.016147796 9538187
0.098725252 0.1968032 0.016153989 9472652
0.10036346 0.19906223 0.015953744 9538188
0.10199404 0.20205121 0.015709035 9538445
0.10412918 0.20455207 0.015826998 9472651
0.10589384 0.20683153 0.015988518 9472395
0.10783229 0.20935559 0.015736107 9406602
0.10907741 0.21136914 0.016322808 9406084
0.11081358 0.21417548 0.016318589 9406085
0.11272361 0.21981418 0.016363209 9406858
0.14025432 0.23044203 0.03425264 8685196
0.13773075 0.22988616 0.033902261 8750734
0.13840303 0.23405655 0.034030918 8816525
0.1320013 0.22519417 0.030324768 8619660
0.13588831 0.22996305 0.030781424 8685199
0.12919116 0.22387546 0.030393833 8751246
0.13216549 0.22909069 0.03032372 8553868
0.13774173 0.23974968 0.02896207 8487561
0.1404191 0.24126922 0.029644357 7500410
0.12990385 0.23001401 0.026596522 8947854
0.13086446 0.2340067 0.027242869 8816525
0.1343758 0.23500992 0.027674658 8947853
0.13486746 0.23735154 0.02766799 9079183
0.13689858 0.24009439 0.028607892 8421513
0.13794483 0.24279431 0.025865069 9209223
0.088750415 0.1655177 0.026665011 7165758
0.089907959 0.16738856 0.026662154 7955273
0.091725223 0.17308047 0.023951193 9143427
0.094991617 0.17846836 0.024299167 9605010
0.12523794 0.22601926 0.025013484 8947855
0.12661207 0.22958028 0.025991285 8882062
0.13299094 0.24091883 0.024792673 9472654
0.13600394 0.24140812 0.025832856 9472654
0.084315255 0.16367131 0.023806535 6836028
0.0854728 0.16554216 0.023803674 7559752
0.094551936 0.18191561 0.024451325 9275528
0.096559145 0.18384807 0.023996465 9342097
0.099291801 0.18544979 0.023864688 9276819
0.10058796 0.1920547 0.022887193 9342867
0.10217897 0.19330409 0.022574725 9277074
0.10610381 0.20063499 0.021947362 9211283
0.10940838 0.20623416 0.022085872 9211026
0.11400338 0.21215245 0.022470089 9079696
0.1175577 0.21759747 0.022880238 9145232
0.1176541 0.22059625 0.023536392 9079183
0.12025918 0.22233553 0.023305383 9013649
0.12215623 0.2239265 0.024156844 9013647
0.13046575 0.23695202 0.023244247 9209482
0.1303221 0.24009795 0.023026841 9341066
0.13283123 0.24305469 0.023942897 9406345
0.13503189 0.2449466 0.024023285 9274502
0.13599251 0.24693857 0.023534138 8550780
0.086348578 0.17252244 0.021290779 9075561
0.087656535 0.17582928 0.021523053 9272433
0.08922784 0.17826796 0.021977229 9471874
0.098256893 0.19126233 0.022667317 9408403
0.1013934 0.19684811 0.022952726 9211026
0.10322943 0.19794613 0.022770582 9211026
0.10463779 0.19930844 0.022395687 9211027
0.10566905 0.20407943 0.022240885 9211283
0.10750985 0.20517473 0.022200039 9276819
0.10959248 0.20876576 0.021880953 9079697
0.11081436 0.21077393 0.022338526 9145490
0.11310943 0.21588062 0.022536783 9079697
0.12297866 0.23029144 0.020607844 9341323
0.12527163 0.23510721 0.021968191 9209738
0.12729467 0.23620774 0.022204304 9143945
0.12838398 0.23870741 0.021296101 9209478
0.12878275 0.24169606 0.02233113 9275014
0.12997566 0.24395533 0.021485446 9340551
0.08937905 0.18193343 0.019353874 9866638
0.090995446 0.18481258 0.018470583 9801619
0.092566505 0.18642724 0.018236648 9538960
0.093652315 0.18822406 0.017668571 9538960
0.10625192 0.20818049 0.017700838 9472912
0.11149544 0.21710743 0.017944479 9407372
0.11413516 0.22258985 0.018775297 9407373
0.11753429 0.22442667 0.01912096 9406860
0.1175846 0.22774667 0.018971108 9341066
0.11965066 0.22976059 0.018704541 9341321
0.12006226 0.23385815 0.0195719 9275271
0.12218168 0.23472381 0.020543395 9275272
0.12494595 0.23718777 0.020356279 9275271
0.084994256 0.17664759 0.017736387 9734534
0.086546525 0.17968552 0.017849039 9734793
0.087860517 0.18310414 0.016703211 9735565
0.08981815 0.18453977 0.017337339 9538699
0.091441885 0.1874951 0.018012105 9407626
0.092871614 0.1906476 0.017847862 9472652
0.093855076 0.19250917 0.018257657 9407373
0.096152544 0.19494882 0.018351322 9406859
0.098041438 0.19720873 0.017552897 9472653
0.098093495 0.20080203 0.017384684 9407375
0.099963509 0.20395683 0.017406292 9407374
0.10178427 0.20541736 0.017444033 9407375
0.10364796 0.2070865 0.017413551 9473167
0.10490347 0.21230766 0.017896717 9407118
0.10616691 0.21411234 0.017464465 9407118
0.10897475 0.21566726 0.017187702 9472649
0.11043365 0.2179798 0.017796617 9538186
0.11143037 0.22038251 0.018611485 9341065
0.11327784 0.22294272 0.017997237 9340808
0.11514124 0.22572961 0.018306797 9406601
0.11613347 0.22837079 0.019433046 9209481
0.11811852 0.23153278 0.019450879 9341066
0.11991086 0.2330097 0.018640721 9275272
0.12101236 0.23620994 0.019443855 9144454
0.12274853 0.23901629 0.019439632 9275271
0.12390608 0.24088715 0.019436786 9012356
0.12506358 0.24275804 0.019433986 9077379
0.08981739 0.19024366 0.01748297 9670029
0.092098534 0.19424069 0.016917352 9538187
0.093779147 0.19614092 0.017038934 9538444
0.094054379 0.19990802 0.015757918 9472651
0.096706651 0.20197129 0.015814643 9472395
0.098361537 0.20435753 0.015769681 9406860
0.099840336 0.20712674 0.015490336 9538443
0.10183159 0.20932472 0.01564279 9538187
0.10353309 0.2115453 0.0158289 9669773
0.1057308 0.21402678 0.015755631 9406857
0.10631578 0.21648724 0.015877806 9472393
0.10685475 0.22015253 0.016284263 9406858
0.10861784 0.22164893 0.016395312 9472395
0.11060638 0.22324099 0.016500739 9406858
0.075379819 0.17047948 0.014685726 8285273
0.13460459 0.23264329 0.033777744 8816782
0.13066073 0.22990647 0.031876221 8619660
0.13220257 0.23154053 0.032563537 8553611
0.1253349 0.22696601 0.029805051 8685197
0.1281673 0.22886021 0.030630853 8553612
0.13199452 0.23730716 0.02822382 9144975
0.12630172 0.23306583 0.026635196 8816268
0.12690933 0.23598415 0.027732616 9079182
0.13025379 0.23650286 0.028337676 9079183
0.11854089 0.22434057 0.024109652 9013648
0.11903816 0.22720964 0.025280593 8947854
0.12260415 0.22853121 0.025327571 8947854
0.1233892 0.23145755 0.026560629 8816267
0.13123074 0.24403182 0.025704661 8682365
0.13298848 0.24621367 0.02588572 7562335
0.13474329 0.24857692 0.025612794 6641477
0.084868304 0.17414695 0.023353444 8153421
0.086025797 0.17601782 0.023350645 8679765
0.087183341 0.17788868 0.023347858 9339483
0.094093807 0.18854685 0.022967298 9538960
0.096358307 0.19020289 0.022781529 9408402
0.097182766 0.19392672 0.023179531 9276817
0.10026802 0.19554575 0.023248475 9277075
0.10035318 0.20054905 0.022917744 9342610
0.10200676 0.20175985 0.022673257 9277075
0.10359757 0.20300937 0.02236063 9211283
0.10671478 0.20872416 0.022295466 9079441
0.1097164 0.21451066 0.022376955 9079440
0.11146346 0.21772355 0.02347701 9013646
0.11449625 0.21919848 0.023438817 9013647
0.11418635 0.22256587 0.023868138 9013647
0.1168549 0.2247377 0.024633981 8947855
0.12502833 0.23866956 0.023035882 9275019
0.12621276 0.24056336 0.023315709 9275271
0.12750222 0.24262832 0.024184845 9406602
0.12870613 0.24474321 0.023100249 9471622
0.094102174 0.19230501 0.023251962 9341579
0.097228967 0.19801432 0.023469277 9473682
0.098627374 0.19950029 0.023026317 9408402
0.1016082 0.20618051 0.022382764 9145489
0.1045711 0.2078162 0.022279287 9079696
0.10686623 0.21292289 0.022477556 9079696
0.12021717 0.23305896 0.021037336 9275529
0.12019918 0.23671708 0.022099288 9209737
0.12286746 0.23839772 0.021923911 9209478
0.086855553 0.18126091 0.019673588 10128514
0.08801315 0.18313175 0.019670783 9736847
0.088564701 0.18537872 0.020438613 9736076
0.089554071 0.18876439 0.020223049 9801355
0.09098839 0.19110978 0.019547766 9735821
0.094325185 0.19604453 0.021193812 9603722
0.10780227 0.21898134 0.018281927 9275787
0.11082135 0.22558068 0.018661583 9341324
0.11343989 0.22654837 0.019158255 9341067
0.11434832 0.22966248 0.020090187 9209481
0.11667292 0.23183951 0.019629309 9275272
0.11733016 0.23625501 0.020205544 9209734
0.11979886 0.23778582 0.020718183 9209733
0.121479 0.23980415 0.021054439 9209988
0.12263656 0.24167505 0.021051593 9012352
0.1237941 0.24354589 0.021048794 9209220
0.086483337 0.18701598 0.018275827 9931914
0.087751858 0.18881643 0.017100329 9801358
0.087860063 0.19404233 0.017905334 9866376
0.090209886 0.19572446 0.018023798 9735311
0.093674943 0.19750066 0.018200979 9538959
0.094891138 0.19998103 0.017606396 9472651
0.094954431 0.20282327 0.01783609 9538444
0.096306227 0.20475006 0.017686285 9407117
0.098165095 0.20748064 0.017747266 9407375
0.10043591 0.20954448 0.017639942 9473167
0.10237688 0.21093068 0.017672163 9407374
0.10257247 0.2158076 0.017830623 9341324
0.10492457 0.21755543 0.01695363 9341066
0.10574836 0.22017403 0.018492129 9340812
0.10697006 0.22341606 0.018324861 9275530
0.10935485 0.22597779 0.018223194 9275016
0.11142861 0.22879128 0.01852628 9209478
0.11419935 0.23478006 0.019008709 9209736
0.1152772 0.23575999 0.019309839 9078149
0.1165144 0.23852181 0.019003063 9209988
0.083666757 0.18804882 0.015489319 9801099
0.089999415 0.19918482 0.016941955 9735565
0.091570079 0.20091765 0.016922563 9669773
0.092552058 0.2041892 0.015962018 9538444
0.094893932 0.20662098 0.016071711 9538444
0.096143194 0.20898324 0.015674269 9406859
0.098289862 0.21145743 0.015791357 9407115
0.099783719 0.21388431 0.015622856 9472907
0.10110471 0.21637917 0.015603023 9341321
0.10284036 0.22075553 0.016784973 9341065
0.10442073 0.22236483 0.016833594 9341065
0.076687485 0.18083805 0.012294441 9602433
0.059885472 0.17405276 0.0041665779 8746589
0.13357455 0.23481068 0.034703467 8619404
0.12383484 0.22777905 0.031498827 8487819
0.12506938 0.2295441 0.031880554 8554125
0.12655146 0.23221357 0.031811446 8488329
0.11983348 0.22989421 0.026367171 8882061
0.12410045 0.23419437 0.027827974 8947853
0.1245281 0.23828138 0.028281763 8882061
0.12525876 0.24006231 0.027442401 9013133
0.12874904 0.24425228 0.027052017 8024178
0.11210516 0.22161932 0.02391988 8947855
0.11467884 0.22543766 0.024897737 8947598
0.11738224 0.22917624 0.026152754 8882061
0.11953776 0.23325343 0.027220396 8882060
0.12423708 0.24227846 0.025149032 9406603
0.12577643 0.24400181 0.025484292 8748931
0.12701622 0.24661584 0.025717231 7891820
0.1284871 0.24993993 0.026250867 6376239
0.095810607 0.19677565 0.023776153 9473423
0.097313128 0.20225433 0.023442212 9276303
0.099072963 0.20428056 0.022679102 9276818
0.10377082 0.21148656 0.022447897 9079696
0.10683255 0.21611959 0.0230712 9013646
0.10726031 0.22014758 0.023417694 8947855
0.10977405 0.220827 0.023700029 9013647
0.11100464 0.22430025 0.024539512 8947854
0.11431116 0.22884092 0.025400503 8882061
0.12002286 0.24023823 0.02337628 9209481
0.1223939 0.24238792 0.02385092 9143688
0.12377128 0.24456544 0.024961248 8880259
0.089810744 0.19260608 0.021774657 8946047
0.092332713 0.19710276 0.022448892 9472645
0.094160378 0.20073569 0.023271384 9209477
0.097695075 0.20642786 0.023545405 9341838
0.098763004 0.20764796 0.023108475 9407632
0.10034424 0.2101372 0.022183329 9211024
0.10353314 0.21469186 0.023013169 8948110
0.11233829 0.23158444 0.021557136 9275274
0.11398167 0.23303698 0.021459136 9209737
0.11692159 0.23521651 0.021685274 9143945
0.11731795 0.23932283 0.022105079 9143686
0.11973447 0.24059144 0.022295984 9077891
0.12074002 0.24261658 0.023256527 9209477
0.12252456 0.24433376 0.022663571 9406603
0.084046468 0.18617316 0.019155396 9669254
0.087406851 0.19444461 0.020758877 9139822
0.089199133 0.19592153 0.019948663 9865347
0.092543691 0.20169073 0.019263506 9604235
0.093829207 0.20340501 0.019937372 9604233
0.099452712 0.21344584 0.017960714 9341325
0.10305733 0.22003594 0.018532809 9341324
0.10462324 0.22177152 0.018372094 9275532
0.10481296 0.2248306 0.019344764 9341323
0.10790454 0.22685739 0.019492215 9209738
0.10984789 0.23002587 0.019723821 9143945
0.11111674 0.23180874 0.020010374 9143686
0.11269698 0.23347706 0.020166351 9143686
0.11363328 0.23766068 0.020427881 9209477
0.11524486 0.23930968 0.020617871 9078145
0.11640236 0.24118057 0.020615011 9012352
0.085888505 0.19361444 0.016972791 9866120
0.085345522 0.19806708 0.017643187 9536639
0.08821898 0.19875976 0.018338224 9866120
0.090293415 0.20065096 0.018092586 9801102
0.090731457 0.20661214 0.017980743 9801359
0.093031943 0.2072465 0.017844893 9538444
0.095010117 0.20945248 0.017915154 9472652
0.097622022 0.2121089 0.017854977 9407117
0.09726391 0.21550667 0.018640351 9341322
0.099304758 0.21747607 0.017512815 9275530
0.1010637 0.21950372 0.017315961 9341065
0.10244135 0.22394493 0.018593697 9275274
0.10371155 0.22598022 0.017918058 9340809
0.10554709 0.22731446 0.018164994 9275272
0.10716531 0.2292531 0.018218866 9209479
0.083153598 0.19318795 0.015712101 9800068
0.086316854 0.20169856 0.0170437 9931915
0.08825276 0.20320559 0.017149176 9932429
0.090142593 0.20615155 0.016788755 9735564
0.091912009 0.20917197 0.016433641 9669773
0.093247399 0.21093269 0.016351987 9472652
0.094682992 0.21298429 0.016343337 9472651
0.096813709 0.21542875 0.016212707 9341321
0.098542765 0.22129868 0.017364684 9341065
0.099878147 0.22305937 0.017282987 9340808
0.079540461 0.19283421 0.014270071 9668221
0.093163408 0.21439278 0.015006363 9275529
0.094899595 0.21719913 0.015002092 9275273
0.096057147 0.21906999 0.014999287 9275273
0.097214632 0.22094086 0.014996503 9209735
0.078797922 0.19670191 0.01302534 9536891
0.12242907 0.22947334 0.032428026 8356489
0.12280393 0.23124285 0.033971008 8356490
0.12530699 0.23388807 0.033808112 8619146
0.12518823 0.23623532 0.034022599 8882315
0.12211124 0.23718989 0.028412817 8947596
0.11621895 0.23195478 0.0268117 8816267
0.11799221 0.23526922 0.028019048 8750732
0.1200781 0.23621307 0.028108563 8882061
0.12264026 0.24332933 0.027876759 8287864
0.12379774 0.2452002 0.027873972 6774626
0.10981493 0.22592004 0.025743054 8947853
0.11139957 0.22887905 0.02581764 8816525
0.11241482 0.23095623 0.026283635 8816525
0.11548828 0.23446627 0.027804708 8750218
0.11879759 0.24006265 0.028084517 8947598
0.12055952 0.24261302 0.024819314 9472396
0.12198525 0.24561369 0.026315438 8023924
0.091786012 0.19762036 0.024423342 9603168
0.095821276 0.20500042 0.023722436 9341319
0.10327617 0.21920143 0.022790574 8947854
0.10499923 0.22237048 0.023961376 8947853
0.10649993 0.22414748 0.024546683 8947854
0.1157717 0.2393409 0.023537319 9143944
0.11731386 0.24230736 0.024097083 9340551
0.11883191 0.24400564 0.025063716 9208966
0.090767398 0.20271598 0.022362404 9866120
0.098441295 0.21442996 0.021658186 9013646
0.098749042 0.21847327 0.021902796 9013645
0.10211545 0.22191957 0.023412898 8947852
0.10718842 0.22924253 0.020694612 9144201
0.10903362 0.23468798 0.021940656 9143688
0.11179712 0.23521322 0.022494595 9143688
0.11291219 0.23675737 0.022345385 9077896
0.11385176 0.2401748 0.022733582 9143430
0.11629026 0.24383937 0.022226948 9209216
0.087696485 0.20272897 0.018715506 9404535
0.089327507 0.20736596 0.019847158 9865605
0.091649741 0.20804413 0.018685186 9670281
0.092888072 0.21021836 0.019074677 9735562
0.094866328 0.21322744 0.018889362 9604238
0.095449716 0.21733625 0.019727452 9538186
0.097418934 0.2190574 0.019482125 9341067
0.098749578 0.22082077 0.01925916 9275274
0.10118682 0.22248755 0.01906779 9275274
0.1023488 0.22670776 0.019216383 9209224
0.10409182 0.22884414 0.019635271 9209481
0.10569185 0.23185198 0.019380139 9209477
0.10741591 0.23419714 0.02049957 9143686
0.10906634 0.23674273 0.020328065 9143429
0.11071482 0.23893568 0.019418694 9012356
0.1113257 0.24255694 0.020175694 9143682
0.1124832 0.24442783 0.020172838 9143682
0.08202488 0.1977679 0.016404688 9273187
0.085280046 0.20151928 0.018632054 8613720
0.088383406 0.20583086 0.018150819 9734274
0.089690752 0.20980413 0.018148225 9865863
0.090910263 0.21273291 0.017314628 9735308
0.092737645 0.21548423 0.018226273 9603722
0.094216622 0.21756585 0.016942887 9341064
0.096462421 0.2201158 0.016987376 9340808
0.096060917 0.22342317 0.018055465 9340808
0.098706104 0.22609892 0.018466203 9209480
0.10133982 0.22827204 0.018749803 9275272
0.10280521 0.22983481 0.018730689 9275015
0.077554904 0.19418061 0.014504462 9275266
0.091893889 0.2151807 0.016621156 9472394
0.09710265 0.22359963 0.016608451 9275271
0.081812866 0.20283456 0.014174508 9997190
0.090293102 0.22098847 0.014027489 9275273
0.091450654 0.22285932 0.014024634 9275273
0.092608079 0.22473022 0.014021829 9209735
0.067399032 0.19445828 0.0088368403 8616818
0.12312258 0.23187606 0.038749132 8486786
0.12222456 0.23254439 0.035537135 8487561
0.11646122 0.23715869 0.02902703 8881804
0.11818699 0.23820749 0.028918367 9013390
0.1130331 0.23428117 0.028485319 8750218
0.11432259 0.23612989 0.028937556 8881804
0.10408086 0.22705746 0.025993472 8816268
0.10634436 0.22800924 0.026218688 8816268
0.10753998 0.22997479 0.026676422 8750476
0.10975438 0.23242752 0.027356926 8684683
0.11754874 0.24489112 0.027335355 8221047
0.11872098 0.24657665 0.027434565 7365466
0.10033701 0.22078578 0.023521589 9013644
0.099666901 0.22425814 0.023752833 9013132
0.10266571 0.22475554 0.024369089 8947597
0.1112756 0.23859492 0.023568161 9012103
0.11206378 0.24245885 0.024005523 9275016
0.11400632 0.244453 0.024945745 9208453
0.094918668 0.21743214 0.021374801 9144459
0.095810346 0.22111471 0.021982029 9078667
0.09733586 0.22346577 0.023532907 9078923
0.10238886 0.23115401 0.020893162 9078152
0.10420955 0.23261459 0.020930795 9077896
0.10652018 0.23624097 0.0205692 9143685
0.10744558 0.2374357 0.022825565 9012103
0.10818952 0.24085461 0.021946693 9077635
0.11023054 0.24259077 0.022159252 9143427
0.11121366 0.24521573 0.021787642 9209218
0.090135247 0.21333332 0.019546 9075311
0.092013471 0.2148762 0.019724851 9602433
0.09400937 0.2218727 0.01965134 9537929
0.096805878 0.22273012 0.020069174 9341066
0.097380184 0.22566754 0.020177374 9275273
0.098538406 0.22936055 0.02010349 9209479
0.10021552 0.23073342 0.020002829 9143687
0.10221618 0.23337586 0.019809594 9077894
0.10366102 0.23536456 0.020860851 9143686
0.10500634 0.23911895 0.021312732 9077636
0.087678045 0.21120632 0.018243117 10129287
0.088235706 0.21446688 0.017862691 9668995
0.089854605 0.21609163 0.017933944 9537929
0.091304041 0.21935907 0.018887121 9471362
0.092871644 0.2216575 0.018425936 9340292
0.094393663 0.22454464 0.019194746 9209222
0.095812902 0.22694893 0.018910332 9209477
0.097493835 0.22918236 0.019233029 9143428
0.099246211 0.23274399 0.019826582 9143172
0.10040374 0.2346148 0.019823777 9143427
0.10216892 0.23740317 0.01978286 9143171
0.103934 0.24019161 0.019741941 9142915
0.10572631 0.24166855 0.018931685 9011842
0.10693637 0.24362445 0.018928785 9143428
0.082315862 0.20958133 0.015773946 9404520
0.084648527 0.21378462 0.01719192 8285012
0.087813459 0.21982047 0.0156452 9735048
0.09133856 0.22551814 0.015636636 9143429
0.075157367 0.20412847 0.013079057 8946293
0.063847624 0.19430231 0.0078919381 7826788
0.1104532 0.23417312 0.029030085 8750219
0.11383386 0.23761125 0.030964121 8815238
0.10495051 0.23287268 0.028199473 8750218
0.10854474 0.23323727 0.029076265 8816011
0.10818681 0.236517 0.029647021 8683910
0.098675728 0.22699288 0.0269526 8881026
0.10070801 0.22738053 0.026113305 8947338
0.10310505 0.22972031 0.026856206 8816011
0.10358528 0.23160082 0.028291678 8750475
0.11183844 0.24471831 0.026268136 8681852
0.11363923 0.24807392 0.027068533 6641494
0.094817445 0.22278903 0.023109326 8946820
0.097213082 0.22560138 0.024710586 8946821
0.10540867 0.23910908 0.023881856 9012358
0.10742353 0.24215536 0.024361111 9208964
0.10868831 0.24396005 0.024502136 9274501
0.1094109 0.24574967 0.026104435 8616313
0.091706172 0.2213002 0.02070852 9078150
0.093781404 0.225428 0.022369552 9077373
0.094440438 0.22843024 0.022240302 9405570
0.096414238 0.23014866 0.022136271 9406344
0.098590732 0.23262317 0.021686248 9143944
