# .PCD v0.7 - Point Cloud Data file format
VERSION 0.7
FIELDS x y z rgba
SIZE 4 4 4 4
TYPE F F F U
COUNT 1 1 1 1
WIDTH 1144
HEIGHT 1
VIEWPOINT 0 0 0 1 0 0 0
POINTS 1144
DATA ascii
0.20818374 0.546561 0.034340791 4354137
0.21227285 0.55345571 0.034036808 4354391
0.21683988 0.56052774 0.033722453 4486492
0.17332312 0.49791107 0.045116246 4156741
0.17549103 0.499277 0.044960141 4156999
0.17656109 0.50520605 0.045206249 4222282
0.17907369 0.50638318 0.045174599 4156489
0.18075958 0.50813651 0.044852316 4156487
0.18864927 0.5222199 0.038904123 3893594
0.1929891 0.52923775 0.038119785 4221273
0.1957037 0.53117782 0.038900129 4221273
0.20275666 0.54517287 0.034330897 4287826
0.20518497 0.54633594 0.034029715 4288087
0.20765188 0.55104554 0.034421615 4354132
0.2093308 0.55274844 0.033881538 4354133
0.14939329 0.46357787 0.053282499 3894347
0.15060438 0.46547392 0.052804708 3696973
0.15186805 0.46745241 0.052305877 3762766
0.1675512 0.49344257 0.045968711 4222281
0.16896583 0.49561799 0.045189977 4222282
0.17145059 0.49659386 0.045251727 4222280
0.17426628 0.50411415 0.045165181 4222284
0.17811987 0.51109064 0.040257335 3826271
0.18227756 0.5196684 0.040066659 4023648
0.18437575 0.52053094 0.039661884 3957855
0.1864737 0.52139366 0.039257042 3762008
0.18735819 0.52657872 0.038487367 4089945
0.18953359 0.52740502 0.038134329 4155738
0.19515911 0.53794414 0.034043901 4287057
0.19773161 0.53895909 0.034001999 4287314
0.19769941 0.54318202 0.034311168 4287828
0.20008931 0.54406846 0.034258954 4156754
0.1302193 0.44094259 0.056383021 3961932
0.13148302 0.4429211 0.055884428 4356434
0.13881147 0.45563573 0.054634161 3892567
0.14190587 0.45684719 0.054047711 3761238
0.14352259 0.46285325 0.051893361 3565899
0.14473367 0.46474931 0.05141551 3696968
0.14856069 0.4700512 0.049422145 4025926
0.15028173 0.47176117 0.049016893 4025926
0.15176341 0.47382471 0.048445642 4091719
0.15420389 0.47685835 0.048858881 4089433
0.15637937 0.47768465 0.048506021 4089433
0.15703881 0.48273426 0.04759115 4219742
0.15899205 0.48789912 0.046562254 4156487
0.16074511 0.48924565 0.046240151 4222278
0.16403204 0.49139863 0.046026528 4222280
0.17305668 0.50430608 0.041898727 4220508
0.1738463 0.50940174 0.041015029 4286301
0.17602174 0.51022804 0.04066205 3957336
0.18132645 0.51801085 0.038299441 3958114
0.18638915 0.52880138 0.034742884 4221010
0.18857479 0.52999818 0.034441642 4221010
0.19161531 0.53601921 0.03451144 4287056
0.19547154 0.5419783 0.034477644 4353106
0.12726641 0.44045451 0.055626221 4157502
0.13015436 0.44611818 0.055094846 4286812
0.13323994 0.44741437 0.054580934 3959645
0.13610858 0.45368111 0.05382634 4023896
0.14150006 0.46015909 0.051479705 3958360
0.14113475 0.46346614 0.050679751 4026186
0.14343907 0.46551821 0.050222583 3958863
0.14548072 0.46775612 0.049516387 4025163
0.15373817 0.48033273 0.047265828 4089679
0.15449545 0.48311695 0.047477067 4089934
0.15649608 0.48580274 0.046117246 4155218
0.15886125 0.48695466 0.044649541 3957086
0.16086233 0.49335641 0.042873263 4023384
0.1657989 0.50012016 0.041309595 4351319
0.16767621 0.50562888 0.040249407 4089177
0.17174821 0.50853908 0.041419864 4286301
0.1766921 0.51683927 0.037548304 4089178
0.18139304 0.52532172 0.035708845 4089427
0.18436554 0.52728736 0.035158396 4155217
0.18584681 0.53321046 0.034979336 4155730
0.18774043 0.53467852 0.034532838 4155729
0.12306738 0.43811372 0.055430241 4091449
0.12433115 0.44009212 0.054931648 4091966
0.12742554 0.44427416 0.054338582 4352601
0.13036671 0.4501715 0.053185053 4025940
0.13254714 0.45133057 0.052961536 4157269
0.13212883 0.45470297 0.052768119 4092237
0.13529809 0.45675054 0.052559741 4026188
0.13763992 0.45996392 0.051510997 3960394
0.13833252 0.46183559 0.050825782 3697991
0.13901907 0.46440694 0.050254233 3762258
0.14127323 0.4656519 0.050077327 3826257
0.14468613 0.47133619 0.048069961 3958348
0.14672244 0.47670296 0.046608932 4023894
0.14877066 0.47809878 0.047230303 4024153
0.15665382 0.49169049 0.043646634 4285792
0.16062108 0.49740869 0.041253746 4154709
0.16270103 0.49888337 0.041787267 4089430
0.16557807 0.50476623 0.040654123 4154970
0.17316523 0.51548183 0.036460042 4154959
0.17546844 0.52227807 0.036052465 4154964
0.17764692 0.52371937 0.035740793 4154964
0.12376359 0.44520873 0.052616961 4224591
0.12680423 0.44737035 0.052294381 4093261
0.12929563 0.45418546 0.052197941 4092492
0.14475141 0.47527099 0.046039172 3958857
0.15493678 0.49312565 0.039695263 4154960
0.16352397 0.50570363 0.037242174 4220754
0.16567445 0.50694364 0.037023902 4286290
0.16653675 0.51315773 0.036429942 4286290
0.16908132 0.51397139 0.03648138 4220498
0.11568402 0.43836781 0.05312819 2973754
0.11835512 0.43920267 0.053584047 3762228
0.1204574 0.44469926 0.052083023 4222539
0.13295567 0.46481681 0.045898803 3893076
0.13584591 0.46812066 0.044673629 3958613
0.14225574 0.47837242 0.042874999 4089683
0.14442702 0.47976342 0.042345591 4023891
0.14718285 0.48744538 0.041304946 4154962
0.14936849 0.48864216 0.041003704 4154706
0.15143427 0.49016321 0.040723026 4154962
0.1525715 0.49212056 0.039820015 4220497
0.15660235 0.50111914 0.038571656 4220500
0.15941997 0.50315768 0.037917376 4220755
0.16084935 0.50484377 0.037159681 4220754
0.16404149 0.51210642 0.036523759 4286289
0.11218879 0.43515977 0.052237816 3103012
0.11348776 0.43709487 0.051656194 2906688
0.11436656 0.44075531 0.051561184 2643019
0.11775377 0.44296172 0.051573284 3761224
0.12166858 0.45179304 0.048403807 4091224
0.12385105 0.45266968 0.048268624 4090968
0.12603678 0.45386639 0.047967382 4025431
0.12694454 0.46040741 0.047342248 3958870
0.12993601 0.46265897 0.046770938 3827540
0.13387492 0.46668905 0.045068331 3958614
0.13567741 0.4731445 0.044686861 4089685
0.13873971 0.47501439 0.044224687 4089683
0.14013697 0.47706395 0.043383725 4089427
0.14282621 0.48456264 0.041928597 4023889
0.14514503 0.48612547 0.041492291 4155217
0.15321188 0.49881399 0.039122224 4220498
0.11258746 0.44100091 0.048989482 3236662
0.11422318 0.4435828 0.050865181 3895365
0.11914881 0.45086044 0.048425026 4156762
0.1245409 0.45912561 0.047716148 4024919
0.10745914 0.43612295 0.050329402 3037219
0.10880929 0.44139692 0.048927076 2708293
0.11122149 0.44274259 0.050512858 3566400
0.1136135 0.44869167 0.046969064 4156243
0.11629456 0.45019218 0.048165984 4222297
0.098902903 0.4311941 0.049999669 5861944
0.10079852 0.43416175 0.04925181 3956263
0.10269415 0.43712947 0.048503771 3168807
0.10789673 0.44165105 0.047381945 3104560
0.11186131 0.44645986 0.04618717 3827015
0.10457812 0.44120094 0.046811715 3169835
0.10744868 0.44673833 0.045253761 3497793
0.10000708 0.44182175 0.045390859 3497502
0.10406385 0.44581038 0.045026019 3168829
0.097227328 0.44050202 0.045142546 3694358
0.10063349 0.44470215 0.043486729 3102522
0.090509787 0.43575311 0.042967156 7569212
0.093967512 0.43765175 0.042898968 5861173
0.093282506 0.44058731 0.044147089 4415772
0.096228153 0.44310093 0.042092815 3627314
0.08563228 0.43327573 0.042916372 8817210
0.087817639 0.43476751 0.042822376 8291902
0.091086939 0.44228843 0.041481271 4743229
0.08369647 0.43180078 0.043228164 8882742
0.086818278 0.43736678 0.040254667 7962721
0.088450626 0.4417052 0.041149691 5728845
0.078597382 0.43307146 0.041122571 8947802
0.082034789 0.43408194 0.041329518 8816477
0.083203934 0.43567595 0.040509477 8751199
0.076858535 0.43153077 0.0416729 9144928
0.11359522 0.49577653 0.021484978 4480597
0.11625986 0.49790037 0.021022506 4218193
0.11892445 0.50002432 0.020560093 4349268
0.085078448 0.4637318 0.025180772 3563856
0.092417188 0.47666919 0.023396447 4087379
0.086144909 0.46963468 0.022907153 3825745
0.088025965 0.47309238 0.024067 4021586
0.089796469 0.47456479 0.023807064 3955793
0.092688374 0.48322701 0.020744041 4283988
0.094494104 0.48465598 0.020401131 4152408
0.076480612 0.46177039 0.024486855 3367256
0.079154029 0.46395719 0.024055496 3628884
0.090970568 0.48183715 0.020983115 4283988
0.072920427 0.45690453 0.023592193 3826004
0.074762829 0.46038046 0.024726167 3169877
0.066032052 0.45775709 0.022031147 4939355
0.30313241 0.61360276 0.042823352 4225118
0.30550197 0.61731237 0.041888453 4552807
0.2788147 0.58389962 0.048643984 3964518
0.27997315 0.58571327 0.048186816 4425069
0.2811842 0.58760929 0.047709025 4228196
0.28297454 0.59041214 0.047002591 4096360
0.28476486 0.59321487 0.046296217 4161903
0.28511354 0.59602642 0.047746517 4161390
0.2869302 0.59887058 0.047029771 4226676
0.28869417 0.60163206 0.046333708 4160889
0.28990528 0.60352808 0.045855917 4293733
0.29166919 0.6062898 0.045159794 4293727
0.29348585 0.60913378 0.044443049 4622430
0.29464427 0.61094737 0.043985941 4488046
0.29599747 0.61312443 0.042336263 4620132
0.29788551 0.61499655 0.040831842 4686172
0.29988986 0.61815411 0.039668955 4751190
0.30142152 0.61939049 0.039792813 4290911
0.30858269 0.63060176 0.036967129 7238986
0.30974114 0.63241535 0.03651002 8416865
0.27517474 0.5849939 0.047129489 3768172
0.2896176 0.61006641 0.041228093 4621916
0.29303536 0.61138099 0.041388251 4687194
0.29963768 0.62435502 0.036679722 5078096
0.30337378 0.62900323 0.035713114 5666370
0.30460387 0.6313324 0.034835786 6713666
0.26558471 0.57677269 0.047962889 4029278
0.26679578 0.57866883 0.047484972 4094570
0.26858607 0.58147168 0.046778597 4029288
0.27037632 0.58427441 0.046072103 4030056
0.27158743 0.58617049 0.045594312 3767916
0.28388068 0.60198981 0.040848114 4425565
0.28638974 0.60863602 0.041088738 4556382
0.30053532 0.62666595 0.035610594 5470543
0.30459282 0.63362819 0.033087522 7434813
0.2622807 0.57583338 0.047413632 3832926
0.2787295 0.59902477 0.041056909 4293723
0.28150126 0.60117871 0.040744759 4359515
0.28324974 0.60724443 0.040845729 4687456
0.29207963 0.62156969 0.036074378 4948333
0.2943826 0.62316638 0.034528472 4882791
0.29711711 0.6293577 0.03401766 4946790
0.30034161 0.63061535 0.033462264 5012582
0.25176302 0.56360018 0.049710914 3700578
0.25357962 0.56644422 0.048994228 3372641
0.25534356 0.569206 0.048298165 3242339
0.25655463 0.5711019 0.047820255 3635816
0.25776571 0.57299799 0.047342464 3570280
0.25897688 0.57489401 0.046864554 3570269
0.27247846 0.59541106 0.041198529 4293463
0.27539816 0.59729457 0.041150965 4227927
0.28682852 0.61818212 0.035075165 4817521
0.28902185 0.61992943 0.035212673 5079912
0.29111749 0.62206119 0.033901729 4948574
0.29383996 0.62801772 0.034593679 5275498
0.24469376 0.55706042 0.047961459 3765864
0.24685925 0.56271595 0.048695132 2388057
0.24807037 0.56461203 0.048217222 2782558
0.26430264 0.58624309 0.040896818 4162134
0.26686642 0.59254199 0.041101255 4227675
0.26896399 0.59399462 0.04111103 4359259
0.2721431 0.60027045 0.037489153 5013857
0.28154495 0.61396551 0.033832766 4883809
0.28370848 0.61619157 0.034671761 4817778
0.2852008 0.62159961 0.032958247 5014370
0.25841969 0.58364874 0.040721759 4096086
0.26113337 0.58419555 0.041105196 4162136
0.26423389 0.59168923 0.041153476 4293210
0.27004501 0.59940779 0.037893988 5276773
0.27735773 0.61242336 0.034140386 4620905
0.28051117 0.61423731 0.034216382 4752498
0.28080168 0.61900496 0.033654131 4883556
0.28328255 0.6202504 0.033332147 5014884
0.23737514 0.55406874 0.047143802 3896421
0.23916543 0.55687159 0.046437308 3699554
0.25248885 0.57981765 0.041293725 3964499
0.25471342 0.58070141 0.041293368 4030293
0.25638184 0.58232892 0.040908918 4096087
0.26487657 0.59602147 0.036868908 4882544
0.26965672 0.60462701 0.03403423 4555104
0.27204978 0.60583347 0.033815779 4489308
0.2717731 0.61007732 0.033829428 4621157
0.27400833 0.61088896 0.03356985 4621158
0.22518739 0.54168254 0.048932903 3633752
0.22639851 0.54357851 0.048454992 3502423
0.23245394 0.55305874 0.046065614 3632988
0.23366502 0.55495477 0.045587763 3896160
0.24244873 0.56805599 0.041859195 4094800
0.24445137 0.56941926 0.041754827 4029524
0.24686514 0.57107151 0.041432664 3963990
0.2463298 0.57553107 0.041886851 3898195
0.24763194 0.57778621 0.041139171 3898450
0.24991558 0.57939237 0.040785834 3898963
0.25414968 0.58554757 0.037433669 4554343
0.25855553 0.59219897 0.036004886 4751215
0.26450318 0.60223949 0.034844078 4817503
0.26708728 0.60393202 0.033910014 4489055
0.26993734 0.6087296 0.034177341 4555877
0.23941633 0.56625223 0.041937813 4029006
0.24450344 0.57365626 0.042333588 3963731
0.24987614 0.58385861 0.038191542 4815716
0.25197414 0.58472127 0.037786588 4620136
0.25320652 0.59003758 0.036975309 4619885
0.25530457 0.59090024 0.036570534 4883314
0.25760007 0.59660053 0.034442231 4554604
0.25983441 0.59651446 0.033747479 4489056
0.26106209 0.60298556 0.033174083 4489311
0.2171579 0.53757799 0.048395567 3698519
0.21902718 0.54050446 0.0476579 3698775
0.22084379 0.54334849 0.046941154 3765080
0.22447708 0.54903656 0.045507602 4224867
0.2256881 0.55093265 0.045029752 4817004
0.22689922 0.55282867 0.044551834 3764569
0.22813505 0.55460536 0.043182358 3896404
0.23034827 0.55629802 0.042030379 4159825
0.23365667 0.56350625 0.041954681 4225620
0.23589876 0.56451577 0.042016372 4028755
0.24357601 0.58003968 0.037394688 5012838
0.24676193 0.5813154 0.036813483 4816232
0.25382674 0.59569389 0.033073828 4423262
0.25902805 0.60139608 0.033745155 4554849
0.223915 0.55211341 0.042333238 4290894
0.22550596 0.55377722 0.041896753 4290641
0.22705398 0.55988359 0.042132542 4159567
0.2295913 0.56094199 0.042173371 4225362
0.23151667 0.56234151 0.042017385 4225618
0.23937401 0.57708335 0.036193296 4618342
0.24150135 0.57860273 0.036783561 4552551
0.24476907 0.58596265 0.033596799 4422495
0.24668658 0.58819652 0.032880291 4488034
0.24947052 0.58865654 0.033097789 4356959
0.25024784 0.59366482 0.033520564 4357468
0.20504095 0.52480906 0.047882967 3567703
0.20625201 0.52670515 0.047405176 3502166
0.20809495 0.52959037 0.04667788 3502415
0.20993793 0.53247553 0.045950763 3763811
0.21155037 0.5372656 0.046902411 3764318
0.21276146 0.53916162 0.04642462 3764318
0.21966296 0.54998523 0.042365186 4290639
0.2218772 0.55079353 0.042520396 4290638
0.23061246 0.56651646 0.037038073 4552040
0.23530199 0.57417321 0.035022721 4749162
0.23727596 0.57622075 0.036598012 4814696
0.24205919 0.58514625 0.033597156 4422238
0.19821519 0.52091593 0.047625475 3697746
0.20003188 0.5237599 0.046908729 3632220
0.20124294 0.52565593 0.046430819 3698013
0.21000679 0.53742677 0.043148629 4223823
0.21597314 0.54819566 0.042277925 4159310
0.22434154 0.56335419 0.037236385 4748398
0.22746544 0.56522238 0.037645265 4486501
0.22887769 0.57153928 0.036206052 4618087
0.23208989 0.57285625 0.035614476 4748910
0.23213084 0.57775444 0.034938201 4814696
0.23511581 0.57758337 0.033642039 4421722
0.23732945 0.57898128 0.033247456 4421982
0.23647037 0.58378041 0.033265874 4356447
0.23891282 0.58474928 0.033192798 4356447
0.20298527 0.5343492 0.042984121 4223823
0.2061706 0.53621507 0.042817406 4158286
0.20866168 0.54317784 0.042824559 3961420
0.21049507 0.54510295 0.042595558 3896135
0.21248344 0.54666048 0.042262964 4027721
0.2212179 0.56148595 0.036827676 4682342
0.22900201 0.57035422 0.034226105 4552297
0.22794652 0.57462901 0.033591554 4552542
0.23093987 0.57674575 0.033212051 4487003
0.18636805 0.51083475 0.048594356 3893839
0.18821108 0.51371998 0.047867231 4024914
0.18942219 0.515616 0.047389381 3959642
0.19068584 0.51759446 0.046890609 3894105
0.19250247 0.52043855 0.046173923 3829067
0.19904691 0.53151101 0.04340028 4158028
0.20126422 0.53263938 0.043389373 4224078
0.21386872 0.55723572 0.036233418 4288616
0.21596694 0.55809826 0.035828583 4551531
0.21806777 0.55957657 0.036429338 4617058
0.22222972 0.56758821 0.0335223 4421211
0.22437084 0.57470185 0.033000454 4421210
0.16714205 0.48752782 0.053229988 3959121
0.16895869 0.49037185 0.052513242 3893585
0.17082798 0.49329829 0.051775634 3828306
0.17941086 0.50673538 0.048389018 3959635
0.1812802 0.50966179 0.04765147 3828303
0.18896054 0.520307 0.043654196 4091462
0.19125527 0.5213989 0.043695204 4157002
0.19197994 0.52810651 0.043267004 4157258
0.19404244 0.5293076 0.043152325 4157516
0.19649521 0.5306468 0.043130986 4157772
0.20208961 0.54066426 0.038335733 4418907
0.20520207 0.54675812 0.037192158 4353627
0.20966971 0.55489492 0.036037557 4222822
0.21169327 0.55640942 0.036586337 4091751
0.21351415 0.56032223 0.033141844 4486233
0.21632241 0.56481797 0.034031622 4486488
0.21847281 0.56605816 0.033813171 4486489
0.18090415 0.51482195 0.044310093 4090696
0.18294208 0.51614177 0.044122875 4090949
0.18505731 0.5174253 0.043987453 3959880
0.18688042 0.51898015 0.043706648 4025671
0.18874405 0.52587593 0.043542735 4157513
0.19143015 0.52948886 0.039657824 4221271
0.19676696 0.53854406 0.039295845 4353118
0.19999146 0.53980166 0.038740449 4550493
0.19875306 0.54424292 0.03830301 4484199
0.20197746 0.54550058 0.037747554 4484188
0.20501217 0.55043739 0.034463339 4354135
0.20651966 0.55298543 0.035639159 4354129
0.21048291 0.55733919 0.034320168 4354648
0.21320082 0.56430221 0.033699982 4552027
0.1600602 0.48490721 0.052318633 4024147
0.16132399 0.48688561 0.05182004 3893071
0.1625351 0.48878163 0.051342189 3893071
0.16935402 0.49945712 0.048651516 3828054
0.17073323 0.50197023 0.046716452 4090955
0.17256993 0.5034737 0.04602623 4025166
0.17433891 0.50716269 0.04661566 3959629
0.1764694 0.5125652 0.044331729 4156488
0.17843689 0.51397187 0.044310331 4156489
0.18933196 0.52862626 0.040062599 4155731
0.19164595 0.5352025 0.038327865 4221277
0.19374408 0.5360651 0.037922971 4287070
0.20233744 0.54957765 0.034380786 4353878
0.20329517 0.55172777 0.036194377 4485213
0.20653589 0.55607259 0.034211807 4288853
0.13646437 0.45416716 0.056335457 3828553
0.13767546 0.45606315 0.055857606 4025932
0.13893917 0.45804161 0.055358954 3303743
0.14267772 0.46389458 0.053883739 3696710
0.14388877 0.46579066 0.053405948 3828040
0.14577574 0.4686954 0.052626915 3893836
0.14766264 0.47160017 0.051847875 3762253
0.14887375 0.47349614 0.051369965 3959379
0.15261224 0.47934917 0.04989475 3697236
0.15387604 0.48132759 0.049396098 3565392
0.15608247 0.48282307 0.049851716 4023642
0.16248304 0.49523598 0.04649657 4288071
0.16493966 0.49793991 0.045883596 4222282
0.16847274 0.50008452 0.045778871 4222282
0.17103572 0.50904971 0.044768989 4156747
0.17418571 0.51095909 0.044685066 4222281
0.18010214 0.51884204 0.040419638 4023145
0.18098645 0.52402717 0.039649844 4023645
0.18308468 0.52488977 0.039245188 3827026
0.1852601 0.52571601 0.03889215 4024662
0.18737243 0.53351355 0.03908556 4352090
0.1894705 0.5343762 0.038680725 4352090
0.19278695 0.54045349 0.035100453 4353108
0.19689295 0.54806358 0.034308843 4419412
0.19905065 0.54905903 0.034101121 4288340
0.20319243 0.55603617 0.033776276 4222803
0.13252762 0.45312321 0.055693038 4287058
0.1346257 0.45398593 0.055288263 4352850
0.13722536 0.45965075 0.054030962 4023646
0.13928831 0.46055678 0.053709038 3957853
0.14855018 0.4771044 0.048983276 4091210
0.15034607 0.47965002 0.048474014 4089935
0.1520417 0.48157373 0.049734712 4154710
0.1545513 0.4864898 0.04728359 4219484
0.15968376 0.49422002 0.045719385 4221518
0.17175663 0.51424289 0.040006936 3891549
0.17393202 0.51506919 0.039653957 3826271
0.17674813 0.52229488 0.040324688 4023654
0.17888838 0.52316457 0.040054619 4023902
0.18107224 0.52969468 0.038288772 3958866
0.18354946 0.53120929 0.03661859 4155730
0.18719813 0.53908759 0.03476923 4287059
0.19016495 0.53967613 0.034997098 4353108
0.19297433 0.54655576 0.034278445 4353623
0.12553863 0.44552866 0.056940742 4093003
0.12740798 0.44845513 0.056203134 4093005
0.12893151 0.4508203 0.05500973 4025683
0.13413092 0.4584392 0.054617472 4088920
0.1369209 0.46354479 0.051623292 3499594
0.1380533 0.46502259 0.051933773 3894089
0.13971999 0.46841934 0.050864108 4025417
0.14163578 0.47049302 0.049748428 4024652
0.14382386 0.47289479 0.049902983 4091208
0.14552727 0.47640872 0.049631663 4155728
0.1466502 0.47856045 0.048982568 4024147
0.14833112 0.47998109 0.048530817 3893076
0.15029915 0.48614413 0.047890306 4156487
0.15462966 0.49062014 0.046783805 4156487
0.15737119 0.49329725 0.045823455 4286292
0.15840387 0.49776882 0.043560743 4089430
0.16340266 0.50393987 0.041007161 4155227
0.1686095 0.51294899 0.040614128 4286560
0.17049016 0.51848298 0.039662659 3892068
0.17372002 0.51977831 0.039029658 4023400
0.18065232 0.5314182 0.034917891 4221010
0.18486811 0.53803897 0.034811191 4221526
0.12639955 0.44965196 0.054305084 3894870
0.12790243 0.45157132 0.053215452 3895885
0.12696441 0.45431754 0.054033227 4089946
0.13176975 0.46221459 0.051820941 3894603
0.13447838 0.4645054 0.051410384 3960137
0.13662528 0.46750247 0.050693519 3893073
0.13760655 0.46893016 0.04994107 3826005
0.13978195 0.46975648 0.049588092 3891798
0.14038885 0.47472355 0.048693962 4286298
0.14351833 0.47603926 0.048128255 3827277
0.15098916 0.48874056 0.046945393 4156232
0.1534943 0.4904559 0.044217527 4285532
0.1581627 0.50182098 0.041941345 4023896
0.16130468 0.50307721 0.041411996 4155227
0.16341108 0.50964373 0.039594352 3760730
0.16558653 0.51047009 0.039241314 4220508
0.16865486 0.51862079 0.03652066 4220498
0.17169952 0.52051246 0.03610003 4154962
0.17635836 0.52898836 0.035572231 4154965
0.17841397 0.53013903 0.035239995 4155475
0.18190144 0.53745043 0.034583271 4287061
0.11708789 0.44076464 0.056569643 3961150
0.11829898 0.44266066 0.056091793 4092992
0.11940175 0.44506276 0.054780848 4222295
0.12170298 0.44729012 0.05348707 4157268
0.12326027 0.44930488 0.053154178 4027214
0.12486644 0.45345479 0.054438181 4089946
0.12762405 0.45936656 0.052154131 4026185
0.13012621 0.46046829 0.052278049 3960394
0.13349822 0.46724388 0.050646909 3760474
0.13826601 0.47397971 0.049026139 4352091
0.15213317 0.49460652 0.043759346 4482406
0.15921485 0.50791854 0.040403843 3891805
0.16131306 0.50878108 0.039999068 3826523
0.16159907 0.51113749 0.036596775 4286290
0.16500586 0.51816529 0.036054373 4286290
0.172178 0.52722853 0.035562813 4089425
0.11095674 0.43667832 0.055140562 3235634
0.11222056 0.43865687 0.05464191 3171381
0.1162983 0.44279581 0.05300165 4219976
0.11760126 0.44609618 0.053274937 4158794
0.11874902 0.4497644 0.053651758 4024669
0.12084706 0.45062703 0.053246923 3893600
0.13292481 0.47112903 0.045356579 3958357
0.140598 0.48365399 0.042302258 4154964
0.14742593 0.49424517 0.040503502 4220244
0.14870028 0.4960041 0.039641976 4220499
0.15113555 0.49721757 0.039558411 4220243
0.15451227 0.50640297 0.03787446 4220499
0.15726283 0.50870067 0.037116349 4220754
0.15918122 0.51004982 0.036742389 4286291
0.16178361 0.51633036 0.03649056 4286291
0.1129117 0.44556704 0.052767105 4419665
0.12077838 0.45607093 0.048681743 3959382
0.12246466 0.4575291 0.048152395 3959383
0.12704687 0.46708587 0.046665199 3892821
0.12952664 0.46951079 0.045725532 3958356
0.1317108 0.47574663 0.045198984 4023892
0.13255595 0.47797516 0.044150598 4089426
0.13569029 0.47962365 0.043714292 4023889
0.13867649 0.48198473 0.042842276 4155218
0.13983409 0.48824751 0.042227574 4154707
0.14148821 0.49006918 0.041614957 4220497
0.14395252 0.49223348 0.040805228 4220241
0.14881322 0.50275791 0.038809299 4220497
0.15219398 0.50425053 0.03886044 4220499
0.10492817 0.43570638 0.05381377 3498553
0.10619193 0.4376848 0.053315118 3235634
0.10959597 0.44399869 0.051697917 3892559
0.11540817 0.45420051 0.048827834 4090968
0.11829743 0.45482543 0.049003787 4025430
0.12102544 0.46230611 0.048056789 4024407
0.12274998 0.46404099 0.047278292 3958614
0.1244783 0.46550626 0.046883591 3958356
0.097635627 0.43275604 0.052985504 5337127
0.099531353 0.43572369 0.052237526 3694116
0.10688978 0.44300973 0.049258187 3368254
0.10570353 0.44455978 0.050957993 4026177
0.11086786 0.44850895 0.047949083 4156501
0.11212612 0.45238015 0.049170859 4090968
0.10360653 0.44251621 0.048605099 3302461
0.10680392 0.44803405 0.047316618 3958863
0.092870839 0.43376243 0.051159933 7239737
0.099756569 0.44269094 0.047723606 3236405
0.1031303 0.44769731 0.046777621 3761227
0.096005753 0.44209558 0.046925381 3235881
0.097225949 0.4453938 0.04529579 3299904
0.10006873 0.44701928 0.046435788 3563849
0.093032017 0.44145665 0.046479896 3825439
0.093996353 0.44395009 0.043896571 3364919
0.088531919 0.43783599 0.044293538 7043636
0.089939497 0.44010913 0.044847265 5401894
0.090083301 0.44396695 0.043191448 3955510
0.081985943 0.43373123 0.044627145 9014333
0.084769897 0.43612054 0.044076458 8423232
0.086729564 0.44356024 0.042704299 5072195
0.076696828 0.43155441 0.044244543 9408313
0.079585835 0.4324744 0.044627681 9342774
0.082960799 0.43986413 0.04110904 7962722
0.085008636 0.44170237 0.042041495 6648407
0.078452513 0.4373742 0.041462794 9013601
0.080722526 0.43858483 0.041431203 8619617
0.073430896 0.43475038 0.041909769 9407842
0.075117111 0.43620858 0.041380361 9210975
0.076529235 0.46598333 0.027367726 5730154
0.078247055 0.46737322 0.027128592 5532518
0.078499295 0.47186229 0.022957996 3628624
0.081141189 0.47397012 0.022614792 3824716
0.08294481 0.47746432 0.023722664 3758926
0.071399488 0.46614221 0.024142701 4611170
0.073169962 0.46761462 0.023882642 4152916
0.075808391 0.46969718 0.02343078 3759184
0.065183535 0.45906785 0.023637909 6910332
0.066529818 0.46119556 0.024181385 6452090
0.068291575 0.46260503 0.023890335 5333610
0.069628969 0.46466997 0.024402637 4808549
0.27915674 0.59349352 0.047146298 3964777
0.28036785 0.59538943 0.046668388 3964781
0.28174466 0.59862834 0.046884753 4030315
0.28317401 0.60194951 0.047080316 4161386
0.28438514 0.6038456 0.046602406 4095858
0.28912416 0.61126482 0.044732489 3896415
0.29030007 0.61320424 0.044337489 4094051
0.29469025 0.61781204 0.041017093 4684145
0.29590133 0.61970812 0.040539242 4420973
0.2731474 0.59087795 0.046566881 4030313
0.27435845 0.59277409 0.046088912 4622450
0.27556953 0.59467006 0.045611061 4030570
0.28853652 0.61534518 0.04114262 4686168
0.29002547 0.61716413 0.040581919 4882520
0.29473633 0.6246767 0.038048305 5338464
0.28050494 0.60617644 0.040721752 4622176
0.28460133 0.61282688 0.041392662 4555099
0.28601283 0.61468226 0.040779985 4620888
0.28992334 0.62088287 0.03871379 5144408
0.29817924 0.63433909 0.034093 7565370
0.26416996 0.58528954 0.046403512 4028781
0.26538107 0.58718556 0.045925602 3766884
0.26653954 0.58899915 0.045468606 4030056
0.26835617 0.59184325 0.044751801 4030313
0.27479592 0.60186577 0.041397728 4359516
0.27655548 0.60385239 0.040743627 4490335
0.27851963 0.60493904 0.040888108 4490847
0.27821982 0.60960937 0.041331984 4687199
0.28106731 0.61156696 0.041154779 4621147
0.28670445 0.619367 0.037055291 5145204
0.29072189 0.62396419 0.037561215 5340245
0.29088551 0.62682539 0.035530902 5143651
0.29221392 0.62966669 0.035090663 6059851
0.2939353 0.63118011 0.034868754 6124630
0.29517689 0.63423622 0.033776797 6516556
0.29665864 0.63615251 0.033584155 6712617
0.25393045 0.57595354 0.047423884 3504219
0.25572082 0.57875627 0.046717569 3372376
0.25756377 0.58164161 0.045990333 3701340
0.25935411 0.5844444 0.045283839 3898205
0.26056516 0.58634037 0.044805989 4028781
0.26860431 0.59853232 0.041357733 4359001
0.27139059 0.600492 0.041273989 4293464
0.28625411 0.62503213 0.036010541 5275760
0.26225919 0.59052712 0.041164443 4293209
0.26647863 0.59717339 0.041648604 4227671
0.28100291 0.62164456 0.035011329 5013618
0.2839756 0.62702632 0.032613553 5144158
0.2401813 0.56062895 0.047555491 3896668
0.24139245 0.56252497 0.047077581 3699812
0.24260354 0.564421 0.046599731 3700069
0.24845476 0.57584709 0.045878872 3241308
0.25789857 0.58791411 0.041404113 4293205
0.26006341 0.58895987 0.041414067 4227671
0.26091802 0.59571362 0.041016802 4227160
0.26367012 0.59653711 0.04115127 4161623
0.26635271 0.60368931 0.037342347 4619881
0.2684508 0.60455203 0.036937632 4685674
0.27078828 0.61040735 0.036011972 4490086
0.27402681 0.61176556 0.035409905 4686960
0.27518499 0.61743796 0.03389857 4686954
0.27819523 0.61937952 0.033949591 5080940
0.28529546 0.62911224 0.031720854 5275227
0.2858828 0.63245332 0.030101635 5471836
0.23406646 0.55784869 0.0470175 3764825
0.23527758 0.55974466 0.046539649 3699289
0.23608387 0.56213969 0.047015533 3765084
0.2368902 0.5645346 0.047491476 3699549
0.23870677 0.5673787 0.046774551 3962459
0.24052335 0.57022274 0.046057805 3634263
0.2417345 0.57211876 0.045579955 3568470
0.24355111 0.57496279 0.04486315 3503710
0.25130236 0.58493149 0.041249856 4161365
0.25299558 0.58644009 0.040938243 4161366
0.25535014 0.58736998 0.040968761 4227157
0.25903815 0.59464109 0.041141734 4161623
0.26763836 0.60849792 0.035613753 4424544
0.26854393 0.60997403 0.033658244 4620639
0.27233499 0.61600858 0.034160174 4752233
0.27590501 0.62529957 0.032261707 4882271
0.2786437 0.62543261 0.032510616 5013599
0.28004414 0.62780207 0.031503655 5078879
0.28566846 0.63595688 0.028057195 5733723
0.24186395 0.57275307 0.042168066 4029267
0.24482659 0.5810349 0.041624948 3898193
0.24702245 0.58260202 0.041375384 4029779
0.24909934 0.58360887 0.04148905 4095571
0.25958687 0.60156292 0.035341963 4882030
0.26124966 0.60523015 0.035817251 4751200
0.26391572 0.60780835 0.03403262 4554846
0.26592183 0.6091966 0.033554949 4620895
0.26844126 0.61428368 0.034133412 4686690
0.21819127 0.54146117 0.049575917 3961947
0.22003417 0.54434645 0.048848741 4093534
0.22124532 0.54624254 0.04837089 3765581
0.22306186 0.54908651 0.047654144 3567958
0.22487848 0.55193061 0.046937279 3567713
0.22608957 0.55382663 0.046459422 3567952
0.22730067 0.55572259 0.045981511 3633744
0.22911733 0.55856663 0.045264706 3633239
0.23505706 0.56944078 0.042096958 4094543
0.23753136 0.57034129 0.042314336 4094800
0.23946713 0.57181627 0.042002663 4094802
0.24231401 0.57985771 0.041656777 3766861
0.24889776 0.58839196 0.037816033 5078881
0.25099584 0.58925468 0.037411258 4947295
0.25367513 0.59608799 0.035697088 4489073
0.25585064 0.59691417 0.035344228 4554866
0.25549826 0.60120648 0.034154817 4751216
0.26112458 0.60729796 0.033597276 4620379
0.26509076 0.61419702 0.033480085 4555360
0.23074909 0.56691027 0.042315766 3962960
0.23221335 0.56884795 0.041682407 4029009
0.23930241 0.57835078 0.038152501 4421224
0.24263285 0.5845297 0.036936387 5077866
0.24473101 0.5853923 0.036531672 4749923
0.25308907 0.6003294 0.034435257 4554599
0.25526127 0.60632914 0.033182964 4489056
0.25807005 0.60667038 0.033473119 4554844
0.21258381 0.54114866 0.048082761 3830106
0.22413284 0.55932719 0.041666083 4093774
0.22611031 0.56496376 0.042088673 4094030
0.22874652 0.56554681 0.042420253 4094031
0.23934674 0.5832743 0.037585005 4684136
0.24095072 0.58963501 0.036083683 4684391
0.24304885 0.59049761 0.035678968 4815977
0.2460244 0.59292996 0.033137307 4357213
0.24642143 0.59668362 0.034597561 4423018
0.24806526 0.59828204 0.033554778 4620391
0.25050044 0.59964287 0.033092663 4423006
0.20227626 0.52953911 0.04761117 3830094
0.2046985 0.5333311 0.046655409 3830855
0.20613661 0.53671539 0.046882026 3960930
0.20765157 0.53946465 0.046548955 3763806
0.21602394 0.55375969 0.042342715 4224847
0.21849808 0.5546602 0.042559974 4225103
0.22035652 0.55617148 0.042196445 4159310
0.22194755 0.55783534 0.04176008 4093774
0.22396705 0.56347901 0.042317383 4028234
0.23306428 0.57943368 0.036746904 4683883
0.24214275 0.5912441 0.033215687 4422494
0.24573895 0.59711128 0.033601925 4291422
0.20628311 0.54148215 0.043063812 4158286
0.20988964 0.54935431 0.04300832 4159055
0.21202961 0.55051893 0.042945556 4224592
0.2139013 0.55272079 0.042467527 4225104
0.2221427 0.56310213 0.038605385 4485481
0.2256532 0.57028162 0.036761448 4814693
0.22785719 0.5760656 0.035695955 4814188
0.22991426 0.57752419 0.036348507 4748907
0.23335204 0.58358461 0.032768294 4421981
0.233693 0.58723032 0.03365837 4290653
0.23537509 0.58925325 0.032952294 4290655
0.23771557 0.59037721 0.032754824 4422238
0.19350952 0.52428043 0.047364645 3894359
0.19477329 0.52625895 0.046866052 4026201
0.19618505 0.52960187 0.04710298 3829088
0.19764946 0.53302741 0.047319166 3697748
0.19886056 0.53492343 0.046841256 3960920
0.20070356 0.53780866 0.04611408 3961678
0.201961 0.53914571 0.043054514 4224078
0.20425574 0.54023767 0.043095522 4223821
0.20386469 0.54454911 0.04380893 4026958
0.20684001 0.54727739 0.043403439 4027467
0.21815509 0.56733507 0.038074486 4353639
0.22137964 0.56859267 0.037519149 4748391
0.22460106 0.57472903 0.036339387 4551524
0.22856589 0.58117169 0.033204898 4421978
0.23106122 0.582223 0.03311114 4421978
0.1804706 0.51065969 0.049558997 3894095
0.18233985 0.51358628 0.04882133 3959371
0.18355089 0.51548231 0.04834348 3959121
0.18539394 0.51836753 0.047616363 3893844
0.18723685 0.52125281 0.046889119 3828824
0.18844795 0.52314883 0.046411268 3829325
0.18971169 0.52512735 0.045912676 3829325
0.19720072 0.53543431 0.043699138 4223821
0.1999231 0.53782582 0.043241791 4289618
0.2140305 0.56434244 0.036924832 4617323
0.21612872 0.56520504 0.036520176 4419944
0.22164679 0.57407951 0.032772593 4355415
0.2244707 0.58032304 0.032935604 4421470
0.18584573 0.52370101 0.043932669 4223048
0.18937895 0.53104484 0.044001989 4026186
0.19181411 0.53225845 0.043918304 4026442
0.19355263 0.5340941 0.04357522 4026442
0.20773043 0.56052339 0.036128156 4157289
0.20982857 0.56138605 0.035723381 4617063
0.21192956 0.5628643 0.036324196 4485737
0.21444277 0.57057899 0.033354931 4223573
0.2168853 0.57154781 0.033281855 4289624
0.21927118 0.57299888 0.033053152 4420955
0.22103083 0.57825541 0.033340983 4224089
0.16298923 0.49175799 0.052751064 3828306
0.16420029 0.49365407 0.052273214 3828306
0.1654641 0.49563244 0.051774561 3762507
0.16667509 0.49752849 0.051296592 3762507
0.16793884 0.49950701 0.050797939 3827796
0.17162482 0.50527745 0.049343586 3893833
0.17349407 0.50820398 0.048606098 3959881
0.17531067 0.51104802 0.047889233 3960148
0.1805416 0.52052659 0.044125855 4091210
0.18306197 0.522946 0.043507874 4091723
0.18711613 0.52958953 0.04404401 4157513
0.19665495 0.54338026 0.038707666 4681578
0.20010921 0.55045211 0.036775641 4418907
0.2035284 0.55756718 0.034926645 4223072
0.20555493 0.55969721 0.036481075 4091496
0.2078305 0.56243175 0.033846013 4420442
0.20970254 0.56433856 0.033160739 4486231
0.21203534 0.56956685 0.033344857 4223573
0.14307919 0.46678853 0.055313416 3893833
0.14494854 0.46971503 0.054575808 3959626
0.14681779 0.4726415 0.05383826 3828040
0.15717126 0.49111572 0.051341116 3958864
0.15838231 0.49301186 0.050863147 4024657
0.16585945 0.50471771 0.047912955 3893589
0.16707054 0.50661379 0.047435105 3893833
0.17657164 0.51953864 0.043862104 4156746
0.1839029 0.52930427 0.043432355 4157514
0.18930586 0.53912997 0.038113467 4417891
0.19580936 0.54872191 0.037543885 4549987
0.19913796 0.5532527 0.034596793 4157012
0.20067784 0.5556379 0.03512799 4222812
0.20064409 0.559057 0.034490518 4288853
0.20414747 0.56084013 0.034079961 4354649
0.20928308 0.56903833 0.033417813 4223577
0.1532691 0.48705342 0.049398601 4089175
0.16471811 0.50510573 0.045356572 4222282
0.16763575 0.50741881 0.044842362 4288075
0.17174822 0.51552194 0.044579327 4157001
0.17454094 0.51797426 0.044059634 4157002
0.18844798 0.54453093 0.036913268 4156769
0.1906234 0.54535729 0.03656029 4288355
0.19538811 0.55177283 0.034623496 4222550
0.1984161 0.55785334 0.034656934 4223063
0.12973136 0.45435798 0.056874521 3828814
0.13098943 0.45674083 0.055800207 3827538
0.13283807 0.45922169 0.055648692 3696967
0.134681 0.46210694 0.054921515 3631170
0.13594475 0.46408543 0.054422863 3763013
0.13720848 0.46606392 0.053924151 4090701
0.13841957 0.46795988 0.05344636 3959115
0.14468567 0.47776982 0.05097384 3893838
0.14845537 0.48058039 0.050983071 4285526
0.14792357 0.48496637 0.050673246 4023635
0.15005806 0.48648643 0.050321877 4089426
0.15256421 0.49236965 0.049453139 3762003
0.1575561 0.50012469 0.045706272 4222535
0.15949886 0.50165015 0.045612276 4222282
0.16163155 0.50305945 0.045539021 4222027
0.16798775 0.51411396 0.04438293 4288075
0.17037654 0.51974326 0.041487336 4220256
0.17351842 0.52099955 0.040957928 4088930
0.17470072 0.52714306 0.039451361 4023641
0.17788646 0.5284189 0.038870037 3892821
0.17985857 0.53401715 0.037923872 4221271
0.1820094 0.53496218 0.037498355 4287064
0.1860296 0.5440321 0.034580342 4353108
0.18881994 0.54513216 0.034465663 4353110
0.18900239 0.54912019 0.034868293 4419417
0.1904808 0.55086386 0.034463041 4419160
0.12679815 0.4554953 0.055878587 3892054
0.12893844 0.45636499 0.055608578 3892054
0.13172854 0.4631058 0.053567894 4220257
0.13486518 0.46432441 0.05311615 4351336
0.14023991 0.47602728 0.05060149 4417371
0.14233795 0.47688991 0.050196595 4154453
0.14302222 0.48182064 0.049354322 4482648
0.14670224 0.48457888 0.047725022 4156488
0.1512299 0.49077111 0.046467602 4351068
0.15159562 0.49593222 0.045972705 4286546
0.15447585 0.49775374 0.045458376 4221263
0.16223782 0.51039737 0.041776657 3892059
0.16730088 0.51718199 0.040135145 4285538
0.16827846 0.51888067 0.041891992 4285022
0.17768309 0.53319085 0.038276792 4221273
0.17800173 0.53459418 0.03550756 4286803
0.18018739 0.53579092 0.035206318 4287057
0.18214782 0.54071206 0.036116481 4221024
0.18235698 0.54251593 0.034658849 4221524
0.12128057 0.44959402 0.056503482 3763790
0.12198602 0.45200434 0.055341013 3631451
0.12370355 0.4542838 0.056464978 3892827
0.12653582 0.46103173 0.05455894 4023645
0.12858142 0.46181184 0.054175086 4088920
0.13125116 0.46768498 0.052959092 4088407
0.13329652 0.46846521 0.052575059 3826009
0.13406987 0.47225443 0.049835749 3826005
0.13568707 0.47410718 0.049974926 4024143
0.13838196 0.47585535 0.050264545 4221266
0.14001594 0.47857067 0.049055167 4090954
0.14093286 0.48102048 0.048825927 4221007
0.1431776 0.48343536 0.047811992 3893836
0.14506358 0.4867292 0.047050126 3828303
0.14632733 0.48870766 0.046551466 3893835
0.14636466 0.49179918 0.047120273 4222026
0.14925131 0.49426049 0.045791924 4351574
0.15377009 0.50135469 0.044601262 4023636
0.15703946 0.50709212 0.040756822 3957598
0.15796421 0.50870842 0.042534411 4023138
0.16204046 0.51446927 0.040105343 4220762
0.1640764 0.51592433 0.040690541 4549725
0.17022055 0.52455801 0.036611199 4220753
0.17391931 0.53324378 0.03544575 4221013
0.17886388 0.54080826 0.03491354 4221525
0.11284885 0.44318652 0.056879587 3699528
0.11670355 0.44898424 0.05403585 4090462
0.11758624 0.45059344 0.055678613 3827296
0.11994494 0.45273969 0.053567417 4026954
0.12166601 0.45444962 0.053162284 4026698
0.12330969 0.45619589 0.052705117 4092234
0.12488241 0.45861846 0.051864155 4091976
0.12530158 0.46312535 0.05275888 3959880
0.12787446 0.46562725 0.052120097 4025418
0.12930343 0.46760845 0.051569648 4025417
0.13058397 0.47030237 0.050583251 4091208
0.13225105 0.47162223 0.050178297 3958608
0.15284333 0.50536686 0.041566432 3957843
0.15494131 0.50622958 0.041161597 4089429
0.15858619 0.51437658 0.036999643 4352081
0.16491371 0.5225504 0.036373734 4286291
0.16648728 0.52408832 0.03587532 4286290
0.16768348 0.53033322 0.035768688 4155218
0.17010131 0.53142077 0.035623074 4155219
0.11144243 0.4468618 0.054902621 4222304
0.11460543 0.44812158 0.054440506 4156252
0.11612832 0.45122415 0.053282984 4027213
0.12185602 0.46146214 0.052588589 4025670
0.13761005 0.48677415 0.042777784 4220500
0.14691961 0.5012899 0.039255857 4220241
0.15477298 0.51303357 0.0369277 4220498
0.15755486 0.51912254 0.036852181 4286548
0.15952589 0.52055424 0.036457598 4286292
0.16167635 0.52179432 0.036239207 4286548
0.10366097 0.43726835 0.056799367 3762495
0.10492466 0.4392468 0.056300834 3500869
0.10951083 0.44482124 0.053462155 4483418
0.1099537 0.44845873 0.053133793 4224586
0.11245598 0.4495604 0.05325783 4158793
0.11781399 0.46025181 0.048612483 3958870
0.12363343 0.47011125 0.047130235 3958098
0.12576237 0.47179013 0.046673305 4023635
0.12836561 0.47391587 0.045821972 4023636
0.13126457 0.48262909 0.043941088 4154706
0.13453057 0.48448354 0.043452807 4220498
0.14122145 0.49676016 0.040533371 4220244
0.14465088 0.49875233 0.040283628 4220244
0.14869218 0.50782645 0.038879454 4220499
0.14975932 0.50957549 0.037935078 4286036
0.1520223 0.51073587 0.037685812 4286292
0.15484515 0.51830608 0.036852717 4286545
0.096368432 0.43431801 0.055971101 4418357
0.098264076 0.43728569 0.055223182 3629619
0.10710998 0.44786581 0.052719302 4290124
0.11277214 0.45688725 0.049438424 3959384
0.11492258 0.45812738 0.049220093 4024919
0.11656281 0.46341309 0.049321301 3958613
0.11923543 0.46618965 0.04834009 3892563
0.12182771 0.46868235 0.047473021 3958098
0.12738222 0.47989872 0.044927366 4154706
0.12932537 0.48112902 0.044626243 4220497
0.13710691 0.49413896 0.041364022 4154450
0.1387614 0.49566549 0.04054416 4154452
0.14531463 0.50665379 0.038662314 4220497
0.1026523 0.44395724 0.050460592 3697472
0.10360889 0.44728714 0.052138939 4355656
0.10533582 0.45022577 0.04892309 4222038
0.10742915 0.45224369 0.049720474 4156504
0.10843599 0.45445043 0.049957938 4090711
0.11040698 0.45588201 0.049563356 3959384
0.098260634 0.44438654 0.049216047 3631422
0.10179611 0.44937056 0.048591509 4156498
0.08983022 0.43323532 0.050506964 7766082
0.095188841 0.44333819 0.048822358 3499319
0.096446708 0.44765097 0.048426285 3892816
0.09882243 0.44873157 0.048145965 4090447
0.086824767 0.43266457 0.049771026 8685351
0.091768205 0.44304308 0.048127785 3695408
0.093794495 0.44546634 0.046031967 3431492
0.08200717 0.43358874 0.047966257 9145902
0.086743884 0.43980283 0.045640662 6649141
0.08897087 0.44189259 0.04802461 4549169
0.090489954 0.44511706 0.045897499 3497278
0.084479161 0.44041222 0.046169177 6978109
0.086411893 0.44483629 0.045036808 4153919
0.078290984 0.43710321 0.044791535 9145414
0.081472188 0.43775186 0.045320109 8882756
0.081577189 0.44177493 0.042777672 7634014
0.083916672 0.44378501 0.045130566 5269836
0.075711504 0.43603781 0.044615701 9605183
0.077487729 0.44052169 0.042601839 8750946
0.072185576 0.43557793 0.043962672 9671227
0.072952345 0.43872768 0.042519823 9473637
0.068285838 0.43272045 0.041993812 9604710
0.069458246 0.43463504 0.042454377 9670990
0.070981413 0.43729606 0.042914465 9670502
0.06518168 0.43233046 0.041724287 9604456
0.067353465 0.43699124 0.042136922 9801829
0.075645432 0.46733761 0.029057398 7304042
0.077451155 0.46876648 0.028714433 7369834
0.092974439 0.49271423 0.021569204 4481364
0.077615574 0.47321656 0.024647608 4153429
0.080345169 0.47536352 0.024200752 3824210
0.082582876 0.48079678 0.023513809 4217938
0.084388629 0.48222575 0.023171023 4217927
0.08615914 0.4836981 0.022911027 4349770
0.086969644 0.48716223 0.021623686 4349524
0.089845367 0.48917356 0.021249369 4086866
0.091203898 0.49124193 0.021829203 4283988
0.070515826 0.46749654 0.025832374 7370597
0.075897634 0.47182673 0.024886683 4745566
0.068797886 0.46610665 0.026071448 7502182
0.27479506 0.59562463 0.047435619 4424038
0.27650863 0.59906232 0.047288992 4227169
0.27797085 0.60172909 0.046976604 4161632
0.27877712 0.60412413 0.047452547 4291688
0.28056738 0.60692698 0.046746053 4094827
0.28316733 0.60873199 0.044132091 3898736
0.28437847 0.61062795 0.043654241 4095336
0.28558949 0.61252391 0.04317639 3700835
0.28917009 0.61812961 0.041763462 4552812
0.26818717 0.59374583 0.046337284 3832934
0.26899344 0.59614086 0.046813227 3373410
0.27020457 0.59803683 0.046335377 3702632
0.27159005 0.60133862 0.046582676 4095841
0.27938312 0.61353916 0.043507732 4029295
0.28059423 0.61543512 0.043029942 4618090
0.26096663 0.58923435 0.046235666 3832421
0.26217774 0.59113038 0.045757815 3504475
0.27368298 0.60750782 0.041229285 4555874
0.27595297 0.60871863 0.041197516 4556128
0.27806818 0.6171307 0.040467836 4620377
0.2800535 0.61836803 0.04030142 4554327
0.28157729 0.62207305 0.038889386 4618835
0.28625894 0.62892938 0.036324896 4617063
0.2880756 0.63177341 0.03560809 5271638
0.2898922 0.63461751 0.034891345 6321228
0.29110324 0.63651347 0.034413494 7434042
0.26953706 0.60465991 0.041562356 4425051
0.27139527 0.60617125 0.041198589 4425055
0.27460128 0.61382973 0.041205503 4555356
0.27608302 0.6158933 0.040634371 4686170
0.28302938 0.62377459 0.036565758 4882285
0.28210881 0.62694097 0.036688901 4945998
0.25067285 0.58158511 0.046591744 3700819
0.25188392 0.58348113 0.046113893 3634514
0.25367427 0.58628386 0.045407519 3832145
0.25551715 0.58916914 0.044680402 3897934
0.25672829 0.59106523 0.044202492 3832421
0.26036146 0.59675324 0.042768762 3636318
0.2615726 0.59864932 0.042290971 4030056
0.26282123 0.60170662 0.041221485 4096343
0.26603994 0.60351664 0.041158356 4359256
0.27450132 0.61904693 0.036142804 4489837
0.27667671 0.61987323 0.035789885 5145958
0.28266224 0.63122708 0.034560956 5272657
0.28746831 0.63615835 0.033418156 7434298
0.24698026 0.58259684 0.045098051 3700820
0.25618041 0.59216577 0.04164581 4095827
0.25918552 0.60030699 0.041133985 3964501
0.26542699 0.60830528 0.036946215 4619627
0.27037668 0.61605424 0.034993269 4686960
0.27269232 0.62086123 0.033943571 4948578
0.27495855 0.62234157 0.033528067 4816994
0.27517733 0.62510699 0.034947552 4489065
0.27727544 0.62596953 0.034542777 4684906
0.28401247 0.63590676 0.032806374 6779198
0.24681818 0.5864774 0.042275712 3963988
0.24946332 0.5889051 0.041766629 3964244
0.25252724 0.59078783 0.041599855 3964241
0.25562397 0.59855109 0.041264459 4030036
0.26327616 0.60736024 0.03737174 4685420
0.26492405 0.61388785 0.035922207 4555374
0.26814854 0.61514544 0.03536693 4555374
0.26944748 0.62064463 0.034005977 4752234
0.21918942 0.54538774 0.050839238 4159316
0.22040051 0.54728377 0.050361387 3896138
0.22223464 0.55010605 0.049603097 3567956
0.22406888 0.55292845 0.048844747 3502433
0.22528 0.55482447 0.048366837 3765325
0.22649109 0.5567205 0.047889099 3896911
0.22830763 0.55956459 0.047172293 3371097
0.23012435 0.56240851 0.046455428 3305814
0.23091295 0.56482536 0.046972737 3437400
0.23239502 0.56822902 0.047147498 3568733
0.23421173 0.571073 0.046430692 3700572
0.237845 0.57676113 0.044997141 3766100
0.23875293 0.57766008 0.043404981 3766102
0.24022214 0.57978314 0.042797312 3766103
0.24147817 0.5824492 0.04356347 3765856
0.24342847 0.58521676 0.042400762 3831897
0.25480071 0.60271496 0.036928043 4685431
0.25799525 0.60405368 0.036377773 4488040
0.26164681 0.61254787 0.036498353 4621169
0.26256353 0.61350912 0.033490762 4620640
0.26488587 0.61866188 0.033830501 4883300
0.2670027 0.62010562 0.034094371 4752237
0.23601764 0.57576972 0.042208061 3963218
0.23938498 0.58370048 0.041779324 3832144
0.24148978 0.58490855 0.041799471 3963730
0.2505987 0.59975868 0.035726532 4685935
0.25744486 0.6095916 0.035296842 4619627
0.25989938 0.61272472 0.033252701 4620640
0.26244342 0.61769307 0.033903584 4686435
0.27230421 0.63291442 0.030246414 4815193
0.27356049 0.635432 0.028980292 5142617
0.21479301 0.54697126 0.048868291 4224852
0.22953805 0.57214272 0.042199358 4094548
0.23258761 0.57436711 0.04190807 4094805
0.23609588 0.58197546 0.038150653 4026978
0.24959204 0.60438526 0.034205183 4553828
0.25292814 0.60496044 0.033390924 4423007
0.25559869 0.61173147 0.033092365 4423258
0.20857289 0.54402614 0.048371844 3830360
0.2098192 0.54587871 0.047811024 3830611
0.21103022 0.54777485 0.047333114 3896660
0.22144011 0.56249613 0.042120807 3962443
0.22618209 0.57053125 0.042220876 4028497
0.23399788 0.58111274 0.038555607 4815466
0.23763488 0.5883131 0.036633894 4880997
0.23997247 0.59416837 0.035708353 4750436
0.24207059 0.59503096 0.035303578 5406827
0.24340165 0.59630746 0.034115598 4815970
0.24479195 0.60187131 0.033724114 5408109
0.24768782 0.60313624 0.033568069 4357469
0.25118172 0.61108762 0.032579347 4225885
0.21337332 0.55693573 0.042932265 4093516
0.2160396 0.55921948 0.042386822 3896651
0.21890289 0.56143767 0.042079918 3962442
0.22113296 0.56741118 0.042554133 3962697
0.22264659 0.56911135 0.04206609 4028492
0.22769766 0.57729399 0.037758753 4552297
0.2333262 0.58666754 0.037474558 4552292
0.23774427 0.59325969 0.036082014 4684643
0.23983653 0.5964554 0.032886669 4488031
0.24229114 0.6012246 0.033724472 4553569
0.24447785 0.60317099 0.032790408 4291422
0.19680463 0.5340687 0.049309544 3697493
0.19801575 0.53596479 0.048831694 3763286
0.19985877 0.53885001 0.048104517 3304530
0.20170169 0.54173523 0.04737734 3764047
0.20291278 0.54363132 0.04689955 3829840
0.20417653 0.54560971 0.046400838 3698774
0.20814186 0.55324477 0.043426387 4159056
0.21131068 0.55573463 0.043046825 4028237
0.22132322 0.57412684 0.037915818 4748655
0.22342415 0.57560503 0.038516574 4748646
0.22588563 0.58235312 0.036875114 4290671
0.22814898 0.58321846 0.036418363 4749416
