# .PCD v0.7 - Point Cloud Data file format
VERSION 0.7
FIELDS x y z rgba
SIZE 4 4 4 4
TYPE F F F U
COUNT 1 1 1 1
WIDTH 1159
HEIGHT 1
VIEWPOINT 0 0 0 1 0 0 0
POINTS 1159
DATA ascii
1.9743657 0.61351049 0.081945792 9018057
1.9774855 0.61822295 0.080941088 8754626
1.9348104 0.55201769 0.078126468 11516899
1.9370763 0.55625927 0.077566043 10794461
1.9382861 0.55721867 0.079206787 10925272
1.9416012 0.56134033 0.078644104 10464471
1.9456211 0.56908286 0.07816305 9742559
1.9454635 0.57082707 0.078414381 10990547
1.9474757 0.57369739 0.078119025 10070234
1.9497035 0.57678717 0.077749953 9414104
1.9499688 0.57803625 0.079392664 10004952
1.9524721 0.5825423 0.078617036 9413577
1.9535451 0.58307451 0.079110116 10069972
1.9560766 0.58734983 0.079650044 9741003
1.9573709 0.58886117 0.079317257 9872326
1.9583805 0.59119982 0.079392105 9412294
1.9603187 0.59526813 0.07891719 9411264
1.9608964 0.59644145 0.080229566 10069711
1.9631166 0.59976977 0.079193093 9609669
1.9650309 0.60258269 0.078439914 9149121
1.9662124 0.60426408 0.079706408 10069954
1.9680462 0.60753834 0.079141803 9346754
1.9693577 0.6080209 0.079460867 9740228
1.9708898 0.61212945 0.07920555 9412293
1.9732056 0.61451703 0.078430653 8294591
1.9740474 0.61687744 0.078554124 9872074
1.9762276 0.61999768 0.07915432 9543363
1.9789422 0.62560785 0.078369312 9412042
1.9810705 0.62535071 0.079259872 8426439
1.9168141 0.52857733 0.076368824 11779293
1.9185632 0.53208125 0.076306842 12042468
1.9220438 0.53716105 0.077313937 11713509
1.9228588 0.54083127 0.077321962 11713252
1.9257547 0.54027426 0.077213794 11976165
1.9275088 0.54371613 0.077185795 11450333
1.9287519 0.54812032 0.076627553 11187159
1.9316498 0.55197304 0.077400535 11122139
1.9322476 0.55418867 0.076414876 12173526
1.9340367 0.55678779 0.077643245 10202072
1.9355762 0.55961788 0.077563457 10727638
1.9376092 0.56216162 0.077284716 10398931
1.9400736 0.56416416 0.077087082 10398420
1.9418937 0.56821185 0.076679558 9872842
1.942053 0.56862307 0.076717533 10135756
1.9439795 0.57226151 0.077501349 10136021
1.9456196 0.57537264 0.076727815 10003910
1.9466567 0.57694679 0.07750164 9807571
1.9483669 0.5799948 0.077449948 10004172
1.9506984 0.58285052 0.077508055 9938124
1.9510697 0.58405632 0.078410491 9675198
1.9534569 0.58781171 0.077978104 10003914
1.9548795 0.59157395 0.076375321 8164806
1.9599893 0.59464675 0.077394865 8361156
1.9619626 0.59983498 0.077640995 8754881
1.9642429 0.60318524 0.076709032 8295616
1.9636838 0.60435325 0.075971983 9413577
1.9664277 0.60790944 0.076939031 8820673
1.9677864 0.611283 0.077383094 8689342
1.970232 0.6147663 0.076448083 8491965
1.9723698 0.61923623 0.077276327 8754879
1.9744751 0.62055057 0.077779211 9280448
1.9770296 0.62314415 0.077159554 7900347
1.9769235 0.62618893 0.077316284 9411524
1.9802212 0.63031811 0.077176541 9148356
1.9822819 0.63353461 0.076900408 8689611
1.9841276 0.63827246 0.076811954 8689608
1.9878099 0.64316684 0.076546632 8952006
1.9926845 0.65096843 0.075754829 7042238
1.9952728 0.6566596 0.077192992 5200777
1.9074845 0.51717728 0.073915131 11646391
1.9091187 0.52063459 0.073785447 11843511
1.9146131 0.52782035 0.07487151 11713244
1.9163672 0.53120321 0.074736275 11581658
1.9166633 0.53184396 0.075269431 11844301
1.9183201 0.5352478 0.074842997 11976141
1.9202126 0.53756487 0.074564569 11910349
1.9221245 0.54328197 0.07541275 12370900
1.9244438 0.54631352 0.074190229 10595531
1.9257675 0.54718155 0.075011589 11318742
1.9277455 0.55091691 0.07545945 11253461
1.9297304 0.55315614 0.074462935 11384259
1.9308921 0.55592752 0.075409032 11252939
1.9328396 0.5580312 0.07557755 10529472
1.9346504 0.56084329 0.074852712 9280443
1.9358453 0.56304419 0.075297251 9083840
1.9369419 0.56516141 0.07699956 9938119
1.9392813 0.56835616 0.075372651 9544135
1.9410827 0.57247669 0.07675381 10004439
1.9435904 0.57627261 0.074761368 10135241
1.9455465 0.57868886 0.075143218 9084094
1.9466674 0.58036745 0.075727552 9740226
1.9484282 0.58327377 0.073990822 9018567
1.9508246 0.58690685 0.074511036 8164037
1.9528449 0.59153765 0.075133979 9019077
1.9563447 0.59631032 0.07526166 9609673
1.9591303 0.60028958 0.075056136 9412037
1.9613829 0.60452193 0.075533785 8821185
1.9618187 0.60550708 0.075986356 9479114
1.9647751 0.60902786 0.07570716 9741512
1.9667 0.61213082 0.076728374 8032443
1.9668254 0.61316842 0.07543508 9872326
1.968873 0.61736894 0.075199641 9872324
1.9722551 0.62150997 0.075838037 9477059
1.9738117 0.62401587 0.075975597 8031420
1.9757924 0.62708265 0.075968184 8820416
1.9803452 0.63496429 0.074339636 8491708
1.9815593 0.63827151 0.075247265 9345987
1.9825306 0.63866919 0.074726857 8755137
1.9847963 0.64302874 0.074381009 8820677
1.9858061 0.64528745 0.075912006 8820419
1.9880843 0.6473459 0.075132169 9148867
1.990979 0.65233582 0.07515461 9345219
1.9934719 0.65526164 0.074914947 7438505
1.9936242 0.65679538 0.075694256 9015999
1.8873539 0.48870686 0.071707502 12502750
1.8898602 0.49264544 0.072619222 12436701
1.8919305 0.49628401 0.072902888 12239064
1.8951046 0.50025755 0.072165132 12238555
1.8968061 0.50355542 0.072030023 12107483
1.8986638 0.50569981 0.072716549 12239323
1.899676 0.50795543 0.073433749 12567769
1.9014302 0.51133841 0.073298506 12568288
1.9028699 0.51379824 0.072707802 12041149
1.9039466 0.51536661 0.072607562 12502493
1.9059964 0.51841956 0.072786324 11844293
1.9078585 0.5219425 0.073110111 11646919
1.9084349 0.52282047 0.072930753 12567758
1.9103807 0.52566224 0.073387131 12238796
1.9119999 0.52884603 0.072997876 11712181
1.9137491 0.53142661 0.073211223 11910347
1.9142585 0.53438663 0.072887413 12765390
1.9166162 0.53535849 0.073086321 11515588
1.918401 0.53864419 0.0731133 11449782
1.9198068 0.54230094 0.072570436 10661820
1.921491 0.54280847 0.073419906 11647167
1.9229505 0.5462364 0.073053673 10858425
1.9239717 0.5506025 0.073156804 10660788
1.9261374 0.55120271 0.073272355 11055297
1.9274364 0.55390805 0.073563933 10792898
1.9296281 0.55733287 0.073025636 10726586
1.9304852 0.55809784 0.074143767 9675202
1.9323587 0.56187731 0.073976822 9609666
1.9355505 0.56777853 0.072108179 9937606
1.9368627 0.56885046 0.073570743 8492226
1.9396563 0.57190371 0.073323324 9018308
1.9421867 0.57519835 0.073160358 8690115
1.9409361 0.57636404 0.073106982 9543876
1.9433998 0.58009273 0.073497124 8558274
1.9446505 0.58096665 0.074462526 9740485
1.9467694 0.58441758 0.0741041 9084104
1.9493099 0.58807945 0.074655466 8558277
1.9535514 0.59680057 0.073053591 9872841
1.9572202 0.60141206 0.07450521 10069448
1.9699619 0.62210417 0.074971445 9805768
1.9761004 0.63124102 0.074658222 7835065
1.9787056 0.63627297 0.074455477 8426170
1.9819671 0.64072138 0.073759392 8097212
1.9824944 0.6435498 0.073407099 8688575
1.9853848 0.64642459 0.072233073 7899326
1.9851692 0.648206 0.07344237 9149122
1.98762 0.65145177 0.073104188 8688830
1.9898109 0.65509212 0.071756229 8032186
1.9922014 0.65943342 0.071653582 8887233
1.867067 0.45915747 0.06976743 10528189
1.8673745 0.46026278 0.071240842 12304853
1.8699398 0.46337894 0.070919834 12370650
1.8715816 0.4666549 0.070680194 11910876
1.8723131 0.47014123 0.070439935 12502234
1.8741862 0.46980581 0.070441119 12502234
1.8758829 0.47310629 0.07016468 12633820
1.8778789 0.47675115 0.069955662 12370378
1.8798126 0.48043457 0.069678634 11777203
1.8817624 0.4842262 0.07011085 11777203
1.8842864 0.48851052 0.07097204 12436692
1.8861487 0.49165595 0.070955887 12238536
1.8884431 0.49355718 0.069924705 11777203
1.8893247 0.49712852 0.070600919 12304321
1.8900714 0.4983137 0.071200214 11514546
1.8921776 0.50105602 0.071599767 12041419
1.8943934 0.50408953 0.071312815 11778245
1.8961521 0.50704473 0.070562661 11449533
1.8969901 0.50835061 0.071674295 12106944
1.8990692 0.51219678 0.071554646 12304579
1.9004245 0.51495671 0.071491659 11711667
1.9017124 0.51627827 0.072676808 13028303
1.9040244 0.51940352 0.071845569 12173258
1.9055754 0.52258945 0.072362103 11975885
1.9062049 0.52348948 0.069692858 10399422
1.9087995 0.52717805 0.071068399 10661560
1.9118419 0.53176326 0.071007438 10990012
1.9134849 0.53486276 0.071365736 12173249
1.9151963 0.53747886 0.071571112 11778235
1.9162338 0.53974909 0.072641417 11449523
1.9175003 0.54249156 0.071413487 11252924
1.9190887 0.54597592 0.070825845 11450047
1.9210676 0.54751611 0.071425706 11450047
1.9227964 0.55038744 0.072201535 10069952
1.9246193 0.55317789 0.071274094 10595518
1.9270165 0.55733955 0.071627632 11252415
1.9295331 0.56044567 0.07068304 11712450
1.9310715 0.56372732 0.070836104 11844036
1.9330645 0.56778538 0.070422851 11318214
1.9350572 0.57184327 0.070009619 10397900
1.9366157 0.57235187 0.071736068 9938633
1.9384882 0.57646501 0.071587399 9543877
1.9490367 0.59277141 0.071606293 9937865
1.9510031 0.59684569 0.071300425 10003915
1.9810112 0.64454579 0.07298097 9017023
1.9841293 0.6511389 0.07105729 7768762
1.9858824 0.65152615 0.072314955 7769272
1.9885657 0.6560964 0.070968293 8754622
1.8639497 0.45939976 0.069287278 10396340
1.8676211 0.46492869 0.069294117 12370119
1.8690618 0.46780017 0.06923037 11843781
1.8699459 0.46960565 0.069589354 12567506
1.871653 0.47301632 0.068654135 12238535
1.8737847 0.47420737 0.069431014 11909311
1.8749964 0.47744605 0.069393784 11910084
1.8766698 0.48049685 0.069254935 11844291
1.8778654 0.48296154 0.069333114 12238532
1.8800375 0.48518309 0.069095552 12172739
1.8816192 0.48740029 0.069062449 12173522
1.8823557 0.48971739 0.068828925 11909820
1.8846899 0.49333116 0.069763698 12698821
1.8860362 0.49594781 0.06986317 12369341
1.8877183 0.4979642 0.069656894 12172219
1.8892038 0.50119972 0.069586806 11778495
1.891209 0.50295776 0.069624096 10857907
1.8920029 0.50526983 0.069960423 10726323
1.8940294 0.50815165 0.07012476 11055029
1.8981971 0.51550651 0.06810981 12435650
1.8998635 0.51808226 0.068480901 11581371
1.9013851 0.52053201 0.068913385 10990268
1.903843 0.52365535 0.068572558 11252665
1.9068137 0.5261687 0.068591878 11910855
1.9067607 0.52761346 0.069116943 9215925
1.9085909 0.53059703 0.069372378 10858944
1.9108561 0.53437001 0.069675706 12107462
1.9106264 0.53621733 0.069683731 10595256
1.9144084 0.5414629 0.070188478 11383993
1.9163179 0.54568839 0.068719827 12239042
1.917914 0.54893428 0.068799607 12370114
1.9251071 0.55647928 0.069410905 11515588
1.9276781 0.56147581 0.070765398 11581384
1.9292165 0.56475776 0.070918523 11515843
1.9312093 0.56881577 0.070505276 10531274
1.9332021 0.57287371 0.070091978 10595787
1.9863083 0.65672761 0.070384294 8557499
1.8588386 0.45577708 0.066582479 8355722
1.8604833 0.45868713 0.066809669 9014683
1.8621264 0.46244439 0.066459022 10068142
1.8635904 0.46240148 0.066904224 9870250
1.8652478 0.46609971 0.067061417 12040636
1.8674539 0.46922284 0.066976793 11843769
1.8685732 0.4702554 0.067171335 12238012
1.87028 0.47351125 0.067265213 11581113
1.8717164 0.4757188 0.067135751 12107456
1.8729855 0.47862807 0.0672023 12304837
1.873228 0.48038766 0.066431992 10070195
1.8761853 0.48356807 0.066960014 11581633
1.8780915 0.4869841 0.067763798 11515835
1.8792734 0.48782247 0.068919644 12633563
1.8801851 0.49081314 0.067496069 11712442
1.8831762 0.49381369 0.067736387 11976129
1.8850714 0.49693361 0.067874469 11318452
1.8867831 0.50085157 0.06714946 11581370
1.8903247 0.50361967 0.067720585 10661301
1.8932157 0.51164818 0.066575423 11976128
1.895836 0.51465368 0.06744162 11383996
1.897236 0.51747245 0.067802787 11384250
1.8979957 0.51974696 0.068198584 12238530
1.9019523 0.52509868 0.067744136 11975873
1.9050778 0.52994466 0.06688337 9346750
1.9057086 0.53096813 0.068651013 10003908
1.9076442 0.53494388 0.068096668 10069438
1.9153763 0.54603589 0.068899728 10792634
1.9210438 0.55546474 0.06889116 11975618
1.8528376 0.44992197 0.064312525 9077631
1.8531761 0.45081186 0.065438792 8815997
1.8556372 0.4540258 0.064978264 8814724
1.8571961 0.45665681 0.065290004 8618635
1.858543 0.45936778 0.065211102 8553612
1.8608992 0.46194729 0.065146148 8687260
1.8606967 0.46444452 0.065448962 10266030
1.8635479 0.46679407 0.064160019 9937078
1.8650395 0.46992949 0.064906336 11843511
1.866154 0.47106454 0.066100813 12040890
1.8686514 0.47446933 0.065721683 11712183
1.8702239 0.47777861 0.066978082 10989489
1.8718337 0.48148599 0.066570945 10464435
1.8745952 0.48515594 0.065929718 11121336
1.8771973 0.48833776 0.06567359 11844029
1.8791871 0.4926317 0.064734183 12501185
1.8793447 0.49518156 0.065521277 12632769
1.8824306 0.49770045 0.064947069 12238270
1.8852437 0.50087899 0.064654343 12895941
1.8850121 0.50225949 0.066387124 12764355
1.8876686 0.50573015 0.065692514 12567234
1.8892025 0.50895566 0.06559708 12369856
1.8907675 0.51216179 0.06553556 12238527
1.8941439 0.51660091 0.066569075 12172737
1.8427027 0.43796223 0.062134538 8160400
1.8446068 0.43988141 0.062331658 8225413
1.8452743 0.44281995 0.062648997 8289657
1.8473954 0.44580019 0.062794499 8749183
1.8491169 0.44739333 0.063138776 9341312
1.8504882 0.45040524 0.063241877 8946559
1.8523986 0.45270082 0.06336084 9077630
1.8528976 0.45497957 0.063458771 8289407
1.8554894 0.45722735 0.063786522 7829117
1.857219 0.46059439 0.062413462 8289918
1.8585477 0.46232611 0.063675888 7897485
1.8592293 0.46478128 0.063676842 9015448
1.8614976 0.46792555 0.064062238 10331573
1.8629217 0.47080755 0.0640935 11975098
1.8657298 0.47432318 0.064585887 11515060
1.8722583 0.48498333 0.064925931 12238783
1.8811027 0.49914935 0.064831071 12632769
1.8826413 0.5023129 0.064769633 12961734
1.891773 0.51665401 0.064951681 12436162
1.8406687 0.43868852 0.061900329 9344159
1.842648 0.44205561 0.061229497 8949400
1.8441211 0.44482449 0.060798284 8882832
1.8473254 0.44666502 0.061840501 8816752
1.8470517 0.44865546 0.060767733 8684935
1.8482502 0.45088339 0.060917873 8685187
1.851259 0.45375505 0.061019436 8684156
1.8522471 0.45737454 0.059121933 9603964
1.8550487 0.46140578 0.060992599 9078400
1.8408437 0.44200954 0.059515584 9937064
1.8415492 0.44564906 0.059361659 10462635
1.8442186 0.44759563 0.059189171 8950173
1.8450917 0.44997239 0.059587728 8292762
1.8458303 0.45229173 0.06037198 8489612
1.8480303 0.45492822 0.060065858 8948086
1.8497597 0.45879582 0.059197824 9407093
1.8524045 0.45986488 0.059801623 9604476
1.8526243 0.46231717 0.0605493 9143676
1.8357059 0.43997329 0.058422647 10726057
1.837937 0.44259059 0.058150478 10791847
1.8401636 0.44521052 0.057736985 10791595
1.8421031 0.44918668 0.059092943 10462634
1.9658594 0.59808123 0.084693812 9149384
1.9588988 0.59215277 0.081841514 9543888
1.9635432 0.59727746 0.083128676 9215434
1.9648151 0.6017819 0.082748316 9215429
1.9676732 0.60518777 0.082788683 9280970
1.9699391 0.6095472 0.082442805 9346761
1.9722625 0.61387122 0.082023546 8952264
1.9504597 0.58384931 0.080620728 9675736
1.9525054 0.58352417 0.080616318 9610194
1.9532964 0.58715081 0.080695137 9544661
1.9546005 0.58904874 0.080794014 10134993
1.956737 0.59231311 0.080926664 9412302
1.9597417 0.59684342 0.081078202 9938639
1.9630271 0.60100317 0.080564454 9280966
1.9649423 0.60516995 0.081535801 9346758
1.967793 0.60981584 0.081918754 9543886
1.9701593 0.61423206 0.082101345 8821450
1.9735918 0.61845767 0.081784405 8820935
1.9750599 0.62119305 0.080514103 8886970
1.9412698 0.57224602 0.078512192 10530258
1.9433987 0.57328004 0.078319006 9807840
1.9434979 0.57627612 0.078161232 10266833
1.9479233 0.57836115 0.079396971 10071005
1.9481436 0.58304578 0.079055578 9675735
1.9499161 0.58602583 0.079312928 9609412
1.9521343 0.5886901 0.079030298 10200789
1.9536678 0.59052593 0.079839684 9543621
1.9547756 0.59324986 0.079336159 9937858
1.9570098 0.59735501 0.079316646 9674697
1.9563419 0.59843469 0.079218455 9477311
1.9599379 0.60161966 0.079583526 9937609
1.9608636 0.60257655 0.080207743 9543102
1.9622583 0.6057896 0.079963282 9871557
1.9641315 0.60978508 0.079600111 10068937
1.9655643 0.61048841 0.081405342 9609162
1.9676745 0.61379558 0.079611346 9083586
1.9696215 0.61702764 0.0779984 8097464
1.9722602 0.6219815 0.078677543 9477569
1.9743702 0.62502778 0.079054639 8755384
1.9757532 0.62691522 0.078902997 9017538
1.916863 0.53689533 0.075891055 11713248
1.9191167 0.53773725 0.07738819 11778781
1.9208132 0.54115617 0.077326447 11646944
1.9282318 0.55549753 0.076433867 11713234
1.9296408 0.55717522 0.077267952 10070227
1.9323002 0.56174219 0.077266671 9675476
1.934086 0.56442952 0.077223144 9544140
1.9352437 0.56679952 0.076840729 9609401
1.9374915 0.56987816 0.077514507 9675466
1.939284 0.57165062 0.077718332 9872837
1.9405175 0.57435697 0.078082949 9609671
1.9414716 0.57764733 0.078079052 9806800
1.9431434 0.5793463 0.077542596 9740999
1.9453371 0.58209914 0.077801362 9741007
1.9471946 0.58483553 0.077299975 9806536
1.9478118 0.58783549 0.077956274 9806535
1.9496586 0.5884555 0.077198461 10596056
1.9521941 0.5931195 0.077415511 9610191
1.954468 0.59741616 0.077492796 9477831
1.9577227 0.60239846 0.077007733 9477825
1.9598434 0.60661173 0.076074265 10135498
1.9598039 0.60687274 0.077141978 8229823
1.9624898 0.6101498 0.076973423 8558017
1.9647822 0.61378926 0.077862903 8886207
1.9654112 0.61504668 0.078243405 8557752
1.9670002 0.61947197 0.077673897 8885952
1.9701836 0.62271571 0.077617571 9411783
1.9720424 0.62623072 0.077829398 8951743
1.9736185 0.62792021 0.077461042 9608901
1.9755774 0.63186306 0.077553853 9740487
1.97682 0.63326973 0.077503793 8820157
1.9779077 0.63518292 0.077221096 9017794
1.980365 0.63871878 0.076746732 8097724
1.9809239 0.63978446 0.07727921 9412296
1.983496 0.64466012 0.076650001 9083584
1.9884151 0.65172827 0.07584247 9280709
1.990811 0.65683186 0.07646203 9280961
1.9930507 0.65768254 0.077535234 8556470
1.9074178 0.52568519 0.073798761 12502495
1.9111574 0.53191799 0.074878253 11910353
1.9147164 0.53539932 0.074660607 12436685
1.9147635 0.53672296 0.075073786 11910879
1.9172627 0.54026246 0.07500495 11844561
1.9187647 0.54335892 0.073687471 12239054
1.9192665 0.54410988 0.075713553 11844572
1.9214226 0.54826313 0.075155154 11318231
1.9225812 0.55170071 0.075206257 11252695
1.9242713 0.55147827 0.075144984 10924755
1.9254924 0.55581778 0.074668787 10990281
1.9267503 0.55688423 0.076227449 11187674
1.929026 0.56009018 0.075328261 10200765
1.9318168 0.56331968 0.075190537 9412287
1.93197 0.56459183 0.076979034 10069179
1.9340611 0.5677653 0.076120794 10003650
1.9353502 0.5698474 0.075233087 9280976
1.9366823 0.5720228 0.075831823 10003924
1.9408075 0.57781792 0.074884899 9871809
1.9420215 0.58235824 0.074577905 8689091
1.9432324 0.5826695 0.075923137 9674943
1.9447151 0.58574754 0.074269682 9149380
1.9478478 0.58933705 0.074799679 8492739
1.9463333 0.59050965 0.074944161 8689347
1.9495528 0.59388918 0.075962543 8821447
1.952144 0.59843922 0.075425424 9215686
1.9555552 0.60307121 0.075701959 9543619
1.9580493 0.60685927 0.075950682 8886713
1.9609662 0.61126727 0.075843275 10200776
1.9629874 0.61542535 0.075607918 9806533
1.9650375 0.61956578 0.075335912 9806276
1.9686798 0.62419409 0.076894894 9477834
1.9722949 0.62948215 0.076203078 8426171
1.9771308 0.63748258 0.074602671 8360631
1.9813678 0.64538866 0.076664902 8951998
1.9826844 0.64727694 0.075347915 9017540
1.9861585 0.64983177 0.075811118 9279938
1.9861917 0.65216345 0.075925812 9543883
1.9871403 0.65410441 0.07586059 9674696
1.989488 0.65723789 0.075700611 9675470
1.8819004 0.49078992 0.073488183 12568282
1.8845575 0.49402592 0.07324899 11910617
1.8873955 0.49350441 0.073214099 12304858
1.8881006 0.49700746 0.073081188 12107993
1.889318 0.50125074 0.072308347 11385053
1.8903428 0.50238031 0.072154164 11910091
1.8916409 0.50569415 0.072988316 12173269
1.894177 0.50855446 0.073064372 12502494
1.8958718 0.50925016 0.07280837 11975880
1.8977523 0.51257497 0.07318677 12634075
1.8997253 0.51615542 0.072741352 12634082
1.9002594 0.51768672 0.072800122 12370381
1.9017526 0.52028042 0.072628975 12041672
1.9033842 0.52329874 0.072473124 11384530
1.9055972 0.52522403 0.073886506 12108508
1.906806 0.52808511 0.073073119 11383741
1.9091097 0.53128159 0.073283792 12041930
1.9094284 0.53249615 0.073827244 12238786
1.9119309 0.53610253 0.073989585 12371155
1.9131405 0.53860378 0.071449742 12764870
1.9143009 0.54039818 0.073756918 12041675
1.9158105 0.54436356 0.073735587 12502221
1.9177877 0.54541266 0.073052362 11252148
1.9198527 0.54856449 0.073138118 10792374
1.9215587 0.55209523 0.072983824 10332599
1.9240445 0.55592757 0.073363379 10135490
1.9267517 0.55950516 0.073541835 10398404
1.9269394 0.56076235 0.074279241 8951733
1.9290211 0.56370652 0.073593855 8360373
1.9313754 0.56801283 0.074093148 8624064
1.9332489 0.57179236 0.073926173 8952513
1.9368435 0.57779694 0.072187401 8295874
1.9379183 0.57833916 0.073347069 9543621
1.9404585 0.58226526 0.07349661 9412292
1.9406171 0.5835799 0.074648835 8688834
1.9426684 0.58724934 0.074403062 9412294
1.9498074 0.59894097 0.07322102 10201290
1.9531928 0.60349232 0.074751742 9478086
1.9757471 0.63898575 0.07496129 9018043
1.9776164 0.6425336 0.075108528 8557501
1.9793302 0.64491922 0.073021121 8031673
1.983066 0.64868331 0.072850175 8886205
1.9818347 0.64979774 0.07270088 8623298
1.9852393 0.65345359 0.073116831 9346495
1.9857503 0.65454996 0.07400541 9740735
1.9873263 0.65839434 0.072823644 8623807
1.8626091 0.46056446 0.070616998 11383498
1.8634787 0.46455455 0.071124732 12435922
1.8653514 0.46421912 0.071125932 12436184
1.8660228 0.46774256 0.07088834 12173527
1.8685722 0.47080973 0.070578784 12239066
1.8702116 0.47414616 0.070375696 11647440
1.8721269 0.47731164 0.070337012 11449790
1.8739223 0.48055178 0.070303783 11186095
1.8792266 0.48691383 0.071097352 11645874
1.8790185 0.489081 0.07119333 12172748
1.8812718 0.48999983 0.07133577 12106951
1.8824377 0.49362823 0.070482075 11777203
1.8840144 0.49700308 0.070211172 11777203
1.8851051 0.49856412 0.071124554 13027276
1.8874342 0.50129795 0.071417436 11712193
1.8885819 0.5038684 0.071378917 11581120
1.8908805 0.50642115 0.071449928 11449792
1.8928353 0.50997007 0.071273424 12106946
1.8951766 0.51378167 0.071263514 11975613
1.8969541 0.51705706 0.071634859 12107464
1.8992494 0.52026981 0.071563087 12107467
1.8992614 0.52226084 0.070964321 11120820
1.9012088 0.52437884 0.071700439 10989501
1.9033498 0.52719802 0.070815891 10002876
1.9051934 0.52911508 0.071091682 10266552
1.9061048 0.5322175 0.071940549 11317948
1.9082224 0.53588229 0.0698644 11186881
1.9093488 0.53613091 0.072944909 12896719
1.9128025 0.54163629 0.072156541 11580339
1.916079 0.54763335 0.071295246 10661304
1.9184923 0.54987282 0.070567355 12172996
1.9188285 0.55248851 0.071644485 9938621
1.9220136 0.55721951 0.070909098 10661311
1.924924 0.56306243 0.070959486 11186370
1.9265201 0.56630856 0.071039252 10660540
1.933833 0.57389742 0.07185968 10726603
1.9355485 0.57848054 0.071925841 9872323
1.9383917 0.58307266 0.072874151 10595275
1.9403268 0.58716643 0.0725343 10266312
1.9452374 0.5948869 0.071810469 10266826
1.9482127 0.59851354 0.071426593 10266826
1.9803927 0.64880544 0.070961118 9345984
1.9824408 0.65451598 0.071238428 8886206
1.9845008 0.65796381 0.070539817 8886205
1.9851317 0.65892839 0.072200194 8295091
1.8594251 0.45941484 0.068402082 9672621
1.8596957 0.46054319 0.069971576 10725575
1.8622714 0.463653 0.069661923 12633812
1.8632669 0.46726912 0.068884462 13290701
1.8657185 0.47010314 0.06867978 13159115
1.8666964 0.47290793 0.068488851 12041155
1.8680621 0.47390631 0.069075383 12173778
1.8699628 0.47735551 0.069186538 11645881
1.8709511 0.47827515 0.070713699 11448495
1.8728863 0.48170152 0.069700427 11581383
1.8750119 0.48449185 0.069476359 11843775
1.8766092 0.48779568 0.069256477 11975360
1.877671 0.48928627 0.070487931 12436443
1.8791928 0.49167457 0.069020376 11909820
1.8812779 0.49504974 0.069557935 12962252
1.8827914 0.49831721 0.069357872 12435391
1.8855332 0.50041395 0.070013694 11776947
1.8862406 0.50271958 0.069444709 11844541
1.8865234 0.50415236 0.070194043 10858934
1.8891671 0.50757319 0.070194736 11317939
1.8904467 0.51101524 0.070406914 11449268
1.8932673 0.51538354 0.069334917 11185839
1.8946596 0.51757783 0.068268999 11910335
1.8969545 0.52048081 0.069167711 11581631
1.898613 0.52332616 0.069662191 10792632
1.8991175 0.52434802 0.070514128 12107209
1.9016109 0.52789956 0.069696829 9674673
1.9030436 0.5312078 0.069913022 9148842
1.9038534 0.5319984 0.068733446 10661824
1.9054298 0.53611982 0.06927897 10529979
1.9080436 0.53752077 0.069265194 10594998
1.9092082 0.53997594 0.069698013 11712445
1.9110692 0.54385072 0.069338702 11778751
1.9136779 0.54773408 0.069290519 11121342
1.9154443 0.55099291 0.069736347 11975873
1.9177263 0.55552012 0.070206918 11646912
1.9196039 0.55953175 0.069725856 11647170
1.9228827 0.56285298 0.069184341 11515329
1.9284505 0.57040507 0.070558071 8754352
1.9303856 0.57449889 0.070218168 9477560
1.9797791 0.65306306 0.069082722 9345984
1.9825125 0.65860444 0.069345422 9740225
1.8548099 0.45638815 0.066659153 9472401
1.855368 0.45851189 0.066504419 8750995
1.8574939 0.46037224 0.066893369 8948889
1.858575 0.46417245 0.067319617 11975877
1.8602439 0.46490389 0.067348324 11580083
1.8616213 0.46722642 0.067134596 12501186
1.863633 0.47131282 0.067358084 12171962
1.8650098 0.47283238 0.06719961 12237754
1.8664792 0.47583267 0.066925064 11647160
1.8681839 0.47796351 0.067486681 12107197
1.8694687 0.48015165 0.067488037 12107713
1.8716735 0.48429006 0.066984408 11778757
1.8726852 0.4854289 0.067632683 11778494
1.8748752 0.48913029 0.067412347 11581116
1.8759128 0.49137083 0.068429165 11515583
1.8780266 0.49288449 0.067785673 11186874
1.8789822 0.49476227 0.067825161 12765644
1.8793911 0.49997652 0.067169137 10857908
1.8825153 0.5025112 0.066617601 11516091
1.8839595 0.50279444 0.067069747 12172990
1.8847022 0.50662661 0.066941924 11450811
1.8865501 0.50989431 0.067685887 11777979
1.8871421 0.51140928 0.06741219 12961734
1.8886807 0.51457286 0.067350812 12567748
1.8923299 0.51737165 0.067423418 11909820
1.8929245 0.51853383 0.068345889 12041921
1.8947408 0.52096707 0.068314008 11186872
1.898114 0.5272575 0.067419857 12370371
1.9005848 0.52966994 0.068798482 11384768
1.9021184 0.53295428 0.068810262 10727617
1.9039338 0.53700441 0.068261296 10793153
1.9117664 0.54826951 0.068922959 12370631
1.9801931 0.65915614 0.06847883 9608387
1.8469385 0.44867229 0.064439856 9406336
1.8490098 0.45086026 0.064660095 9011327
1.8503313 0.45402965 0.065051861 9142655
1.852445 0.45675677 0.065067746 8749190
1.8532617 0.45877534 0.065707691 8487050
1.8561021 0.46252632 0.066451192 8292512
1.8560715 0.46354219 0.064773545 7569289
1.858291 0.46599054 0.064710714 10857398
1.8597631 0.46990126 0.064913601 12566978
1.8620183 0.47246492 0.064981528 11909560
1.862659 0.47340325 0.066299029 12764355
1.8645642 0.47659129 0.06559895 11843767
1.8667297 0.48005572 0.065299876 12698562
1.8701361 0.48657191 0.065570511 12435648
1.8729123 0.49081263 0.065865688 12435392
1.8752658 0.4934133 0.065765947 11910082
1.8767421 0.49661544 0.06563662 11975874
1.8785264 0.50062585 0.064946324 12369859
1.8812125 0.50280619 0.065676473 11515323
1.8814795 0.50421023 0.06647297 12501703
1.8842201 0.50774628 0.065812215 12699079
1.8856987 0.51094741 0.065753534 12896455
1.8905537 0.51858687 0.066728346 12633028
1.838606 0.44006622 0.062360365 10331050
1.8391509 0.44208264 0.063371658 9476266
1.8415803 0.44469547 0.063552588 9080728
1.8445723 0.44754922 0.064285532 8421506
1.845057 0.44945171 0.062784538 8816784
1.8475037 0.45267215 0.063392378 8880767
1.8481869 0.45475981 0.064562611 8157562
1.8503436 0.45733619 0.06388402 7960955
1.853458 0.46368644 0.062989011 8487561
1.8550875 0.46362057 0.064029776 7633561
1.8561748 0.46682918 0.064408951 10660011
1.8575854 0.47010994 0.063599207 11843513
1.8599055 0.4724578 0.063914418 11514806
1.8620461 0.47742447 0.063991383 12764355
1.8791614 0.50434852 0.064855374 12435392
1.8373022 0.44084269 0.062012367 10002857
1.8391622 0.4437477 0.061103601 10134445
1.8402948 0.44599706 0.061498135 10133932
1.8421166 0.44929779 0.060616072 10396077
1.8429813 0.45002872 0.06145028 9672605
1.8450564 0.4534111 0.061845083 8684939
1.8486319 0.46061334 0.060898468 9209975
1.8511759 0.46374357 0.061439317 8552317
1.8346841 0.44154888 0.060256585 10397352
1.8355098 0.44397449 0.058223531 11054517
1.838164 0.44721407 0.059240505 10660270
1.8396733 0.45063114 0.059202742 10988720
1.8412607 0.45106253 0.060785178 10462635
1.8426391 0.45397252 0.060653456 9869990
1.8447065 0.45680833 0.060214043 10000538
1.8463761 0.46071303 0.059348773 9077897
1.849207 0.46431407 0.060702927 8553076
1.8324184 0.44177237 0.058638871 11054516
1.8337748 0.4449307 0.058300521 11120567
1.83603 0.44759181 0.057957474 10988721
1.9548652 0.59288496 0.081991501 9544141
1.9583952 0.59822857 0.083249629 9544653
1.9596673 0.60273284 0.082869262 9609931
1.9617707 0.60237211 0.082791477 9610439
1.9624413 0.60613155 0.082983062 8952262
1.9658428 0.61031777 0.082524858 8952265
1.9681087 0.61467755 0.082178995 8755656
1.970437 0.61899865 0.081901073 8820678
1.9490609 0.58777267 0.080649279 9609933
1.9525977 0.59264022 0.081213929 9609680
1.9549588 0.59782392 0.081358425 9609682
1.9592866 0.60378754 0.080284193 9608895
1.9610932 0.60737377 0.080363393 9608640
1.9636455 0.61097103 0.082045384 9346251
1.9660066 0.61556548 0.081523962 9149643
1.9703816 0.62255758 0.079848737 9280459
1.9355267 0.57097769 0.078362636 9674950
1.937255 0.57402414 0.078575619 9938641
1.9393942 0.57803261 0.079300389 9938632
1.9412576 0.58201414 0.078913651 9609145
1.9429659 0.58325118 0.079516932 9741263
1.9465744 0.58763313 0.079568453 9609679
1.9483634 0.59219819 0.078305081 9346749
1.9498218 0.5928508 0.079896085 9675466
1.9517702 0.59647262 0.079953648 9674955
1.9523903 0.59882218 0.079465173 10331344
1.9540291 0.60113072 0.079967618 9477836
1.9568228 0.60342914 0.079475671 9872073
1.9578197 0.60649782 0.08007928 9806283
1.9594584 0.6086207 0.080513321 9345471
1.9604503 0.61149472 0.080299631 9937607
1.9618487 0.61431175 0.078526095 8491709
1.9641228 0.61796302 0.079758435 7965620
1.9659637 0.61929137 0.078377679 9280450
1.9680641 0.62351799 0.078034781 9214659
1.9711419 0.62694609 0.078940786 9017280
1.9908611 0.65903741 0.077741325 10068686
1.914636 0.54109555 0.075905703 11647459
1.9248198 0.55725545 0.076299638 11057108
1.9260556 0.55825746 0.07794033 10005462
1.9272557 0.56162864 0.076762088 10531033
1.9288481 0.56381816 0.076503076 9740743
1.9301637 0.56590599 0.077324696 9937870
1.932727 0.56965029 0.07694526 9872329
1.9337991 0.5718112 0.078436866 9674950
1.9352688 0.57478291 0.078550987 9609675
1.9375194 0.57738787 0.077959478 9412539
1.9385337 0.57881808 0.078059025 9872595
1.9397479 0.58329898 0.077644765 9872857
1.9419577 0.58352041 0.078388445 9741273
1.9440619 0.58666754 0.078484572 9674950
1.9447608 0.58901906 0.078931041 9609144
1.9478092 0.59442216 0.077942185 10135756
1.9501535 0.59896988 0.078587987 10266319
1.9543988 0.60480809 0.077260479 9543874
1.9556153 0.60767126 0.077103816 9543626
1.957522 0.60875535 0.077290632 8230078
1.9594818 0.61259925 0.077228099 8558531
1.9596864 0.61423844 0.078632846 7835065
1.9620374 0.61689937 0.078569688 8294586
1.9639685 0.62073147 0.078048036 9280450
1.9663758 0.62479776 0.077786066 9345989
1.9690468 0.62745684 0.077771083 8885951
1.9702142 0.63057518 0.077485435 9477569
1.9714233 0.63170826 0.077065639 8557755
1.9732866 0.63498551 0.077567436 8820158
1.9734912 0.63750452 0.07752078 9149124
1.9769149 0.64017731 0.077103294 8623038
1.979182 0.64615315 0.076753326 8951745
1.9813474 0.65034032 0.076549023 9412556
1.9840885 0.65252382 0.076003566 9478346
1.9863491 0.65700436 0.075731032 9019080
1.9878933 0.65824604 0.076929517 9675212
1.8838102 0.49525496 0.074854717 11779035
1.8946208 0.51255327 0.073551193 12371432
1.9034992 0.52634555 0.073801883 10464726
1.9065418 0.53304946 0.075102761 12305117
1.9079957 0.53332561 0.07495299 11910346
1.9102751 0.53697103 0.074557461 12437207
1.9121199 0.54070967 0.074319996 12568534
1.9127057 0.54146683 0.075977847 11911395
1.9153028 0.54521 0.075750478 12042203
1.9160345 0.54728234 0.07371369 10923441
1.9174047 0.54931808 0.075228386 11450327
1.9190655 0.55267107 0.07527256 11450070
1.9209788 0.55457342 0.074997187 10923956
1.9224987 0.55732584 0.075176172 10398663
1.9236319 0.56053716 0.075671747 9806274
1.925478 0.56260848 0.075124837 8885685
1.926827 0.56583083 0.07512407 8492220
1.9285922 0.56832677 0.076315776 10068928
1.9304982 0.57003993 0.075888433 9675207
1.9336077 0.57310182 0.075885333 10398163
1.936291 0.58002281 0.073664337 8885954
1.9391025 0.5847525 0.074793257 8754626
1.9409785 0.58841228 0.074482389 9478085
1.943664 0.59180754 0.074528389 9017538
1.9455773 0.59474158 0.075759053 8558017
1.9491212 0.60060394 0.075752974 8821188
1.9514768 0.60461313 0.07483124 10266055
1.9522442 0.60566938 0.07641793 9215425
1.9542493 0.60966176 0.076250784 8952001
1.9571354 0.61340237 0.076013602 9937864
1.9591256 0.61758012 0.075744182 9740740
1.961147 0.62173784 0.075508818 9872318
1.9644738 0.62585443 0.07618399 9806280
1.9672385 0.63131714 0.076373354 9543370
1.968909 0.63345915 0.07664156 7901110
1.9745613 0.63924897 0.074581802 7769524
1.97329 0.64091825 0.075152196 8952000
1.9759189 0.6438188 0.075190403 8820417
1.977734 0.64657891 0.076633342 9149382
1.9818649 0.65295911 0.076086812 9741015
1.9827974 0.65561545 0.076000594 10069195
1.9841756 0.65664268 0.074948058 9609417
1.9861414 0.65989494 0.074838497 9674949
1.8779416 0.49041492 0.072057404 12633563
1.8800888 0.4917337 0.072965942 12172487
1.8811551 0.49497581 0.073947929 12502235
1.8814328 0.49825209 0.073294275 12634335
1.8833612 0.49905583 0.071829684 11842740
1.8860121 0.50282598 0.072414763 12041938
1.8873465 0.50594068 0.073102333 11844572
1.8887252 0.50655752 0.073067725 12173269
1.8900911 0.50965291 0.073789172 12502242
1.8917828 0.51307434 0.073586114 12107745
1.8936831 0.5157181 0.072087117 11383473
1.894899 0.51708376 0.072921745 12370658
1.8966007 0.52038181 0.072786681 11844314
1.8992888 0.52365726 0.072688766 10398932
1.8999835 0.52601111 0.073017366 10201284
1.9015689 0.52671677 0.073874071 10136533
1.9026803 0.53061438 0.073186651 11384010
1.9052422 0.53322917 0.073097788 12172742
1.9066716 0.53610259 0.073624104 12173516
1.9077321 0.53756469 0.074607335 12108504
1.9094453 0.54089361 0.073939443 12107464
1.9109802 0.5439409 0.073005438 11120562
1.9127671 0.54542363 0.073823139 12173003
1.9140266 0.5480535 0.073053069 10988979
1.9163712 0.5513463 0.07340344 10529717
1.9177517 0.55450863 0.072627887 9479103
1.9190369 0.55565572 0.073986642 11055549
1.9204431 0.55874383 0.073267743 9608896
1.923218 0.56130004 0.073884189 10332100
1.9228925 0.56314808 0.073907211 8886204
1.9258257 0.56721365 0.074547529 8097978
1.9277278 0.57097548 0.074343935 8755135
1.9310164 0.57552242 0.071985915 10529479
1.9338666 0.58022708 0.072476134 8689601
1.9339485 0.58139324 0.073651716 9280707
1.9368156 0.58447981 0.073355362 9083588
1.9376405 0.58601022 0.0749375 8689090
1.9391522 0.59060001 0.074090794 9346245
1.9414446 0.59365159 0.074744865 9017536
1.944943 0.5964241 0.07368996 10332618
1.9472773 0.60109574 0.07426773 10266825
1.9733607 0.64398795 0.073369287 7835318
1.9743366 0.6451509 0.075340211 8820417
1.9784951 0.65245211 0.072935313 8951745
1.9814894 0.6562435 0.072554015 9411521
1.9824084 0.65720612 0.074169211 9740480
1.8578852 0.46084031 0.070038289 10791618
1.8602893 0.46476334 0.070740722 12765141
1.862311 0.46839297 0.070990533 12173781
1.8665283 0.47477853 0.070441172 11976151
1.8681675 0.47811505 0.070238113 11844314
1.8694365 0.47944769 0.070858121 11514288
1.8713548 0.48304236 0.070839293 11646665
1.8729525 0.48640481 0.070591055 11712456
1.8758645 0.49035808 0.071078934 11712451
1.8780943 0.49354208 0.071659781 12041155
1.8807104 0.49975389 0.070835546 12567234
1.8820589 0.49986145 0.071570605 12304062
1.8841412 0.50325346 0.071757123 12238531
1.8857365 0.50652331 0.071858555 11975106
1.8873941 0.50978917 0.071193628 11711410
1.8890899 0.51115084 0.07165812 12502218
1.8900954 0.5138213 0.07146363 11975098
1.8923312 0.51635867 0.072074197 12107467
1.8935647 0.51896572 0.071499288 11844286
1.8950893 0.52131516 0.071688004 12173526
1.8964609 0.52375877 0.071346976 11712443
1.8976215 0.52612746 0.071501136 11186617
1.9001257 0.52966362 0.071131386 10857663
1.9011904 0.53106469 0.072272509 10922922
1.9028243 0.53452176 0.07214272 11252146
1.9048613 0.53737718 0.071987741 11976141
1.9059206 0.53918731 0.069439612 10989753
1.9073734 0.54205179 0.069729157 10726841
1.9086119 0.54622674 0.071254089 11909824
1.9106039 0.5472874 0.071349032 10529977
1.9128847 0.54928553 0.070532545 11318719
1.9137164 0.55171239 0.071807489 10202047
1.9158711 0.55655056 0.070289291 11384257
1.9188702 0.55881417 0.072496526 9807038
1.9221126 0.56456661 0.071012408 11120578
1.9237034 0.5679335 0.071165457 10791875
1.9256965 0.57199174 0.070752159 8950965
1.9315746 0.58035046 0.071635738 10923461
1.9324098 0.58136386 0.072547108 8624321
1.9375104 0.58879203 0.072660536 10332361
1.9414333 0.59706461 0.071980648 10200776
1.9760704 0.65187252 0.071425386 8229050
1.9785475 0.65669054 0.071930423 8426429
1.9823239 0.66125071 0.070358187 8295613
1.8541075 0.46017674 0.068277419 9408408
1.8557369 0.4601683 0.068540797 10198703
1.8569306 0.46401632 0.068964124 12041160
1.8582249 0.46692038 0.069348194 12238275
1.8595483 0.46866947 0.069614604 12896720
1.8613745 0.47108555 0.068668164 12435134
1.8636302 0.47457018 0.068718493 12633808
1.8644346 0.47642592 0.0696944 12304851
1.8662319 0.47924036 0.069093779 12040636
1.8678355 0.48175901 0.069629878 11778242
1.8694278 0.48403776 0.069974147 11910089
1.8708588 0.48659128 0.069444537 11515584
1.8732951 0.4897294 0.06979464 11778496
1.874184 0.49211749 0.06874945 10924222
1.8761456 0.49575323 0.067904428 12633811
1.877663 0.49666014 0.070017338 12501187
1.8792351 0.49988112 0.069908679 12633286
1.8818355 0.50419098 0.069668576 11383738
1.886731 0.51143086 0.06905406 11318713
1.8883773 0.51468527 0.069509633 11252406
1.8909764 0.51821035 0.068334371 11449527
1.8911896 0.51948965 0.068422765 11910592
1.8929504 0.52284652 0.069150142 11384252
1.8949127 0.52570206 0.069790237 11252924
1.8959732 0.52664661 0.070735157 10792375
1.8978285 0.5309062 0.069434129 11712701
1.9002508 0.53368014 0.069712758 11252667
1.9022455 0.53784549 0.069555141 11450046
1.9043846 0.54131407 0.069850862 11515837
1.9060986 0.54219413 0.069951691 11581117
1.9078134 0.54607141 0.069544308 11449787
1.9086657 0.54795676 0.070861153 10661049
1.9105474 0.55020255 0.070699669 11909824
1.9120855 0.55348432 0.070852809 11252672
1.9140161 0.55758095 0.070371673 11318464
1.9168212 0.56107724 0.069849461 11318977
1.9192711 0.56534308 0.069943711 11186880
1.9218484 0.56896394 0.071247831 10726592
1.9238414 0.57302207 0.07083457 9543098
1.9266703 0.57662135 0.070348918 9477045
1.9286343 0.58069736 0.069972359 10200516
1.9321278 0.58529949 0.071358941 10397126
1.8483332 0.45675105 0.067521065 9077377
1.850203 0.45794505 0.066773579 9406602
1.8518723 0.46013457 0.067099303 8619407
1.8530273 0.46286142 0.066867873 8555692
1.8552699 0.46487704 0.067402035 11317435
1.8569547 0.46827176 0.067406215 12566977
1.8570462 0.46923682 0.069096483 11645361
1.8601652 0.4720104 0.068832919 13224908
1.8614687 0.47537592 0.067261808 12239041
1.8630496 0.47788715 0.067551956 12041154
1.8647146 0.48027727 0.067831084 11580595
1.8660368 0.48204604 0.067803033 12370113
1.867887 0.48533934 0.067037709 12107201
1.8693618 0.48783669 0.066706166 12632771
1.8707241 0.49032608 0.067062199 11910336
1.8727046 0.49306282 0.069100574 9806260
1.8726776 0.49483889 0.06630522 10266548
1.8773258 0.5016073 0.067270227 10331573
1.8795437 0.50566822 0.067373015 10725811
1.8830004 0.50879782 0.067678049 10200243
1.8844845 0.51158416 0.067894228 10857655
1.8850075 0.51273131 0.068358757 11845057
1.8860707 0.51612878 0.067468658 12764355
1.889169 0.51944494 0.067605339 12172734
1.8893344 0.52052009 0.068505123 12895941
1.8911163 0.52341551 0.068288766 11844284
1.8985285 0.53494096 0.068969555 12304578
1.9003437 0.53899086 0.068420529 12304578
1.8417966 0.44803187 0.064388335 8291213
1.8435738 0.45181307 0.064826086 8420994
1.8451785 0.45452341 0.064152204 8946302
1.8468608 0.4555029 0.065246649 8223096
1.8481877 0.45839506 0.064833328 8420989
1.8494588 0.46114722 0.065397918 7370628
1.8514487 0.46408093 0.065576464 8620188
1.8533272 0.46573219 0.066111185 9344945
1.8545535 0.46889159 0.065193325 11383218
1.8571869 0.47137764 0.065028861 12632769
1.8582462 0.47429714 0.065063819 11712439
1.85902 0.47651756 0.06650538 11581374
1.8613163 0.47893634 0.06533666 12369855
1.8628637 0.48154739 0.066119283 12304062
1.8647622 0.4852123 0.065324254 12830148
1.8666661 0.48848376 0.065724313 12632770
1.8693396 0.49249405 0.06598305 11712698
1.8716185 0.49561164 0.066049129 11515321
1.8732959 0.4986304 0.065826908 11712443
1.8750825 0.50258017 0.065100119 12106687
1.8773687 0.5053401 0.065005697 12501445
1.8780046 0.50624293 0.066699997 11646655
1.8806589 0.50971472 0.065934718 11383480
1.8821687 0.51289648 0.065910019 11514808
1.8846275 0.51566714 0.065809973 11647166
1.8869634 0.5205732 0.06688761 12830148
1.8349415 0.44213727 0.062169846 10068391
1.8373301 0.44473866 0.064050391 10266039
1.839785 0.4461596 0.063924484 10396587
1.8416086 0.45090839 0.062291905 10198698
1.8430594 0.45466471 0.062816001 9145238
1.8449106 0.45735374 0.063673347 8157561
1.8462467 0.46027097 0.064026676 7303284
1.8475726 0.46150973 0.06473729 7369595
1.849787 0.46497917 0.063786231 8225933
1.8521113 0.47004914 0.06482026 11251889
1.8549362 0.47135672 0.063405931 12566978
1.8560077 0.47516286 0.063844331 12764355
1.8586866 0.47938552 0.064071633 12764355
1.8601102 0.48250276 0.063942373 12304576
1.8317757 0.4408026 0.061649211 10528685
1.8336629 0.44306391 0.061098691 10528423
1.8358287 0.44531047 0.061228368 10725808
1.8372856 0.44830984 0.061455477 10594481
1.8389397 0.45145312 0.061521959 10791349
1.8401253 0.45376483 0.061264858 11185589
1.8411803 0.45553958 0.061359555 9738140
1.8431629 0.45850012 0.061342482 9342867
1.8440032 0.45977584 0.062913284 8026741
1.8457478 0.46269283 0.061590031 8487025
1.8481128 0.46605176 0.062400866 8027519
1.8307937 0.44277734 0.058642201 11185840
1.8318951 0.44374526 0.060534518 10659497
1.8330759 0.44651267 0.060282793 10923184
1.8349675 0.44956529 0.059882984 10594478
1.836947 0.45217109 0.059271183 10331819
1.8385206 0.45399195 0.06040325 10725546
1.8393636 0.45594016 0.060660183 10988206
1.8407438 0.45920163 0.060358327 10396072
1.8291214 0.44369483 0.058786962 11777720
1.8304778 0.44685328 0.058448602 11186357
1.8326802 0.44942945 0.058105808 10989234
1.9552979 0.59873384 0.083292909 9413067
1.9575639 0.60309333 0.082947031 9478088
1.9583499 0.60684067 0.083099127 8951753
1.9616363 0.61103934 0.082680531 9017547
1.9639018 0.61539888 0.082334608 9149643
1.9662256 0.61972278 0.081915349 9214922
1.9422749 0.58385813 0.081674851 10398930
1.9448528 0.58943522 0.080775842 9806538
1.9463493 0.59321278 0.080586173 9806551
1.9477054 0.59437203 0.079996787 9477050
1.9488857 0.59870094 0.081809841 9478358
1.9532021 0.60261476 0.081386417 9609694
1.9560249 0.60615975 0.081194602 9412047
1.9578235 0.60986751 0.080663249 9345471
1.9594454 0.61204135 0.082172081 9346500
1.9607508 0.61574018 0.081598088 8755396
1.963123 0.62034875 0.082031943 9017545
1.9703333 0.62917316 0.080261327 9215176
1.9231023 0.55879128 0.078014657 9150666
1.931959 0.57259715 0.07851401 9544652
1.9337324 0.57491046 0.078711234 9938649
1.9362921 0.57873565 0.078380585 10004690
1.9368049 0.57963556 0.079843089 10003649
1.9386235 0.58414429 0.079379655 9807046
1.9400135 0.58454859 0.079287589 9609431
1.9409449 0.58806884 0.079619087 9806540
1.943338 0.59119391 0.079657882 9872065
1.9442458 0.59357327 0.080663927 9674965
1.9460704 0.59561872 0.080146685 9542843
1.9481328 0.59807652 0.080160148 9477318
1.9505485 0.60013932 0.080507889 9871820
1.9508674 0.60296017 0.080245003 9280708
1.9532655 0.60663068 0.080294177 9477831
1.9546045 0.6079191 0.080309376 9608901
1.9557348 0.61104232 0.080968514 9214661
1.9568293 0.61236268 0.079754196 9675208
1.9585042 0.61600667 0.079810753 8754623
1.9598879 0.61940801 0.080424286 9411781
1.9617176 0.62027407 0.07960093 8427198
1.9625854 0.62432313 0.079579189 9412549
1.9651273 0.62698233 0.078554325 8886209
1.9673533 0.62845731 0.078914851 8951747
1.9682052 0.62990171 0.080276273 9215176
1.9864892 0.66056633 0.077918023 9871819
1.9107225 0.54175305 0.076050103 11779809
1.9124717 0.54525697 0.075988151 11450846
1.9175835 0.55391389 0.077009417 10727642
1.9208925 0.55856973 0.077271052 9413587
1.9212551 0.5607549 0.076558031 9017271
1.9242877 0.56323075 0.07752981 9347027
1.9258592 0.5660606 0.077543348 9740749
1.9273583 0.5682686 0.077417664 9739701
1.9284785 0.57122105 0.077130333 10201040
1.9308124 0.57440245 0.077231139 9872589
1.9311987 0.57565528 0.078740306 10069979
1.9341999 0.5797475 0.078258283 9807051
1.9366745 0.58390731 0.07772468 9939409
1.9374056 0.58757097 0.077806175 9939417
1.9416013 0.59156197 0.079157442 9478075
1.9443254 0.59599113 0.078797385 10003910
1.9453809 0.59945339 0.078687266 9740220
1.9480176 0.60271925 0.076986805 9215172
1.9474692 0.60380518 0.078205697 9740476
1.9506209 0.60731077 0.077855989 9477827
1.9525305 0.61084276 0.07636676 9149378
1.9538054 0.6117999 0.077651456 8032438
1.9565051 0.61502945 0.077516884 8230072
1.9567096 0.61666876 0.078921556 8098233
1.9587219 0.62059766 0.078858957 8689603
1.9606237 0.62447751 0.078869864 8360386
1.963387 0.62825388 0.0778827 8754879
1.965472 0.63000244 0.078282759 9215426
1.9667336 0.63288766 0.078661524 9345995
1.9679416 0.63448983 0.077330932 8491708
1.9696743 0.63713211 0.077801332 9345988
1.9718603 0.64021784 0.077026621 8885952
1.9734181 0.64237106 0.077404983 9149379
1.9755894 0.64714116 0.076716341 9214662
1.9791616 0.65110445 0.076637372 9478348
1.9797615 0.6533196 0.076164626 9412050
1.9800321 0.65456635 0.077948727 9149390
1.9822925 0.65904677 0.077676028 9280718
1.9842395 0.6600365 0.077134237 9806283
1.894883 0.5219174 0.074501701 11056094
1.8967412 0.52594292 0.075224638 10135246
1.8990014 0.53065979 0.075381204 12173276
1.9046634 0.53709233 0.074854903 11712969
1.9057956 0.53844953 0.074878395 12502220
1.9074914 0.54213423 0.075299375 12042199
1.9084378 0.54598892 0.076138034 11122141
1.9109441 0.54631889 0.075529352 11384266
1.9131092 0.55012316 0.075034656 10990030
1.9144484 0.55226445 0.075349361 11384265
1.9160188 0.55403763 0.075991206 11055560
1.917281 0.55753839 0.075479694 10792644
1.919376 0.55976033 0.075611383 9872572
1.9205006 0.56233793 0.075941779 9608642
1.9219725 0.56510794 0.075924531 8689341
1.923694 0.56724054 0.075492583 8491965
1.9246331 0.57012892 0.075752668 9411778
1.9264766 0.57278663 0.075609826 9149116
1.9281105 0.57528049 0.076140836 10004170
1.9309683 0.5792045 0.076622926 10201045
1.9333355 0.58326614 0.076161683 9872855
1.9352162 0.5862143 0.073749386 8755137
1.938023 0.59106511 0.074951604 8689345
1.9399878 0.59478837 0.074815899 8952510
1.9426293 0.59715378 0.076011002 8558016
1.943383 0.60056555 0.074530125 10266822
1.9452139 0.60304052 0.075624943 9149379
1.9494041 0.60813206 0.076525822 8229823
1.9513639 0.61197621 0.076463327 8426684
1.9542589 0.61594748 0.076937966 8952248
1.9562826 0.61916214 0.075870432 9609414
1.9582752 0.62333852 0.075671852 9740485
1.9600899 0.62650895 0.076096557 9806020
1.961722 0.62818438 0.076380678 9740482
1.9634818 0.63258457 0.077161193 9609413
1.9642756 0.63297421 0.076505177 9674694
1.9685853 0.64083338 0.07714878 8754877
1.9709039 0.64527804 0.07680279 9280699
1.9725301 0.64591444 0.074637413 8689341
1.9770335 0.65183336 0.076652303 9674435
1.9775959 0.65371895 0.076174475 9478348
1.9795476 0.65674466 0.076096445 10462921
1.9807683 0.65857375 0.074392408 9674430
1.9817177 0.66092873 0.076033488 10463425
1.874028 0.49107268 0.072201878 12370652
1.8758286 0.49501571 0.072783627 12699611
1.8778684 0.49516636 0.073496267 12634077
1.8786261 0.49875414 0.073363125 12502749
1.8817161 0.502662 0.072591603 12304858
1.8827142 0.5051015 0.07232213 13356494
1.8841554 0.50706249 0.073213696 12370648
1.8862587 0.51037776 0.073896863 12239068
1.8869039 0.51391792 0.073766671 12239578
1.8889798 0.51416153 0.073099978 11843783
