# .PCD v0.7 - Point Cloud Data file format
VERSION 0.7
FIELDS x y z rgba
SIZE 4 4 4 4
TYPE F F F U
COUNT 1 1 1 1
WIDTH 1114
HEIGHT 1
VIEWPOINT 0 0 0 1 0 0 0
POINTS 1114
DATA ascii
0.10408748 0.0097430348 0.039698858 9605011
0.10608774 0.010539483 0.038841553 9604761
0.10927089 0.012416018 0.037910506 9604755
0.11148014 0.013555285 0.037148237 9538706
0.11391751 0.015565969 0.036984891 9341842
0.11738145 0.016636863 0.035919555 9341843
0.11960244 0.017849242 0.0350448 9407636
0.12225661 0.01850475 0.03430295 9407636
0.12433317 0.019903908 0.033578791 9473426
0.12681051 0.02136239 0.032876316 9473171
0.13134106 0.022491867 0.03234636 9341844
0.10545917 0.012426529 0.037793577 9604763
0.3423394 0.075281247 0.026456367 9539739
0.34407678 0.076000877 0.025802571 9605018
0.35050538 0.078666441 0.02397386 9473169
0.35254467 0.079718091 0.023270234 9538451
0.35458407 0.080769747 0.022566609 9669522
0.33265823 0.072026253 0.027982213 9933981
0.33499914 0.073759593 0.027704742 9999773
0.33777204 0.074992187 0.027146418 9999773
0.34056145 0.07604894 0.026671607 9802651
0.34353849 0.077395886 0.025758795 9605275
0.34587753 0.078881875 0.024654321 9605275
0.34817109 0.080187097 0.023489099 9473689
0.35047436 0.081602655 0.02221816 9210261
0.35328507 0.082698241 0.022025172 9669780
0.35459438 0.08344955 0.021485608 9603987
0.32345903 0.070384115 0.027687579 8946825
0.32603213 0.071426623 0.027562108 9341843
0.32913136 0.07237865 0.027905636 9867931
0.33180955 0.074192353 0.027395453 9802652
0.33340049 0.075650491 0.027193561 9802655
0.33694577 0.076870866 0.026672944 10328475
0.33898515 0.077922516 0.025969315 10394011
0.34183389 0.078727767 0.024514541 10130841
0.34468263 0.079533026 0.023059878 9999513
0.34667733 0.08122547 0.022843465 9999515
0.35015059 0.083687335 0.022263695 9406866
0.35151803 0.084517613 0.020115826 9078934
0.35376182 0.085256964 0.019249678 9210000
0.31726721 0.068738237 0.027519617 8947085
0.31919226 0.070242822 0.02750292 9144206
0.32167757 0.071400337 0.027181268 8881290
0.32480136 0.072504126 0.027145222 9078668
0.34085879 0.080836467 0.022452425 10130841
0.34289816 0.081888132 0.02174874 9933720
0.3529259 0.086809501 0.016652683 8946831
0.35427395 0.087739773 0.016395176 9275534
0.30768433 0.066649631 0.027889982 9999258
0.31081048 0.067103326 0.027737223 10196636
0.31321371 0.068684176 0.027514756 9868185
0.31533709 0.070009463 0.02687899 8947086
0.31747019 0.07155399 0.027000997 8881550
0.32021949 0.072624646 0.026763223 9144726
0.35380569 0.089896686 0.014168551 9078160
0.30068842 0.06515561 0.027551252 8814984
0.30355096 0.0662935 0.027315963 9407121
0.30589548 0.068125062 0.027152006 9802137
0.30901477 0.068946928 0.02722095 9802394
0.31159291 0.070337847 0.026312023 9539739
0.31455126 0.072085418 0.026583645 8750481
0.3535715 0.091054626 0.011923278 9012883
0.35409868 0.093007974 0.010761917 9209487
0.29248491 0.062983893 0.028157305 8880778
0.29481056 0.063925177 0.027549833 8618122
0.29752371 0.065409109 0.027199861 8552326
0.29986149 0.066955931 0.026897959 8947084
0.30262375 0.068349458 0.026337091 9538963
0.30422381 0.070385985 0.025491159 9868182
0.35433248 0.094548307 0.0083220415 8814988
0.35481796 0.095710061 0.0073721819 9012105
0.28564277 0.06165218 0.027824517 8946571
0.28790292 0.062845632 0.027631864 8683915
0.29053316 0.064095803 0.027378134 8749450
0.29315597 0.065245837 0.027191602 8683399
0.29565436 0.066792652 0.026595294 9011594
0.29825562 0.06857913 0.025617056 9669516
0.30037996 0.069674566 0.024884108 9604495
0.35471928 0.097540319 0.0049612243 8090749
0.35634857 0.098357841 0.0048511028 7102550
0.27877569 0.060107294 0.027783379 9012366
0.28156391 0.061418783 0.027535241 8815245
0.28387585 0.063444391 0.027292196 8420999
0.28682676 0.064044364 0.026781838 8749706
0.28901064 0.065400451 0.026815772 8683400
0.35449308 0.099438377 0.0048403572 8418937
0.35549045 0.10033248 0.0021600202 6773331
0.35793766 0.10052104 0.0011496413 6640962
0.36051917 0.10201502 2.9487535e-05 7232068
0.27029452 0.058275636 0.027410429 9209487
0.27230379 0.059745867 0.027415816 9012621
0.27482095 0.0602636 0.027332962 8946315
0.27706489 0.061814457 0.027033057 9012366
0.27993083 0.063453704 0.026787035 8618379
0.28182781 0.065026075 0.025562078 8486279
0.28490838 0.065836191 0.025127765 8420478
0.35691333 0.10243848 0.00039298646 6837311
0.26300734 0.056452155 0.0280376 8946830
0.26598722 0.05806151 0.027833264 8617866
0.26851365 0.059601754 0.027599178 8815244
0.27104223 0.060696136 0.027123876 9012621
0.27346599 0.062106956 0.026411388 9012620
0.27602744 0.064370222 0.025677536 9077899
0.27810922 0.065443777 0.024959248 8683141
0.25371453 0.054623716 0.028244533 9473172
0.25664794 0.056094248 0.028029792 9078671
0.25950387 0.056747183 0.028106254 8947085
0.26202455 0.057901204 0.027781203 9144208
0.26513293 0.059359081 0.027031209 8881291
0.26712763 0.061051514 0.026814796 9077641
0.26920947 0.062125087 0.026096512 9407115
0.27129132 0.063198671 0.025378346 9341575
0.24383508 0.051922649 0.028886914 9144464
0.24728602 0.053282131 0.028414078 9473171
0.24965975 0.054270755 0.028168418 9538708
0.25217849 0.055958569 0.027607109 9473427
0.25536707 0.056870341 0.027495388 9276303
0.25829473 0.058444291 0.026991896 9341837
0.2603766 0.059517831 0.026273604 9407376
0.26245838 0.060591396 0.02555532 9012622
0.23380278 0.048583001 0.029609486 8618122
0.23531052 0.048890568 0.029322602 8881293
0.23857784 0.051078282 0.02921458 8354692
0.24066333 0.051959045 0.028616719 9078156
0.2434061 0.053368624 0.028269794 9538963
0.24578367 0.054331783 0.028243631 9538707
0.24804159 0.055781536 0.026721861 9801875
0.22471242 0.045635942 0.030579224 8288390
0.22622761 0.047561482 0.030515168 8420486
0.22905643 0.048538316 0.029941306 8486278
0.23158175 0.049572662 0.028915007 8617863
0.23447682 0.051200166 0.028550528 8814985
0.23731057 0.05250359 0.028410908 8617606
0.23900241 0.053759675 0.028029144 9209483
0.22254355 0.047594067 0.029436853 8486021
0.22525321 0.048927814 0.029016882 8683400
0.22771482 0.049094796 0.028419524 9012363
0.2304561 0.050501935 0.028178126 8880776
0.2333474 0.052833099 0.027990501 9077380
0.21039313 0.042886969 0.03016277 8748675
0.21314448 0.045011081 0.029714826 8814468
0.21581483 0.04594728 0.02913262 8946056
0.21808708 0.04706049 0.028465018 8880518
0.22095627 0.048527353 0.028050285 8814464
0.2236772 0.049714152 0.027619671 8881033
0.22642633 0.051211789 0.027508013 9144457
0.22859314 0.052329183 0.026760407 8880771
0.20725244 0.04401724 0.029229905 8617349
0.20900081 0.04506693 0.028873708 8551557
0.2121978 0.046077453 0.028735299 8551815
0.21465732 0.047477361 0.028405786 8749192
0.19721977 0.04142683 0.028854292 8683141
0.19999784 0.042590369 0.028981015 8880519
0.20271747 0.043943081 0.028680984 8683399
0.20516099 0.044880442 0.028636735 8617604
0.20804195 0.047714263 0.028175481 8748420
0.21598691 0.051811356 0.025434341 8880515
0.19176301 0.040056597 0.029068395 8814730
0.19320603 0.041800816 0.028808575 8486020
0.19633317 0.041940581 0.028928448 8683138
0.19948325 0.043795288 0.028466102 8880518
0.20177637 0.045753993 0.028403994 8814469
0.20313591 0.046455123 0.027934931 8814723
0.17920455 0.036005005 0.030444384 8552065
0.18157576 0.037849996 0.029784761 8552069
0.18413781 0.039085116 0.029477835 8748930
0.18676332 0.039955862 0.02894786 8946056
0.18964557 0.041283462 0.02846868 8880775
0.19200082 0.042632259 0.027467862 8748675
0.19468537 0.044044953 0.027980082 8682623
0.19685219 0.045162383 0.027232479 9077376
0.17483418 0.036725685 0.02959881 8749188
0.17727123 0.037847955 0.02913031 8617860
0.18024556 0.038893707 0.028967459 8420482
0.18285532 0.04012014 0.028927829 8551813
0.16622782 0.033962339 0.029858306 8617861
0.16840613 0.035438571 0.029782988 8486020
0.17154396 0.036472946 0.029349241 8749192
0.1738912 0.037936024 0.029357202 8880778
0.17555268 0.038405944 0.029076327 8815239
0.15466301 0.030479386 0.032633267 9012357
0.15722045 0.031944752 0.031571325 8880775
0.15945403 0.033111498 0.030442633 8617604
0.16211246 0.034265645 0.030023776 8749190
0.16461314 0.035777945 0.029461127 8749446
0.16736689 0.037970971 0.028918613 8618117
0.091838986 0.00049278908 0.05091637 9408412
0.094445825 0.0011800312 0.04926632 9539741
0.096223377 0.0022416562 0.048330631 9473948
0.14809006 0.028996028 0.031859275 8946567
0.15006231 0.030381693 0.03120454 8814982
0.15289347 0.031589463 0.030710172 8749447
0.15523383 0.033337004 0.030145217 8617865
0.1572998 0.033718545 0.030222695 8552071
0.087821938 0.00062964356 0.049995299 9671060
0.089839913 0.0012000744 0.048964892 9539734
0.092370488 0.0029267489 0.048249815 9539737
0.095043078 0.0044534979 0.047078609 9539480
0.097647987 0.0053852289 0.045674644 9539480
0.10029171 0.0065433197 0.044380184 9473684
0.10173617 0.0072881626 0.043881856 9473684
0.13049951 0.022120913 0.033957861 9538705
0.13329335 0.024266928 0.033495255 9670034
0.13611275 0.025708325 0.032428533 9209741
0.13824557 0.026635697 0.031690668 8617862
0.14147881 0.027817935 0.031633597 8749190
0.14404407 0.029042991 0.031339444 8749189
0.14595746 0.029807867 0.031069919 8814723
0.093735471 0.0069189365 0.046404913 9342105
0.096320458 0.0075315093 0.044693753 9473689
0.09879981 0.0087674977 0.043448627 9473687
0.10218211 0.0095392372 0.042398967 9342103
0.10421018 0.011099409 0.040717497 9473687
0.10709652 0.012311459 0.039808854 9539223
0.10888214 0.013335721 0.038840812 9539224
0.11118253 0.014290537 0.038237154 9407639
0.11361621 0.016772725 0.037915219 9408402
0.11701506 0.018525423 0.036742527 9407632
0.12136745 0.020893928 0.034477994 9342100
0.12435562 0.022161957 0.033607658 9407636
0.12701356 0.023391029 0.033086386 9538706
0.12911396 0.024075801 0.032693174 9472916
0.13182518 0.025706872 0.032159653 9341844
0.13488105 0.027442224 0.031927723 9144209
0.13743424 0.02833732 0.031456374 8881292
0.13894431 0.028888106 0.031198826 8552582
0.09786687 0.010783161 0.042666089 9407638
0.099837564 0.011357466 0.041459329 9473429
0.10272656 0.012727055 0.040128969 9407893
0.10520333 0.013991104 0.039276842 9276309
0.10752334 0.015186771 0.038180426 9473683
0.11033808 0.017220031 0.037473857 9407894
0.1127587 0.018866492 0.036581211 9342100
0.1151666 0.020133551 0.035607591 9341845
0.11782199 0.020342607 0.03490698 9407636
0.1201512 0.022222316 0.033876572 9407636
0.12286465 0.023504272 0.033282489 9473172
0.12557799 0.024777608 0.032788645 9473171
0.12841593 0.025821377 0.032255858 9473172
0.098183453 0.013526451 0.039497659 9473169
0.10043529 0.014687685 0.038720734 9407634
0.10340931 0.016221333 0.037694644 9078924
0.10638335 0.017755022 0.036668558 9408146
0.11381856 0.021589197 0.034103282 9539218
0.1160278 0.022728467 0.033341009 9341846
0.11827961 0.023889717 0.032564089 9276054
0.12125366 0.025423357 0.031538002 9341844
0.33186755 0.072981298 0.030358259 10262686
0.33458668 0.07438352 0.029420134 10328476
0.33662596 0.075435162 0.028716508 10328475
0.34002158 0.078513004 0.026785966 9737117
0.34236795 0.079401486 0.025960732 9605019
0.34463963 0.081476547 0.025294356 9736347
0.34772113 0.082307331 0.024358917 9670811
0.35001215 0.083123207 0.023748301 9538965
0.35297561 0.083942361 0.022987735 9735573
0.3284235 0.074935645 0.027390245 9539743
0.33089611 0.075792693 0.028197281 9933980
0.33328399 0.077328585 0.027658682 9933980
0.33592179 0.078315042 0.027364239 9933981
0.33852258 0.07973595 0.026793011 9934237
0.34160495 0.081313208 0.026146315 9671068
0.34388947 0.082643382 0.025409538 9473949
0.34652817 0.083744772 0.024385769 9670812
0.34900269 0.085177958 0.023040745 9407638
0.35063422 0.086958662 0.021581534 9078676
0.35371596 0.086922564 0.021742675 9669778
0.32153019 0.07361944 0.027955886 9407631
0.32393342 0.074450023 0.027521651 8684168
0.32666245 0.076145381 0.02739143 9276051
0.32918397 0.078064062 0.027107354 9868188
0.33160976 0.079668373 0.026075821 9933979
0.3344571 0.081461251 0.024615131 10065305
0.33690915 0.08099357 0.024428759 10262426
0.33866543 0.082967632 0.022691347 10196635
0.3419894 0.084046334 0.022511177 10065047
0.34454861 0.084730707 0.022594772 9999515
0.35227075 0.088965252 0.018833436 8947348
0.35306063 0.090466961 0.017636821 9406606
0.31548834 0.072052762 0.028056681 9604753
0.3176088 0.073924683 0.027677316 9801877
0.31971923 0.074569032 0.02724478 9605014
0.32280883 0.076359175 0.027092926 8815756
0.32439393 0.077625729 0.0262128 8947594
0.3532953 0.091885082 0.016173039 8946575
0.35388276 0.09478116 0.014870627 9340558
0.30856186 0.070891261 0.027358841 9736858
0.31133533 0.072316863 0.027283024 9867929
0.31375024 0.074375078 0.02709927 9736600
0.31579533 0.074790314 0.026557457 9473688
0.31863898 0.076015331 0.026397433 9736858
0.32055017 0.076914303 0.02560563 9012874
0.3531177 0.092540123 0.013396649 9143954
0.35389036 0.094574057 0.012963027 9209744
0.29964927 0.069444112 0.027367689 9604759
0.30206236 0.07031244 0.027473174 9670551
0.30448425 0.071187869 0.027152117 9605017
0.30713424 0.072817169 0.026850153 9736345
0.30937544 0.074803881 0.026355494 9671065
0.31135285 0.0767176 0.024918832 9868437
0.35408446 0.096940979 0.010411879 8880783
0.35444593 0.098111391 0.0094854739 9078156
0.29225436 0.067374706 0.027400218 9012365
0.29503551 0.069128267 0.027465407 9473172
0.29782808 0.070371874 0.027154949 9670551
0.30066448 0.071539342 0.026517492 9605270
0.30354589 0.072717845 0.024794407 9736598
0.35442179 0.098798193 0.0073433891 8749196
0.35600415 0.10023287 0.0068826061 8287344
0.2838223 0.065551348 0.027352791 8617350
0.28641182 0.066722929 0.027229253 8749193
0.28876939 0.067644119 0.027326062 8946828
0.29126877 0.068803646 0.027259238 9472913
0.29366839 0.069708437 0.026516408 9735828
0.29672578 0.071135506 0.025686 9933463
0.29863548 0.072784148 0.025498968 9802390
0.30216187 0.074602619 0.024282299 9407631
0.30424368 0.07567618 0.023564015 9867924
0.35403314 0.10083279 0.0055913962 8879748
0.35463217 0.10226811 0.0049900021 8288384
0.2766245 0.063744158 0.02732525 8552074
0.27939412 0.0658831 0.027122866 8683658
0.28190288 0.067031659 0.026974555 8814986
0.28454852 0.067699626 0.02647195 8946567
0.28735596 0.068923913 0.025580812 9735310
0.29069474 0.070636958 0.025368202 10196632
0.29277658 0.071710512 0.024649911 10196892
0.29422113 0.072455436 0.02415153 9867927
0.29838485 0.074602582 0.022714958 9407890
0.35498878 0.1036952 0.0028328821 7234403
0.3562021 0.10435017 0.0016834959 6509894
0.35826507 0.10634471 0.00039943308 6837827
0.26787761 0.061729237 0.027613834 9011852
0.27029395 0.063328207 0.027456399 8617866
0.2731263 0.064267874 0.027324531 8552073
0.27561387 0.065979421 0.027054802 8552072
0.27808854 0.066870034 0.026519399 8946313
0.28532317 0.071819156 0.024357539 10065048
0.28744757 0.072914653 0.023624595 9999511
0.25862408 0.059342865 0.028152689 8749706
0.26133892 0.060709298 0.028080791 8617867
0.26377088 0.061620511 0.027870342 8486537
0.26628011 0.063076705 0.027823765 8552073
0.26851955 0.064234123 0.027590141 8749451
0.27175429 0.064765118 0.026162192 8683396
0.27432549 0.067501582 0.026277732 8880515
0.27644983 0.068597049 0.025544785 9406859
0.25123844 0.057813589 0.028621651 9407380
0.25421625 0.059387729 0.028216392 9407635
0.25686836 0.060770046 0.027795821 8947084
0.25903597 0.061883073 0.026946582 8683652
0.26183346 0.063415848 0.026192077 8814979
0.26503855 0.064631782 0.025172975 9077640
0.26816177 0.065800689 0.025199566 9012619
0.27042094 0.067435823 0.024754371 8748929
0.24139312 0.053763743 0.030018352 9341066
0.24315152 0.055719651 0.028999195 9407635
0.24571908 0.056786373 0.028779149 9407636
0.24796009 0.058238499 0.028384268 9538964
0.25058347 0.05931678 0.027662229 9604755
0.2537705 0.060797159 0.027628686 9801365
0.23407111 0.053414211 0.028739553 8814987
0.23604277 0.054486498 0.028382372 8683657
0.2388206 0.055709749 0.028711118 8749449
0.24088241 0.056699671 0.02835555 9144207
0.24363726 0.058376774 0.028580043 9341587
0.22339681 0.051001649 0.030010622 8421001
0.22697832 0.052001961 0.029095147 8552073
0.22946264 0.053388558 0.028851774 8486281
0.23222886 0.05450641 0.02869932 8683401
0.23513572 0.056197014 0.028423574 8814986
0.23778352 0.057859007 0.028406154 8748674
0.22021857 0.051268764 0.029384434 8223108
0.22296849 0.052316751 0.028460778 8814727
0.22578749 0.053736493 0.028108202 8946568
0.22831409 0.054940287 0.027893007 9012618
0.23088884 0.056334246 0.027973592 8683393
0.23302935 0.057355091 0.027176123 8880515
0.21151233 0.04801672 0.029419631 8683142
0.21418473 0.049578317 0.028982446 8683398
0.21660866 0.050495453 0.028453324 8683397
0.21896704 0.051926237 0.028217595 8485762
0.22104989 0.053359538 0.027187135 8748672
0.22337094 0.054999024 0.026700787 8946305
0.20242365 0.046288706 0.029032622 8552072
0.20523927 0.047696382 0.029235166 8419970
0.20759924 0.048728857 0.029176269 8551553
0.20980215 0.049965914 0.028854311 8748935
0.21210013 0.051217604 0.027778033 8880518
0.21498927 0.052707434 0.026781205 8617601
0.21715602 0.053824805 0.026033659 8354429
0.19488546 0.044680994 0.028998915 8749190
0.19786555 0.045771502 0.029260918 8683399
0.20063558 0.047111765 0.029258892 8551815
0.20281434 0.048173252 0.028888587 8617603
0.18709317 0.043011311 0.028818261 8617351
0.18919311 0.043417327 0.029030945 8486023
0.19152734 0.044965766 0.028730515 8683141
0.1941836 0.046750028 0.028522421 9077896
0.19683354 0.047607183 0.028274227 9012104
0.17914504 0.041005731 0.029218886 8486019
0.18231419 0.042473026 0.028829578 8617604
0.18504262 0.043757498 0.028680317 8617605
0.18715134 0.044828631 0.027610105 8617345
0.18942894 0.047457058 0.027054202 9143693
0.17056759 0.038622648 0.029846281 8617862
0.1735978 0.040179942 0.029529773 8748934
0.17573197 0.041501217 0.029106226 8551556
0.17820518 0.042520113 0.029013935 8551810
0.1808414 0.044113111 0.028376646 8814468
0.18369943 0.045856263 0.027156603 8880257
0.18586618 0.046973675 0.026409 9077893
0.16199307 0.036610443 0.031775292 8946562
0.16430278 0.037614617 0.030420016 8683397
0.16661792 0.039192095 0.02968131 8551811
0.16887911 0.040483963 0.029439729 8486019
0.17108355 0.041160244 0.029108219 8617092
0.15271142 0.033913199 0.031711388 9012358
0.15521203 0.035294838 0.03109847 8552068
0.15804896 0.036682215 0.030888509 8683394
0.16014493 0.037653837 0.03022958 8617607
0.16272359 0.039428119 0.030173555 8486017
0.16474032 0.040791553 0.029955715 8682878
0.084362045 0.0013856792 0.053467486 9539482
0.087044209 0.0026816335 0.051912639 9473946
0.089414231 0.0032692407 0.050596755 9539738
0.09150593 0.0047319042 0.049379695 9473945
0.14023033 0.029960118 0.032605827 8814979
0.14305855 0.032165363 0.032160792 8617348
0.14582981 0.032863595 0.031429864 8420228
0.14831014 0.034339722 0.031164944 8683396
0.15122229 0.035420574 0.031183161 8814981
0.15337411 0.03674287 0.030698277 8551554
0.1553126 0.037877485 0.030338105 8617600
0.082373835 0.0035658376 0.050758686 9605529
0.084625579 0.0047269631 0.049981814 9539735
0.08849971 0.0058590402 0.04954252 9473944
0.090915836 0.0070456197 0.047744982 9473432
0.092503041 0.0082290666 0.046723928 9407894
0.095130019 0.0094385799 0.045856219 9473685
0.097434565 0.0099216755 0.044559792 9342354
0.12925687 0.026331877 0.033580441 9670034
0.13150868 0.027493166 0.032803576 9670033
0.13361277 0.029298611 0.032391079 9407120
0.13641205 0.030606726 0.031612769 9012875
0.1391093 0.032304913 0.031240832 8486276
0.14192083 0.03240712 0.030873094 8288899
0.14443381 0.03439476 0.030781288 8420483
0.085311517 0.0064345314 0.047870714 9736855
0.089576997 0.0095089749 0.047091808 9407897
0.091664024 0.010470576 0.045368396 9342105
0.093769796 0.010828442 0.044502497 9342105
0.096294746 0.01218523 0.04354737 9407639
0.099054329 0.012878184 0.042246535 9407896
0.10124262 0.014407088 0.040641539 9145236
0.10382586 0.015728686 0.039530125 8355721
0.10675462 0.016962523 0.038606819 9078672
0.10874251 0.017942756 0.037817989 9407382
0.11275785 0.020588093 0.038401242 9473170
0.1191374 0.024429927 0.03432326 9078930
0.12185906 0.025256528 0.0338961 9407637
0.12488043 0.026462136 0.033028696 9407380
0.12780641 0.027888481 0.032811463 9473170
0.13005123 0.029626716 0.032024126 9341586
0.132498 0.030014332 0.031764202 9210001
0.13515414 0.031923469 0.031231072 8947085
0.09408401 0.012892924 0.043382637 9407898
0.096540645 0.014200862 0.041713227 9473431
0.097980164 0.015272466 0.040835995 9407637
0.1002354 0.016479155 0.039852623 9013136
0.10304844 0.018230217 0.038457386 8027011
0.1057668 0.019545496 0.037387159 8947597
0.10797331 0.020406889 0.036712956 9407379
0.11028001 0.022271482 0.035782333 9341845
0.11334555 0.023064252 0.035346363 9276050
0.11605323 0.024365364 0.034769949 8815757
0.11818383 0.025826566 0.033902436 8815756
0.12099441 0.026930807 0.03298305 9210513
0.12322608 0.028075002 0.032633767 9342098
0.12644862 0.029416809 0.032098267 9407380
0.096159853 0.017417824 0.039448593 9538965
0.099279687 0.018279923 0.037841391 8881550
0.10162144 0.019715728 0.037337486 7894658
0.10383024 0.020814441 0.036570374 8354949
0.10702259 0.022525655 0.036271513 9276051
0.10977694 0.024056504 0.035116214 9473171
0.11179484 0.025480505 0.034054209 9341583
0.11404666 0.026641751 0.033277284 8683905
0.11702073 0.028175393 0.032251194 8947335
0.11928862 0.029261954 0.031409688 9210507
0.33560425 0.081390843 0.027152613 9737375
0.33775121 0.082247168 0.027037274 9933982
0.34024742 0.083588004 0.026669126 9802653
0.3429822 0.084880963 0.025996659 9671067
0.34571108 0.085809313 0.024961099 9736605
0.34799308 0.08748012 0.023998555 9605018
0.35015866 0.08879818 0.023018774 9472915
0.35345671 0.088116474 0.022775799 9735828
0.32873806 0.07992702 0.027121209 9868189
0.33163196 0.081176482 0.027354866 9933980
0.33408436 0.08224681 0.026755519 9934237
0.33604121 0.08334852 0.026342101 9999772
0.33841676 0.085273325 0.02450715 10196890
0.34095103 0.086801544 0.023790091 10131353
0.34417745 0.087848969 0.023621567 10000027
0.34732345 0.089133456 0.023437608 9802649
0.34961313 0.090293199 0.022393145 9341847
0.35139462 0.091547497 0.020376835 9078676
0.35261253 0.093123771 0.019513097 9341328
0.31901538 0.077381566 0.027313415 9933466
0.32162094 0.07846123 0.027184147 9078414
0.32447311 0.079670422 0.026812103 8815500
0.32728165 0.081340268 0.026774582 9539225
0.33001152 0.082117796 0.025786605 10000029
0.33288258 0.084658414 0.025171347 10131352
0.33492193 0.085710123 0.024467725 10262682
0.33628148 0.0864112 0.023998659 10196890
0.35176691 0.093056001 0.019121151 9013400
0.35286641 0.094355032 0.017465618 9012623
0.31265557 0.076112062 0.02710722 10065049
0.31563276 0.077676155 0.026851971 9999770
0.31790772 0.078868613 0.02666641 9802650
0.32033712 0.079561971 0.026344851 9342356
0.32331643 0.081131473 0.026351113 8816010
0.32699934 0.082895353 0.025267802 10197403
0.32903868 0.08394701 0.024564177 10263195
0.35369208 0.096726567 0.015065316 9078158
0.35442132 0.099599816 0.014083067 8750228
0.30315578 0.07360325 0.027545135 9341584
0.30630392 0.07442183 0.02723423 9473432
0.30910087 0.076134905 0.027071513 9605016
0.31151173 0.077919297 0.026493192 9802393
0.31397763 0.078984864 0.026364502 9671068
0.35396421 0.099863417 0.011495555 9012624
0.29473382 0.07153286 0.027669489 9801880
0.29691398 0.072315186 0.027312491 9670550
0.29984039 0.073358163 0.027035147 9210515
0.3025744 0.075271502 0.026648246 8815758
0.30484957 0.076962188 0.026628237 8947091
0.30757648 0.077814996 0.026187543 9341843
0.30969343 0.079870924 0.025504306 10196373
0.35420483 0.10134684 0.0094156489 8815246
0.35540438 0.10295904 0.0089917127 9077641
0.28760108 0.069906257 0.027759403 9801877
0.29004285 0.070995763 0.02739178 9604758
0.2926262 0.072906181 0.027308699 9210260
0.29548627 0.074062251 0.026922639 8881553
0.298511 0.075217478 0.026643436 8683917
0.30109954 0.076703109 0.026389323 8421004
0.30532783 0.077645823 0.024192598 9802132
0.3065131 0.07958471 0.024727274 9341067
0.35405529 0.10413624 0.0063634031 8617611
0.28134274 0.068942666 0.027509008 9407378
0.28412369 0.070378356 0.027425256 9604758
0.28692535 0.071621925 0.027284913 9407639
0.28932163 0.072866865 0.026512001 9276053
0.29179829 0.074490964 0.024946816 9144464
0.29405084 0.075712882 0.023751467 9275535
0.2964139 0.076613761 0.023419496 9012876
0.2997804 0.077714339 0.023224603 8881031
0.30258167 0.079062551 0.022898678 9406860
0.35441512 0.10603017 0.0044043325 8354440
0.3553986 0.1069938 0.0035503265 7365730
0.35747641 0.10858608 0.0016457308 6969148
0.36081967 0.10988188 0.0010955418 7166266
0.27269471 0.066778526 0.027633354 8683401
0.27493128 0.068334624 0.027573336 9275279
0.27755725 0.069355033 0.027402584 9341585
0.28018373 0.070224673 0.027259424 9473172
0.28257406 0.07083264 0.025943533 9604498
0.28504777 0.073087774 0.025455188 9671317
0.28785187 0.07453382 0.024487741 9408142
0.28997621 0.075629324 0.023754798 8880520
0.35669816 0.10995685 0.0012246473 6444103
0.35927317 0.11089272 4.2595901e-05 6772292
0.26565051 0.06556052 0.027737748 8683656
0.26806509 0.066707052 0.027638275 8881036
0.27078477 0.067661963 0.027681869 8946829
0.27286485 0.069711678 0.02728039 9078930
0.28035417 0.071938142 0.02514134 10130836
0.28179872 0.072683103 0.024642956 9999250
0.25676653 0.062933974 0.028079316 8881293
0.25890559 0.064097106 0.028001908 8486280
0.26175418 0.065688975 0.027673725 8486279
0.26390061 0.06691213 0.027130567 8749191
0.2665956 0.068384402 0.026136376 9275276
0.26879805 0.069985658 0.024884984 9670283
0.27124599 0.070930339 0.024523631 9867664
0.2743738 0.072225586 0.023927893 10065046
0.27750686 0.073385686 0.023941208 9867921
0.27974308 0.074981324 0.023484353 9407366
0.24744919 0.06092139 0.028480135 9538707
0.25003833 0.06195328 0.028674722 9538964
0.25276935 0.062894024 0.028250847 9538964
0.25516731 0.064441808 0.027778525 9341586
0.25788891 0.065961637 0.027432818 8617863
0.25986889 0.066693351 0.0260619 8749441
0.26256472 0.068747334 0.025603626 9275274
0.26473147 0.069864705 0.02485602 9538445
0.23907335 0.058407154 0.028870828 8748937
0.24107486 0.058808353 0.028961111 8617864
0.24358054 0.060532488 0.028610408 9407378
0.2459062 0.062151849 0.028348669 9472915
0.24913946 0.063444003 0.028053943 9670293
0.25080022 0.064628273 0.026792146 9999252
0.2529245 0.06572374 0.026059259 9999254
0.23172292 0.056986254 0.028978158 8617864
0.23385629 0.058183558 0.02887838 8486279
0.23682597 0.05920586 0.028667007 8420742
0.23882592 0.061130654 0.028642595 8354693
0.24121241 0.06185009 0.028448656 9078157
0.24532558 0.063158982 0.026806645 9867668
0.24744993 0.06425447 0.026073702 9998992
0.22267513 0.054862525 0.029084541 8617351
0.22482324 0.05599254 0.028642856 8815244
0.22787923 0.057504781 0.028606791 8683657
0.2306554 0.058705032 0.028737333 8420483
0.2328379 0.059922174 0.028002206 8749188
0.23559323 0.061470103 0.026858237 8551810
0.23796134 0.063124403 0.025876194 8749443
0.24076281 0.063223891 0.025844697 9604494
0.24322748 0.065435357 0.025662828 9801364
0.24539429 0.066552676 0.024915218 9933203
0.21600726 0.053233802 0.028983861 8420227
0.21850821 0.054702494 0.029354457 8157057
0.22064923 0.055694174 0.029060535 8420228
0.22323604 0.057421096 0.028565545 8749194
0.22715363 0.059770949 0.027400993 8946309
0.20930751 0.05178896 0.028894827 8814730
0.21171324 0.053199541 0.029107418 8617351
0.21488261 0.054882847 0.029041488 8485764
0.2170714 0.055615984 0.027556065 8222593
0.21978579 0.056508567 0.026069898 8945801
0.22195265 0.057626002 0.025322292 9275016
0.22384398 0.060011908 0.025672454 9012102
0.20039634 0.049013928 0.029788215 8617352
0.20291969 0.050305005 0.029378559 8551554
0.20602311 0.05158674 0.029078703 8748933
0.20880337 0.053092305 0.028562989 8880780
0.21111456 0.054096024 0.027688745 8683650
0.21328138 0.055213429 0.026941139 8683651
0.21603268 0.057337582 0.026493199 8617344
0.21892175 0.058827382 0.025496364 9209223
0.22108856 0.059944779 0.024748821 9340808
0.19310504 0.048376374 0.028850205 8814985
0.19613342 0.050340682 0.028966222 8419971
0.1990097 0.051741488 0.029049933 8616833
0.20125629 0.053508248 0.028139796 8814210
0.20373939 0.053867318 0.027573574 8749189
0.20463625 0.056172669 0.026683103 8551555
0.18479286 0.046289999 0.029098034 8683397
0.1875156 0.047551773 0.029097438 8617863
0.18956648 0.048652146 0.028727528 8683399
0.19189623 0.050585274 0.028136477 8617859
0.17560941 0.044137843 0.029280569 8551810
0.17782103 0.045543585 0.029037006 8749189
0.18027605 0.045948949 0.029055614 8946056
0.18285796 0.047178678 0.028638549 8880262
0.18541466 0.048725609 0.028401017 8683138
0.18766236 0.05001577 0.027293321 8748933
0.1675808 0.040902466 0.030850079 8748672
0.16868296 0.042047773 0.029957898 8683138
0.17098318 0.043337155 0.029478736 8748678
0.17396863 0.044875395 0.029152218 8617604
0.17658877 0.046574891 0.029110439 8617859
0.17894661 0.048174303 0.02793128 8880260
0.18119839 0.049335502 0.027154353 8814724
0.15905279 0.040014148 0.030046348 8486022
0.16184361 0.041464332 0.030155007 8551555
0.16484821 0.042570554 0.029914435 8486017
0.16799778 0.044094354 0.029666435 8814982
0.17032793 0.045083661 0.029030506 9209227
0.17177255 0.045828585 0.028532062 8946828
0.076972045 0.00052401068 0.058184285 9408410
0.079425722 0.0015713609 0.056970064 9474203
0.081455648 0.0023332674 0.056010429 9474202
0.082863808 0.0037302834 0.053789001 9473950
0.14480412 0.035222948 0.033092067 8551557
0.1474216 0.036586355 0.03191502 8486019
0.15030839 0.037850451 0.030972123 8551810
0.15292299 0.039397743 0.030459527 8486019
0.15574601 0.040399533 0.03047476 8486019
0.1581794 0.041993301 0.030017953 8683139
0.16359887 0.044971783 0.029484395 8617600
0.16580814 0.046111092 0.028722133 8748932
0.16801745 0.047250394 0.027959865 8683142
0.079565786 0.0044294563 0.053973261 9539995
0.08255434 0.00570605 0.052860629 9473948
0.085174397 0.0056227949 0.051717196 9474204
0.087015927 0.0071178637 0.049909335 9408154
0.13682091 0.033053767 0.032975953 9143942
0.13826545 0.033798687 0.032477569 8946563
0.14058159 0.035497829 0.031753447 8748675
0.1432541 0.03690552 0.031455368 8683141
0.14593999 0.038479935 0.030882992 8749189
0.14914966 0.039742019 0.030611839 8683654
0.15060036 0.041611686 0.029253934 8617346
0.081339858 0.0057970094 0.050243732 9408407
0.084219635 0.0081433253 0.050500523 9473947
0.086554602 0.0090875747 0.048446458 9408153
0.088732392 0.0096091852 0.047693171 9539220
0.091706529 0.011142903 0.046667024 9736597
0.093958236 0.012304073 0.045890156 9408150
0.1272676 0.029481094 0.034397703 9473423
0.13024166 0.031014735 0.033371612 9077902
0.13263479 0.032742757 0.031975165 8881032
0.13425334 0.034035832 0.032203458 8749189
0.13696374 0.035710633 0.03133516 9012364
0.13998254 0.037248079 0.031012729 8749192
0.14255111 0.037999351 0.030711781 8880776
0.077271052 0.0071401889 0.049838748 9605529
0.079480447 0.0082794791 0.049076479 9473943
0.082080953 0.0092996359 0.047837596 9605272
0.084692828 0.011593958 0.046966925 9539479
0.087297045 0.012227394 0.046320572 9408151
0.089768931 0.013114849 0.045192525 9276565
0.092072546 0.014210968 0.043871462 9144979
0.094945364 0.015313699 0.042504821 9407638
0.096654557 0.017110521 0.040934615 9342103
0.10806804 0.021527959 0.03815157 9144462
0.11027729 0.022667227 0.037389301 9472664
0.12015872 0.029328171 0.033177707 9276051
0.12316789 0.030206488 0.033150099 9473425
0.12527452 0.031664509 0.032651931 9341843
0.12771846 0.033025745 0.031963162 9143951
0.13046134 0.034284223 0.031390633 8420482
0.13338225 0.035633784 0.031299628 8814988
0.083054855 0.012313304 0.046705473 9473691
0.08644177 0.014487767 0.044422846 9211031
0.088421524 0.015505251 0.043666307 8750481
0.091193087 0.016612887 0.042268801 9013391
0.093454167 0.017986061 0.04121045 9342103
0.096070476 0.019117611 0.040365744 9407381
0.098807797 0.019927682 0.039277468 9341844
0.10078804 0.020979898 0.038403474 8947086
0.10314797 0.022677351 0.037718076 8223105
0.10576013 0.023949564 0.036787193 8749706
0.10813887 0.025806023 0.035950925 9341587
0.11065928 0.027510274 0.034933928 9342100
0.11377855 0.028088098 0.034377825 9209999
0.11638449 0.028891755 0.033780374 8815755
0.11876277 0.030873941 0.032976869 8947084
0.12133671 0.031867292 0.032371491 9341842
0.092598625 0.019756371 0.040808275 9407634
0.094807953 0.020895706 0.040046014 9538710
0.097263202 0.022389773 0.038935397 9407635
0.10001863 0.023751954 0.038013935 9210257
0.10246408 0.025115389 0.036935706 8289414
0.10495365 0.026123058 0.036447581 8618121
0.10845625 0.027228517 0.034835745 9669779
0.11036476 0.028447865 0.034344386 9670035
0.11273713 0.030141464 0.033860099 9538962
0.11537819 0.031033168 0.032614671 8815500
0.33999163 0.085734777 0.027260128 10196637
0.34218791 0.086442433 0.026838548 9933722
0.34473285 0.088176452 0.025976598 9736603
0.33305755 0.084518068 0.02700359 9868446
0.33593407 0.085390411 0.027207684 9933981
0.33835372 0.0868655 0.026980381 9868446
0.34106505 0.08843936 0.026184864 9868702
0.34352911 0.090236686 0.025405802 9671067
0.34599382 0.091509208 0.024493352 9736603
0.34832302 0.093056262 0.023238394 9605017
0.35063386 0.093908712 0.021789558 9144467
0.32641646 0.08330512 0.026919384 9275797
0.32938606 0.084462658 0.027023818 9868188
0.3323524 0.085847765 0.026890375 9933981
0.33410206 0.087527677 0.026343007 9802652
0.33655551 0.088571757 0.02556622 10262684
0.33924684 0.090595648 0.024862837 10262682
0.34123611 0.091697432 0.024088647 10131100
0.3504304 0.095605738 0.020678811 9078932
0.35231465 0.096823059 0.019380827 9144211
0.31851164 0.081123821 0.027353439 9999516
0.32004273 0.082406864 0.026750423 9605271
0.32261485 0.083538242 0.026433486 8683912
0.32537374 0.084940836 0.02634199 9012880
0.327939 0.086281858 0.025275961 10131354
0.33108839 0.087272003 0.025469124 10197146
0.3333475 0.088907227 0.025023874 10196889
0.35329705 0.098917805 0.016865976 9012623
0.31024757 0.079597682 0.027043235 9801882
0.31359792 0.081043929 0.026711658 9933723
0.31641477 0.082535036 0.026393108 9933979
0.31874529 0.084167659 0.026372317 9736858
0.32086125 0.085530482 0.025173374 8881547
0.32372972 0.087165989 0.023538511 9276040
0.35248259 0.10193225 0.015702134 9209230
0.35366923 0.10213203 0.013538867 9078415
0.35562938 0.103692 0.012444675 9341067
0.3047103 0.078600459 0.026728772 9012365
0.30660141 0.080382474 0.026744261 8486795
0.30967751 0.08126457 0.026566822 9538967
0.31201264 0.082509868 0.02582426 9933979
0.35399991 0.10383088 0.011681646 8946831
0.35461384 0.10512775 0.010169145 9209228
0.29737186 0.077357046 0.026556522 8420746
0.30006477 0.078895241 0.026538622 8617867
0.3029975 0.080312371 0.026540462 8683917
0.30625391 0.080778621 0.025760401 8749447
0.308198 0.082486495 0.025590941 9670289
0.35405323 0.10668048 0.0083962046 8814989
0.35620803 0.10727892 0.0089091696 8880003
0.28592032 0.073693275 0.027297523 9078673
0.28845054 0.075396903 0.026944499 8618637
0.29100981 0.076632902 0.026829343 8749451
0.29367247 0.077187069 0.026709553 8552330
0.29585814 0.078758635 0.025764927 8683656
0.2984519 0.080618836 0.024567973 8946569
0.30149147 0.081949629 0.023599163 9078154
0.30500537 0.083493225 0.024323326 8683651
0.35501561 0.1091711 0.0054766759 8353918
0.35723814 0.11111162 0.0038089976 6772802
0.36017194 0.11196067 0.002325017 7166523
0.36212412 0.11363117 0.0021232627 7231290
0.27949715 0.072582386 0.02720179 9539223
0.28241837 0.07368499 0.027254213 9012881
0.28480428 0.075900629 0.026975311 8683917
0.28809258 0.076788165 0.026712921 8881292
0.29039672 0.077173725 0.024553359 8815243
0.29279059 0.079348616 0.024395861 8881033
0.29504973 0.08098381 0.02395061 8946309
0.29640928 0.081684932 0.023481548 9275274
0.35521621 0.11092574 0.0039809924 8090749
0.35577473 0.11260682 0.0025268383 6905177
0.35825631 0.11363389 0.00090616103 6706240
0.27040324 0.070089415 0.027645931 9407636
0.27294269 0.071302436 0.027268443 9736087
0.275388 0.072853379 0.027251266 9407637
0.27796751 0.073875561 0.027259298 8947347
0.27997565 0.074788712 0.026940264 8684174
0.28339976 0.075668432 0.025672872 8881292
0.28632209 0.077090107 0.024556741 9275785
0.28899658 0.079133093 0.024105828 9012872
0.3573783 0.11508751 0.0004366897 6706499
0.2640762 0.069167055 0.027627446 9341586
0.26617604 0.070249587 0.027458273 9473174
0.26839787 0.071737461 0.027328908 9473430
0.27094141 0.073161662 0.026805114 9539220
0.27323425 0.075011544 0.025300704 9407373
0.27608082 0.076479487 0.024318535 9078410
0.27920863 0.077774689 0.023722738 8683653
0.28222707 0.078336731 0.024101712 8946825
0.28402489 0.079485118 0.023638636 9275786
0.28626111 0.081080861 0.023181792 9210250
0.25358129 0.066447265 0.028020818 9670293
0.25710651 0.068227813 0.027869843 9012879
0.25988573 0.069332086 0.027624045 9210000
0.2624653 0.070772424 0.027361784 9802133
0.2650623 0.07195919 0.026421368 9736340
0.26700085 0.073773287 0.026019346 9802134
0.24531388 0.064626016 0.028283264 9407379
0.2478884 0.065718032 0.028338388 9407379
0.25058419 0.066789694 0.027934954 9407636
0.2530697 0.068287879 0.027535185 9473429
0.25586069 0.069404438 0.027011536 9604498
0.25820452 0.070562467 0.025741454 9735822
0.23665686 0.062731721 0.028841984 8617606
0.23892322 0.063121922 0.028546754 8946569
0.24147773 0.064624079 0.028417934 9407121
0.24349593 0.065824039 0.028300971 9341588
0.2457478 0.066619389 0.028256677 9407380
0.2492988 0.066618472 0.02643846 9867924
0.25188619 0.069280334 0.026489414 9736594
0.22782835 0.059739824 0.02930982 8617863
0.22982478 0.060734861 0.028738376 8420741
0.23214743 0.061794855 0.028770916 8683141
0.23478802 0.063252717 0.028467767 8749189
0.23775657 0.0650509 0.027934838 9406861
0.23957546 0.066233449 0.025992043 10130834
0.24160455 0.067985177 0.025793325 9670546
0.24411128 0.069277816 0.024928492 9933461
0.2472432 0.068916723 0.025279921 9736338
0.21864496 0.057587702 0.029492419 8880520
0.22064385 0.058007054 0.029431991 8748938
0.22278674 0.059309483 0.029130612 8749194
0.22566809 0.060915794 0.028899342 8486278
0.22822315 0.061995916 0.028505117 8486277
0.23048592 0.063439548 0.028148059 8880775
0.23302965 0.065369047 0.027671527 9341068
0.23590729 0.067106262 0.026386019 9867152
0.23807411 0.06822367 0.025638416 9998996
0.21118934 0.055780612 0.029400177 8485507
0.21408291 0.057518862 0.029640436 8683143
0.21672845 0.058647238 0.02938737 8683400
0.2189267 0.05926726 0.029067546 8683402
0.22113965 0.060812 0.028921772 8551816
0.22415307 0.062287241 0.027069703 8814723
0.22609714 0.063995078 0.026900243 8880255
0.20451337 0.054206669 0.029698741 8551555
0.20762484 0.056012131 0.029477198 8420228
0.20975849 0.056390453 0.029575292 8485763
0.21936853 0.060468409 0.026344854 9275273
0.22067538 0.061847627 0.026395291 9077638
0.22198217 0.063226826 0.026445732 8683394
0.19828318 0.05382102 0.02976834 8682881
0.2009539 0.055244908 0.029154297 8617347
0.20342886 0.056435779 0.028863788 8485761
0.20582855 0.057168614 0.027960822 8485759
0.20876528 0.058330406 0.026696887 8880254
0.21158756 0.059108902 0.026660286 9011844
0.21375434 0.060226277 0.025912739 8946051
0.21635668 0.061803445 0.025181871 9143431
0.18999904 0.0513951 0.029305641 8683656
0.19152838 0.052764621 0.029190857 8617605
0.19401228 0.053785469 0.029047407 8683141
0.19678283 0.054887522 0.028946575 8749189
0.19852383 0.057789583 0.027926784 8683136
0.20141293 0.059279479 0.02692996 8617342
0.20357971 0.060396791 0.02618235 8749178
0.20574653 0.061514188 0.025434803 9012353
0.18215661 0.049775489 0.029054478 8485764
0.18446045 0.05112993 0.029228874 8486020
0.18755125 0.052056652 0.029134899 8683142
0.1897563 0.054151952 0.02874314 8880002
0.19207202 0.055816356 0.028278403 9077634
0.17307357 0.047523104 0.029378209 8486018
0.17607643 0.048629969 0.029588237 8552067
0.17895797 0.049752776 0.029300328 8683142
0.18105523 0.051199649 0.028758422 8683395
0.18337677 0.052865203 0.028113108 8748930
0.18568712 0.054554455 0.027669854 8748677
0.16628109 0.046106592 0.029233329 8683397
0.16904284 0.047890697 0.029387336 8617605
0.17190126 0.047784135 0.029440563 8486017
0.17385231 0.050160658 0.028925933 8617857
0.17780702 0.051761664 0.028455339 8749960
0.074184403 0.00037957783 0.060206998 9473946
0.075924046 0.0014179619 0.05878536 9473945
0.078080587 0.0023293963 0.057614971 9539740
0.15738212 0.043693535 0.030021057 8683399
0.16047446 0.044954345 0.030021518 8683397
0.16260573 0.046403155 0.029222719 8617603
0.16505449 0.047966626 0.028969876 8814727
0.16711085 0.04954727 0.027400933 8551807
0.17061491 0.05008347 0.028125327 8486523
0.071979605 0.003367783 0.0583685 9408411
0.074137263 0.004122043 0.057392959 9474202
0.076332018 0.0048999432 0.056218687 9539740
0.14364643 0.03947771 0.032685269 9012360
0.14524435 0.040315334 0.031576205 8814981
0.14824401 0.041039906 0.03094957 8617863
0.15076305 0.043182503 0.030538198 8683143
0.15357569 0.043737397 0.030037433 8814728
0.15596217 0.045380279 0.029677283 8617606
0.15785831 0.047276866 0.028116003 8682884
0.15960079 0.049115755 0.028183293 8946565
0.073810659 0.006312191 0.055967297 9342614
0.074622735 0.0068663177 0.054601412 9474204
0.077886507 0.0071793296 0.053045299 9474204
0.079627305 0.0087400377 0.051213894 9474204
0.13783191 0.037833158 0.032816987 9472399
0.13910881 0.038675629 0.031750869 8946314
0.14187314 0.040254552 0.031435512 8749448
0.14489594 0.04178039 0.030879807 8815238
0.14713742 0.042761732 0.030230664 8683395
0.15531577 0.048259929 0.027787309 8485759
0.074324787 0.0079558352 0.052751321 9408153
0.07632529 0.0098846387 0.051540453 9473948
0.077681728 0.011057059 0.050061259 9473948
0.081661917 0.010106704 0.049602959 9473945
0.12526019 0.033297855 0.034284111 9538962
0.12751202 0.034459099 0.033507191 9670037
0.12979601 0.036263816 0.031994641 8354691
0.13318448 0.03786118 0.031463459 8814985
0.13525818 0.038999949 0.031364772 9078160
0.13796322 0.040743351 0.031293683 9012876
0.14061975 0.042629149 0.02998738 8881030
0.14282911 0.043768495 0.029225115 8880774
0.1450808 0.044929668 0.028448191 8683393
0.14805488 0.046463314 0.027422097 8748420
0.15030666 0.047624551 0.026645176 8815753
0.15175124 0.048369467 0.026146792 8354946
0.073259458 0.009453116 0.050082382 9605273
0.075316459 0.010278861 0.049205597 9671321
0.077993214 0.011113126 0.048319358 9473945
0.080248311 0.01296558 0.046981853 9605274
0.082625844 0.014168527 0.045847442 9539480
0.084675983 0.014897533 0.045261364 9473430
0.088115118 0.016173558 0.044288471 8881288
0.091089167 0.017707197 0.043262381 8552834
0.11647739 0.032278076 0.033568282 8683914
0.11840668 0.032492183 0.033340443 9012618
0.12063166 0.034034979 0.033177849 9275534
0.12339937 0.035879415 0.032408159 9406865
0.12642273 0.037187919 0.031938616 9341328
0.12868613 0.038509313 0.031366635 8749189
0.13086255 0.039478529 0.03076686 8683141
0.13406487 0.041279566 0.029437467 9012621
0.075142384 0.01224814 0.047892597 9408149
0.076906823 0.013731915 0.047549874 9539737
0.078744628 0.014879799 0.046490792 9605018
0.08126229 0.016395627 0.045138545 9539479
0.084156133 0.017518036 0.044033222 9276308
0.086478636 0.018469607 0.043113608 8553358
0.089087278 0.019756682 0.042172354 7960706
0.091588572 0.020886131 0.041138619 8618377
0.093715861 0.022252573 0.040000387 9407381
0.096200727 0.023579665 0.039430924 9407636
0.098559968 0.025270356 0.038358182 9473429
0.10113291 0.026949223 0.03672795 8487050
0.10471392 0.028077509 0.036400069 8354948
0.10655779 0.030123705 0.035195053 9144464
0.10938178 0.030410258 0.035247304 9473171
0.11177254 0.031766113 0.034311246 9341842
0.11455972 0.032910619 0.033935767 8947085
0.1173566 0.034542456 0.033133801 8881034
0.09469419 0.026365807 0.038341865 9341588
0.097461119 0.026917219 0.037521359 9341586
0.10004059 0.027996125 0.036405589 8947342
0.10270882 0.02983203 0.0358827 8289413
0.10541958 0.03038311 0.034841929 8617861
0.097377032 0.029103125 0.035541922 9210515
0.098821521 0.029848089 0.035043538 9013392
0.10332508 0.032170456 0.033489682 8486519
0.33739012 0.089337453 0.027606111 10065052
0.34025669 0.090629719 0.027090147 9999517
0.3426846 0.092322692 0.026083663 9736860
0.34518453 0.093464099 0.025484763 9802137
0.34766263 0.09487462 0.024610661 9933466
0.3291035 0.0872375 0.027282402 10065307
0.33139423 0.088456519 0.027284712 9999516
0.33395484 0.089488849 0.027085301 9933980
0.33598238 0.090927444 0.026641387 9802654
0.33871695 0.092290156 0.026444275 9999774
0.34159064 0.093963824 0.025872618 9802652
0.34416357 0.095270596 0.025165815 9605274
0.34685716 0.096381925 0.023922704 9736604
0.34935886 0.097470939 0.022577949 9341589
0.35141334 0.099056602 0.020925473 9078419
0.32435662 0.086975202 0.027117074 9078412
0.32706153 0.088126235 0.026956018 9341845
0.32982174 0.089940779 0.025997825 9802652
0.33227319 0.091011301 0.026078306 9934235
0.33482629 0.091836892 0.025911991 10131097
0.33760482 0.093796 0.025398437 10327964
0.33966154 0.094894506 0.024644863 10328481
0.35069561 0.10059475 0.020632468 8881814
0.35287413 0.1012173 0.018872377 9144209
0.3545118 0.10382325 0.017588016 9340813
0.31593701 0.084555656 0.027180862 9999769
0.31819952 0.086242132 0.026651461 9933722
0.32094646 0.087512448 0.026350196 9276050
0.32353655 0.088589527 0.026129674 8947340
0.32570252 0.09045051 0.025012944 9276048
0.32808369 0.091642082 0.025111079 9933983
0.35249197 0.1029747 0.017287461 9209486
0.35335523 0.10443413 0.015441239 8881294
0.35523236 0.10552024 0.014026564 9406606
0.30715257 0.082839616 0.027011313 8946313
0.30909511 0.083537437 0.026692335 9210517
0.3115637 0.084454603 0.026785325 9736602
0.31427306 0.086061083 0.026692685 9802651
0.31709722 0.087742642 0.02625658 9802908
0.31975716 0.089025803 0.02617415 9539224
0.35338789 0.10616311 0.013620988 9012365
0.35368064 0.10722376 0.01298482 9012366
0.30223256 0.082725838 0.026566327 8814987
0.30473128 0.083885305 0.026721772 8552330
0.30751032 0.084795199 0.026622057 8618381
0.31005624 0.086676948 0.026325259 9473686
0.31278482 0.088233083 0.026269909 9868185
0.35396534 0.10850177 0.010546759 8946830
0.35530192 0.11031905 0.010485651 9143948
0.29337013 0.080118857 0.026658293 8618378
0.29579815 0.08105804 0.026685543 8683659
0.29778937 0.082562812 0.026704568 9012623
0.30060714 0.083793819 0.026248354 8749708
0.30375957 0.085974686 0.024137054 8815236
0.30612794 0.086740404 0.024414368 8946822
0.30791214 0.087730363 0.025266685 8683908
0.35444686 0.11139616 0.0073055103 8814730
0.35598925 0.11316435 0.0061566997 7959158
0.28415343 0.078482062 0.0275147 8618383
0.28657883 0.078841336 0.026895124 8947087
0.28961194 0.080217659 0.026956178 8749453
0.29260364 0.081931718 0.026577719 8618121
0.29464856 0.082720362 0.026179481 8880778
0.29687229 0.083251327 0.02426539 9341325
0.29925194 0.085418873 0.024112839 9209480
0.30148271 0.087039471 0.023677364 9275015
0.3553322 0.11446195 0.0043837093 7958644
0.35851032 0.11577662 0.0033831 6706496
0.36063462 0.11687208 0.0026501548 7100731
0.36275896 0.11796758 0.0019172095 7297342
0.27687111 0.076221526 0.026905783 8486539
0.27976894 0.077250041 0.027063891 8354952
0.28213155 0.079102546 0.026821245 8749194
0.28535667 0.080458924 0.026964508 8946831
0.28940088 0.080752209 0.024968971 9012871
0.29112574 0.082526863 0.025002886 8880775
0.29339027 0.084137082 0.024536144 8880260
0.29547212 0.085210651 0.023817856 9341323
0.35506108 0.11654793 0.0034072362 7761267
0.35633466 0.11720981 0.0011808258 6509898
0.27071232 0.075378627 0.027237803 8947086
0.2734029 0.076571807 0.026927758 8815500
0.27591613 0.078332879 0.026568543 8552330
0.27834898 0.080005161 0.025872339 8815494
0.28047457 0.081483468 0.024748914 9209476
0.28292257 0.082428247 0.024387561 9143690
0.28600785 0.083701462 0.023806479 8947079
0.25873199 0.071917631 0.028102148 9276312
0.26191214 0.072799712 0.027756881 9407637
0.26466531 0.074208722 0.027590957 9210002
0.26730078 0.075683512 0.027242519 8881038
0.26945445 0.077076904 0.027153496 8618124
0.27167922 0.078504749 0.02652622 8815757
0.27422491 0.080319755 0.025532078 8815233
0.25267327 0.070620291 0.027874544 9604760
0.25517854 0.072099306 0.027852327 9473431
0.25802109 0.072768763 0.027581751 9538964
0.2605032 0.074043997 0.027289543 9341585
0.26240996 0.076239392 0.02697311 9012366
