# .PCD v0.7 - Point Cloud Data file format
VERSION 0.7
FIELDS x y z rgba
SIZE 4 4 4 4
TYPE F F F U
COUNT 1 1 1 1
WIDTH 1148
HEIGHT 1
VIEWPOINT 0 0 0 1 0 0 0
POINTS 1148
DATA ascii
1.9867266 0.70528388 0.044848531 14078437
1.990185 0.70629036 0.041496411 13420244
1.9924654 0.70789385 0.042186942 13486295
1.995908 0.70969707 0.042266529 13617880
1.9987119 0.71206468 0.042361617 13618137
2.0003009 0.71077037 0.042458002 13815259
2.0037699 0.71351171 0.039767351 13355979
2.0066838 0.7140829 0.040475186 13421772
2.0097713 0.71480143 0.040873632 13553358
2.0125935 0.71871781 0.040504292 13619151
2.0138321 0.71726942 0.040783383 13684944
2.0206699 0.72079289 0.040205617 13948116
1.8289416 0.63502032 0.0585398 13947307
1.8313128 0.63721621 0.059466124 15789526
1.8365721 0.63969797 0.059770733 15987694
1.8672702 0.653494 0.053780101 16052975
1.8715804 0.65624273 0.054075986 15986922
1.8742639 0.65651578 0.053543784 15987176
1.8786479 0.65891665 0.054070901 15789798
1.8808937 0.65876579 0.053818751 15921126
1.8858782 0.66212082 0.053730745 15986919
1.8891143 0.66365176 0.050503377 14933729
1.9016782 0.66874212 0.050218172 15065827
1.9037449 0.67065179 0.04884275 15723505
1.9074036 0.67246532 0.049863584 14407642
1.9096471 0.6721859 0.049252994 14210002
1.9135443 0.67504299 0.049581319 13618381
1.9187413 0.67737114 0.047810473 12630976
1.9202577 0.67740136 0.049101818 14013402
1.9238467 0.67940712 0.04853848 13749718
1.9260701 0.68105823 0.047819681 13025487
1.9286289 0.68304932 0.048139486 14013142
1.9308875 0.68198192 0.048234276 13354453
1.9337496 0.68342787 0.045258127 11643574
1.9370488 0.68557137 0.045895509 12828359
1.9407614 0.68735212 0.046309404 12498888
1.9422101 0.68710715 0.045953806 12762824
1.9464612 0.68926811 0.044410385 11973050
1.9483411 0.69086939 0.045917764 13288910
1.9500329 0.69150227 0.043951195 12038589
1.9551693 0.69372916 0.044106118 12301764
1.9594487 0.69552147 0.042799219 11709624
1.9612752 0.6956777 0.044873476 12894410
1.9666866 0.69924384 0.044058587 13091793
1.9694831 0.69995797 0.040996403 11512239
1.9721231 0.70178318 0.042316772 12367814
1.9773412 0.70318395 0.040921304 12170176
1.9820619 0.70474041 0.040588964 13288653
1.9838382 0.70764792 0.040591959 13420498
1.9861618 0.70751601 0.041078839 13223376
1.9893966 0.70876855 0.04149884 13486292
1.9955168 0.71190518 0.038946025 13092807
1.997403 0.71343511 0.039283946 13158600
2.0002074 0.71346068 0.039458044 13224393
2.0028877 0.71545517 0.040205982 13290186
2.0059209 0.71637744 0.040452652 13421772
1.8272666 0.63809842 0.057046942 10265225
1.8388041 0.64302456 0.053943932 16710126
1.8439467 0.64530045 0.054343864 16447731
1.8472453 0.64735538 0.054631758 15855598
1.8499972 0.64859426 0.054169193 16250352
1.8528346 0.64940655 0.053728737 15921390
1.8539923 0.65112978 0.054720115 16513523
1.8568667 0.65118414 0.053084042 16052719
1.8610594 0.65257955 0.052807961 15789807
1.8621248 0.65488362 0.053838149 16118509
1.8654702 0.65544921 0.053015772 15526119
1.8682761 0.65461409 0.052549824 15131363
1.8715069 0.65957057 0.052144736 14999778
1.8736832 0.65861255 0.051954396 15065315
1.8789976 0.66187334 0.051489066 14933729
1.8813869 0.66116667 0.051262997 14933728
1.8865321 0.66435528 0.050959446 14999522
1.8926245 0.66828513 0.049349964 14407899
1.8951975 0.66852665 0.049007185 15328749
1.8980078 0.67005765 0.048756503 14012631
1.9005835 0.67207384 0.048373666 14933736
1.9035834 0.67195988 0.048268043 13815504
1.9066365 0.67354941 0.048431221 14143707
1.9088861 0.67576259 0.047908433 12499130
1.9124197 0.67548889 0.047341578 12695743
1.9171519 0.67850047 0.046125077 11380391
1.9210696 0.68055391 0.046040196 11248812
1.9254293 0.6814959 0.044963095 10722463
1.9277653 0.68345946 0.045161508 11117487
1.9311008 0.68483287 0.045493424 11512246
1.9341582 0.68803144 0.044833593 11709624
1.9357595 0.6867469 0.045070466 11643576
1.9392524 0.68894982 0.044762585 11906749
1.9440556 0.69111985 0.044202872 11972795
1.949123 0.69378203 0.043088622 11841207
1.9527533 0.69588757 0.042633355 11578034
1.9546512 0.69526488 0.042301249 11775418
1.9583457 0.69770962 0.041817091 11446452
1.9631037 0.69939613 0.041365776 11578039
1.9680247 0.70161307 0.04057952 11183279
1.9720929 0.70414257 0.039844133 11709369
1.9753599 0.70556474 0.040249698 11973056
1.9797022 0.70691693 0.040141605 12828103
1.9868336 0.71015161 0.037175689 12895428
1.9906824 0.71199393 0.03757365 12961221
1.9932458 0.71241111 0.038464434 13027014
1.8241963 0.6384154 0.054654725 11186625
1.8252708 0.64049518 0.055841915 9871789
1.8369073 0.64416683 0.053457491 16117725
1.8408148 0.64643216 0.054105815 16578800
1.8420548 0.64703757 0.052891091 16381432
1.8458061 0.64831448 0.054047883 15657965
1.8505012 0.65106916 0.05388372 14999778
1.8590133 0.65436119 0.052574567 15591916
1.8626111 0.65596718 0.048955604 14539485
1.8639841 0.65787166 0.050129347 15921145
1.8674263 0.65851474 0.04870069 14341856
1.875796 0.66217184 0.047900006 15592177
1.878482 0.66314197 0.047248118 13222354
1.8805912 0.66529495 0.048128642 15395057
1.883137 0.66546911 0.04768616 14012633
1.8867315 0.66832554 0.048177883 13881555
1.8886108 0.66753614 0.047752209 14473184
1.8918439 0.66845924 0.047590453 13091280
1.8947784 0.67097223 0.047948975 13025231
1.8995147 0.67312062 0.047680929 13288144
1.9064196 0.6755746 0.045428514 12169405
1.9081603 0.67739409 0.044691898 11445934
1.9114728 0.6790964 0.044682831 11050913
1.9138541 0.67925447 0.044895802 10590617
1.9158566 0.68039405 0.044717241 10524563
1.9191115 0.68180645 0.044982314 9604492
1.9221312 0.68364471 0.044882111 9933205
1.9248042 0.6840412 0.044733509 10525093
1.9280349 0.68514848 0.041713834 10987173
1.9299481 0.68642437 0.042244893 11513518
1.9329128 0.68765509 0.042155869 11579311
1.9360938 0.68886387 0.041943338 11711154
1.9391652 0.69022018 0.041836653 11776947
1.9439801 0.69206387 0.04058712 11974326
1.9472793 0.69408649 0.039810196 11974326
1.9509003 0.69586468 0.038951598 11974070
1.9544394 0.69784063 0.038157489 11645104
1.9571471 0.69947779 0.041227847 11183280
1.9666772 0.7034688 0.039996877 11315127
1.9778466 0.7081942 0.035800923 12566463
1.9811895 0.70886195 0.035825431 12763842
1.9840897 0.71108216 0.036651582 12829634
1.988557 0.71264112 0.03699863 12895428
1.8204418 0.63881326 0.052386355 16579838
1.8222651 0.64068848 0.05352392 15593462
1.8363439 0.64674115 0.051975839 13946800
1.8389275 0.6466459 0.051050775 15391685
1.8406882 0.64946878 0.05106103 15327709
1.84436 0.65050715 0.049822319 15920885
1.8467695 0.65137237 0.049865466 15065582
1.8500164 0.65276355 0.04997839 14473191
1.8531361 0.65304697 0.050072107 14736366
1.8552287 0.65532762 0.049646944 14473187
1.858119 0.65673208 0.049356736 14933998
1.8607743 0.65681893 0.049515579 15131373
1.8639667 0.65934718 0.049068462 13748956
1.8657261 0.66025519 0.048748955 14078679
1.8697721 0.66192794 0.048288189 13222354
1.8714782 0.66243374 0.048321087 14604771
1.8739268 0.66391605 0.04761859 13617618
1.8771979 0.66435432 0.04755836 13551827
1.8796724 0.66656888 0.047549777 14407138
1.8837028 0.66745251 0.044370655 10854312
1.8852373 0.66893673 0.047195975 12827851
1.8869274 0.66930366 0.04418106 10591143
1.8900964 0.67105442 0.044074252 10722986
1.8928008 0.67314237 0.044125967 10854055
1.8960593 0.67352641 0.04375042 10854313
1.8989867 0.67517877 0.044026755 10722472
1.9014738 0.67537379 0.043872289 10722731
1.9038711 0.67744255 0.04405839 11117229
1.9124845 0.68154633 0.041083738 10657947
1.9150212 0.68217319 0.041606545 10263189
1.9170742 0.68354136 0.041799221 9210761
1.9202774 0.68509936 0.041240465 9605266
1.9240471 0.68577778 0.041180421 10395038
1.9261217 0.68722069 0.041377861 11053225
1.9281847 0.68871295 0.041667812 11711154
1.9310889 0.68988276 0.041766107 11710898
1.9345453 0.69196796 0.040686876 11776947
1.9378779 0.6933229 0.040451214 11776690
1.942183 0.69429725 0.039981097 11908533
1.9463407 0.69596773 0.039048709 11908533
1.949985 0.69767684 0.038121779 11645361
1.9533546 0.69958055 0.037489317 11316138
1.9578005 0.70095134 0.036446378 11184297
1.9608003 0.70212251 0.036429666 10986918
1.9640878 0.70345694 0.036199242 11250346
1.9672472 0.70462048 0.03609838 11381933
1.9701693 0.70678735 0.035485864 11447726
1.9725841 0.70878214 0.035533205 12171192
1.9753909 0.70916665 0.03553991 12434620
1.9779413 0.71165824 0.035837743 12303289
1.9802086 0.71133721 0.036057919 12631999
1.8160545 0.63965344 0.051137313 16711675
1.8185633 0.63950711 0.052213982 16711421
1.8332309 0.64722729 0.049397681 10068138
1.8350183 0.64793187 0.049635187 10395036
1.8382752 0.6494199 0.048946284 12170149
1.8406489 0.65103781 0.048288114 13485242
1.8431662 0.65194851 0.048638828 14471127
1.8482375 0.65416569 0.046464346 11315127
1.8514221 0.65569699 0.046584781 11315129
1.8545913 0.65744776 0.046478029 11117746
1.8570789 0.65845418 0.046160728 10986161
1.8593919 0.65892076 0.046037883 10985903
1.8617897 0.6612494 0.045814592 11051697
1.8653575 0.66184235 0.045113612 11183281
1.8680234 0.66265249 0.044616941 11051697
1.8701146 0.66423935 0.045040186 10854316
1.8732586 0.66612947 0.044783562 10656677
1.8758122 0.66685331 0.044409145 10788007
1.8782642 0.66715217 0.044357188 10853802
1.8814042 0.66896719 0.044248417 10854056
1.884554 0.67086208 0.044062153 10788519
1.8875631 0.67231643 0.044273999 10525350
1.8924656 0.67452478 0.040928949 10592417
1.8950222 0.67543221 0.042711068 10854821
1.8980833 0.67654371 0.041092753 10724002
1.9000542 0.67810953 0.041349903 10921380
1.9031398 0.67915791 0.04112092 11053223
1.9060751 0.68040872 0.040855221 11381932
1.9089527 0.68136942 0.040863547 11250603
1.9110217 0.68282235 0.041049026 10263447
1.9135965 0.68316042 0.041730858 9737103
1.9455009 0.69804013 0.037980989 11842484
1.9486924 0.69963294 0.037456349 11447726
1.952535 0.7018128 0.03626655 10921382
1.9559511 0.70357805 0.035497468 10789795
1.9590948 0.70470113 0.035578512 10855332
1.9623724 0.7059558 0.0354257 11052968
1.9653964 0.70663905 0.035618469 11381932
1.9687934 0.70833313 0.035353862 11513518
1.812417 0.63991451 0.05029124 16711671
1.8311312 0.64855266 0.046461746 15198711
1.8344523 0.65097171 0.046461694 11317706
1.8375112 0.65187263 0.047324102 9805222
1.8389939 0.65244979 0.046659771 8750223
1.8449491 0.65515327 0.045367435 11512497
1.8476017 0.65582269 0.045301259 11118508
1.8502493 0.65767127 0.045356669 11052714
1.8527633 0.65945232 0.045190893 10986923
1.8555484 0.65967047 0.043895144 10790052
1.8583419 0.66089928 0.043749735 10592417
1.8611543 0.66193938 0.043509185 10724002
1.8641322 0.66362554 0.043719411 11118251
1.8666688 0.66519463 0.042849213 10921382
1.8694847 0.66634399 0.042743068 10724002
1.8721099 0.66730809 0.04280813 10460830
1.8750604 0.6685127 0.042496949 10460573
1.8780847 0.6698215 0.04195885 10658209
1.8808215 0.67091 0.041887216 10658209
1.8832612 0.67210168 0.041561276 10658208
1.885782 0.67320156 0.041258294 10592159
1.8889909 0.67382646 0.040597692 10460575
1.8903794 0.67598671 0.041005589 10526624
1.8938068 0.6766907 0.040949218 10789795
1.8960216 0.67828488 0.041041266 10921381
1.8259267 0.64829546 0.044362321 16579576
1.8286084 0.64897484 0.044442389 16711422
1.8295332 0.65033096 0.045799084 16382459
1.8323966 0.65147281 0.046863124 13751273
1.8357642 0.65328181 0.044423439 11251675
1.8409061 0.65537423 0.043472618 7631743
1.8434284 0.65670615 0.044398472 10788507
1.8463875 0.65771854 0.045309167 11184554
1.8545954 0.66173285 0.044189252 10658210
1.8576005 0.66277587 0.043718588 10000279
1.8603987 0.66412407 0.043600217 10263451
1.8633803 0.66523635 0.043197777 10855590
1.8168883 0.64711183 0.043649867 16579317
1.8192667 0.64648432 0.043632865 16513784
1.8219967 0.64924425 0.0436715 16513785
1.8241405 0.64963859 0.043710373 16513529
1.8265082 0.65158379 0.044108968 16514042
1.8294014 0.65315944 0.042377885 16119290
1.8318232 0.6522361 0.043480244 15592953
1.8343809 0.65536839 0.043009788 14013692
1.8401947 0.6579535 0.041606098 8355735
1.8421246 0.65781128 0.043176502 8947073
1.8124257 0.64612538 0.042249061 16314310
1.8140227 0.6488198 0.043040946 16644577
1.8167182 0.64839661 0.04243727 16711421
1.8210486 0.65051889 0.04142328 16250617
1.8236883 0.65267354 0.041653756 16053240
1.8258115 0.65180469 0.041355029 16053240
1.8278838 0.6543749 0.041166458 15789815
1.8313787 0.65516132 0.041537315 15723768
1.8331251 0.65677017 0.041454863 15131388
1.8384885 0.65918356 0.039230064 11119027
1.8141321 0.65041363 0.040135197 15129271
1.8169622 0.6503734 0.039884735 15985135
1.8187068 0.65248591 0.040633224 16250103
1.8218203 0.65388238 0.039939161 15460600
1.8245754 0.65447581 0.037789937 12104897
1.8269744 0.65632886 0.038097449 13091794
1.8306974 0.65778363 0.038283981 13617882
1.8324475 0.65802813 0.036730666 12170434
1.836139 0.65996242 0.03739652 12039357
1.8376659 0.66145223 0.037969459 11447982
1.812668 0.65209502 0.03811625 11772524
1.8150685 0.6528759 0.038070954 12364923
1.8184241 0.6541872 0.036911562 12301495
1.8211474 0.65502548 0.037332758 11973565
1.8239789 0.65666962 0.037072416 11841978
1.8261286 0.65804732 0.036556691 12631749
1.8288767 0.65905702 0.036276173 11579315
1.8314825 0.66009349 0.0364566 11579316
1.8344172 0.66119963 0.03638583 11513520
1.8143506 0.65511739 0.0356296 9799776
1.8172258 0.6555661 0.035448227 11315353
1.819693 0.65685886 0.035907254 11579311
1.822479 0.65819734 0.035648167 11447982
1.824209 0.65946162 0.035982303 11513775
1.8268371 0.66064894 0.035676099 11447982
1.8294772 0.66184604 0.035510443 11447982
1.832085 0.66287351 0.035359226 11382189
1.8121084 0.65585387 0.034631617 9602147
1.9949757 0.69795197 0.055963252 16185082
2.0041671 0.7017988 0.055055711 16053501
1.926957 0.66827273 0.062678181 13027523
1.9323053 0.67239982 0.062078893 12698559
1.9347911 0.67220217 0.061809435 12567229
1.9437706 0.67640549 0.060468454 12238263
1.9513611 0.68081415 0.059836306 12501176
1.9621149 0.68592155 0.05781902 13422028
1.9672685 0.68636918 0.059269395 13422279
1.9708093 0.69107133 0.058642142 13356746
1.9813412 0.69369125 0.057384945 16316664
1.9876996 0.69709295 0.057425555 16448249
1.99218 0.69831556 0.056105383 16382458
1.9969901 0.7012192 0.056561328 16382458
2.0004454 0.70168149 0.055807993 16316924
2.0084462 0.70744646 0.054015443 15658748
2.0126078 0.70868468 0.052863598 14672371
2.0156603 0.70866328 0.052462518 12041685
1.9191417 0.66832042 0.061136026 13224900
1.9235055 0.67056119 0.061818182 13224645
1.9252965 0.66959727 0.062087901 13093316
1.9304271 0.67309386 0.061906412 12830145
1.9396181 0.67838597 0.059974052 12303799
1.9424895 0.67828298 0.059594143 12238518
1.9490355 0.68301344 0.058352951 12238006
1.9587384 0.68672085 0.057980515 13355973
1.9665135 0.68996751 0.057270743 13422281
1.9704206 0.6913954 0.054669254 16448246
1.9755006 0.69300222 0.055725455 16316919
1.9781593 0.69514614 0.057022043 16316664
2.0005379 0.70463824 0.051967464 15790320
2.0074677 0.70732111 0.0517601 15724272
2.0086246 0.70896173 0.050054159 15921663
2.0120013 0.71116829 0.051605273 15329260
2.0163715 0.71270967 0.049632192 14341858
2.0213439 0.71562409 0.050571557 8554130
1.8990899 0.66104048 0.060646191 12830138
1.9060514 0.66389275 0.06042438 12698551
1.9110391 0.66701871 0.06042308 13290181
1.9133587 0.66651976 0.060402095 13356229
1.9169145 0.67023569 0.0603397 13290438
1.9223733 0.67235076 0.060937203 13290694
1.9651493 0.69111657 0.052861564 16382451
1.9689935 0.69313133 0.053888202 16447991
1.9726362 0.69490439 0.055091117 16382712
1.9934385 0.7036714 0.049794264 16053247
1.9944764 0.70563352 0.050210167 15790064
1.9985831 0.70693612 0.050730292 15790327
2.0011787 0.70634329 0.049874224 15987711
2.0037501 0.70932657 0.049412914 15197685
2.0057495 0.70929378 0.050347362 15987711
2.0095367 0.71180415 0.048072316 14473195
2.013638 0.71446508 0.048605565 15131381
2.017045 0.7146287 0.047699098 14868213
2.0206552 0.71551543 0.047080893 12895193
2.0231671 0.71916676 0.047752373 10198459
1.8907452 0.65887332 0.060654059 13750728
1.8936388 0.66152954 0.061219383 12566965
1.8963258 0.66157353 0.060773883 12566963
1.902236 0.66540927 0.060075607 12172464
1.9043709 0.66505748 0.059989091 12304049
1.9092482 0.66798282 0.060153302 13158595
1.9301478 0.67786682 0.054344065 16118773
1.9381906 0.68166864 0.053822063 15526890
1.9469897 0.68587887 0.052851677 15329765
1.9622558 0.69257569 0.052153718 15856109
1.966872 0.69410121 0.053646382 16316663
1.9855345 0.7018261 0.048675187 15724271
1.9886043 0.70400304 0.048737016 15592944
1.9918251 0.70545352 0.049488399 15526899
1.9969767 0.7086913 0.049429737 15921919
1.9995257 0.7090019 0.047886841 14803175
2.0027342 0.7107259 0.048015572 14539241
2.0052273 0.7114774 0.048177846 15197928
2.0074832 0.71297276 0.048237678 14472938
2.0105803 0.71567976 0.047430642 15066087
2.012958 0.71510726 0.04667481 14604774
2.0170197 0.71736747 0.044844173 14012637
2.0192714 0.71835679 0.0462199 14342107
2.0207925 0.7189815 0.046544895 13485786
1.8631239 0.64938653 0.060037602 14343122
1.8673166 0.65239257 0.060325712 14145486
1.8702602 0.65277886 0.059621215 14079692
1.8767257 0.6561029 0.059337873 13948362
1.8815851 0.65815121 0.059896208 13882826
1.8870273 0.6607399 0.060130499 13948365
1.9121294 0.67239118 0.054623045 15132131
1.9206824 0.67566073 0.05452133 16052979
1.9220877 0.67460221 0.054901548 16053231
1.9288404 0.68004245 0.053451337 16118769
1.9357452 0.68218601 0.053781368 15526633
1.9434716 0.68691576 0.052724071 15000544
1.952059 0.69076002 0.051832683 15000805
1.9564776 0.69038737 0.051374987 15461353
1.9589853 0.694179 0.051610216 15132902
1.9729277 0.6996249 0.047483746 16316158
1.979733 0.702595 0.047089219 15724020
1.9841683 0.70461553 0.047762848 15658484
1.9876168 0.70623028 0.048584141 15329514
1.9895028 0.70632076 0.047598995 15066097
1.9931543 0.70838308 0.046682574 14276069
1.9966753 0.71097243 0.04716352 14407654
2.0049722 0.71417791 0.04367331 13881564
2.0082393 0.71560013 0.044078983 14078942
2.0121164 0.71728939 0.044129424 14078430
2.0157814 0.71881592 0.044565022 14078430
2.0205154 0.72026753 0.044416603 14012383
1.840263 0.64194083 0.060367905 15264230
1.8473973 0.64463621 0.060071025 15329762
1.8516456 0.64774269 0.060276411 15001051
1.854079 0.64721543 0.060176495 14803673
1.856598 0.65092826 0.060202789 14408918
1.8599162 0.65025771 0.060037378 14408914
1.8654703 0.65325618 0.060138844 14211278
1.8729053 0.6564731 0.05970918 14079692
1.9049575 0.67050391 0.053942475 14211787
1.909988 0.67320108 0.054536272 15263463
1.9180659 0.67694342 0.054086529 16184562
1.9264071 0.68056977 0.053551249 16052972
1.9322796 0.68352658 0.050071567 15855352
1.9346542 0.68438411 0.052939728 15592681
1.9405768 0.68697363 0.04941019 15395061
1.9438032 0.68841839 0.048608322 14473435
1.9486015 0.6902976 0.048780505 14934763
1.9573566 0.69432855 0.047683906 14737646
1.9582493 0.69556564 0.046882045 13881301
1.9658231 0.69784772 0.046860814 15263987
1.9667358 0.69779909 0.046928726 14473693
1.970258 0.70150393 0.047012217 15131881
1.9723057 0.70088208 0.047022991 15460328
1.9764254 0.70336539 0.046547323 15592431
1.9788607 0.70585179 0.045835644 14868449
1.982531 0.70640051 0.047263138 15724271
1.9831061 0.70672715 0.04683587 15000550
1.9864289 0.7078371 0.045088515 14210277
2.0013433 0.71412623 0.042634819 13815515
2.0035493 0.71577358 0.04332868 13947100
2.0066178 0.71672475 0.043997046 13947100
2.008575 0.71683544 0.041332789 13487565
2.0103781 0.7186715 0.044039644 14144479
2.0146403 0.71986556 0.041210651 13684944
2.0175588 0.72200179 0.04092076 13816530
2.0215895 0.723894 0.040232688 14013909
1.8318841 0.64013731 0.06006889 16184291
1.8341417 0.63999605 0.059957284 16184557
1.8360217 0.6430431 0.060439788 15790059
1.8378681 0.64217943 0.060626656 15461353
1.8425368 0.64523256 0.060444135 14672090
1.8452237 0.64527661 0.059998635 15066847
1.8496445 0.64822626 0.060129013 15263968
1.8764828 0.6597957 0.054052345 15855337
1.8832064 0.66185749 0.054403495 15986925
1.8886811 0.66596621 0.053865828 16118513
1.89048 0.66515225 0.053839888 16184302
1.8938516 0.6697824 0.053374298 15790065
1.8956075 0.66887796 0.053571753 15790061
1.8988444 0.6687094 0.053236268 15395303
1.9041576 0.67289597 0.052564662 14145738
1.9085857 0.67547619 0.053217877 15263464
1.9180197 0.67871708 0.049201593 14407387
1.9248368 0.68160534 0.049772069 15789815
1.9292046 0.68346453 0.04806171 13354191
1.9304924 0.68401408 0.049407739 15526382
1.9331764 0.6850543 0.048537873 13420502
1.9366323 0.68757933 0.049159285 15329007
1.9385388 0.68878484 0.047466796 13486038
1.9425595 0.69093317 0.047686704 14473434
1.9449191 0.69138199 0.048841648 14803180
1.94748 0.69310546 0.046725549 13486289
1.9498557 0.69262445 0.047730088 14012883
1.9539913 0.69459206 0.045391791 13355468
1.9554776 0.69594866 0.047305327 14276318
1.9641297 0.69920599 0.046591144 14671337
1.9689145 0.70220482 0.046722561 15132397
1.9706081 0.70344603 0.044287056 13486798
1.9746299 0.70447385 0.044276137 13815253
1.9795462 0.70676571 0.043899938 14078688
1.9828128 0.7091583 0.044273999 14210277
1.9889755 0.71178961 0.041076638 13354705
1.9916307 0.71233642 0.042306259 13552084
1.9932516 0.71121156 0.04238826 13552086
1.9963176 0.71388197 0.042119876 13683674
1.9986777 0.71586502 0.042599488 13815261
2.0017414 0.71699494 0.041548751 13487057
2.0036442 0.71802592 0.040568177 13355979
2.0065534 0.71889639 0.040971272 13421772
2.0098546 0.72012609 0.040924832 13487565
2.0123096 0.72171789 0.041174456 13619151
2.016005 0.72323668 0.040896576 13750737
2.0198696 0.72482753 0.04045698 13948116
2.0235419 0.72641563 0.04024744 14013909
1.8281325 0.64004636 0.05829661 11711385
1.8301739 0.64182937 0.059528537 14999473
1.8342098 0.64375848 0.059975632 16119018
1.8516728 0.65162867 0.054741036 16250346
1.8595606 0.65505016 0.054258559 16184304
1.8637649 0.65797734 0.054337848 15921127
1.8677661 0.65738493 0.054179989 15986920
1.8708122 0.66049141 0.054487742 15920869
1.8736669 0.65999925 0.054349586 15920870
1.8786883 0.66390318 0.053864665 15986919
1.8810985 0.66344517 0.053833157 15986919
1.8842299 0.66533178 0.051088102 15065313
1.8857005 0.66647667 0.053942304 16315886
1.897753 0.67168057 0.049709186 15262950
1.9034801 0.6744588 0.050202414 14342363
1.9086133 0.67735004 0.0496713 13749715
1.9114503 0.67749846 0.048707865 13158346
1.9148598 0.67917025 0.047518935 11183536
1.9159433 0.68072802 0.04865253 13881816
1.9189646 0.68109488 0.048067346 13420756
1.9226453 0.68319154 0.048479766 14999783
1.9235618 0.68336689 0.047553763 13091281
1.9270036 0.68586993 0.047656149 13683669
1.9292911 0.68576366 0.048250906 15262695
1.9325653 0.68869287 0.046986569 13354706
1.9352564 0.68859667 0.046977267 14539229
1.9377146 0.69106889 0.045458354 12564678
1.9405566 0.69013596 0.046347626 14013397
1.9463209 0.69404578 0.045158792 13157324
1.9520226 0.69711739 0.044602372 12630983
1.9595202 0.69913524 0.043847267 12631240
1.9633936 0.70300233 0.043154482 12367561
1.9655285 0.70188349 0.04340563 12828877
1.9688677 0.70456207 0.043148987 12893904
1.9813855 0.70959389 0.040346246 13091275
1.9844528 0.71065974 0.040971402 13288913
1.9874129 0.71278566 0.040998727 13354961
1.9900849 0.71372133 0.0419866 13420497
1.992438 0.71477354 0.038796559 13027014
1.9946535 0.71594918 0.039166607 13092807
1.9978067 0.7168923 0.039579432 13158600
1.9999177 0.71791601 0.040360004 13224393
1.8262196 0.64259362 0.056967314 9410967
1.8292665 0.64379156 0.05840306 12302734
1.8390957 0.64788532 0.0535115 16644334
1.8422686 0.64906466 0.055008914 16447731
1.8443518 0.6483835 0.055091891 16316402
1.8469194 0.65265465 0.054861862 15592425
1.8492661 0.65284014 0.053937592 15329252
1.8552308 0.6554957 0.053867817 15723752
1.8613254 0.65820765 0.053711735 15592167
1.8641872 0.65794837 0.052169688 14999523
1.8660557 0.66107416 0.052861132 14802143
1.8691076 0.66096431 0.052110571 14802143
1.8744539 0.66439456 0.051630795 14933730
1.8770128 0.66376024 0.051243074 14999522
1.8797652 0.66788429 0.0510787 15131364
1.8821845 0.66665041 0.050957877 15065570
1.8849974 0.66855264 0.048381202 15460591
1.8890231 0.67070836 0.049619727 14933984
1.8911486 0.67096329 0.048330151 15131370
1.8941895 0.67290908 0.048889376 14539232
1.8964081 0.67321885 0.048863828 15855352
1.8991176 0.67533714 0.04813052 13749716
1.9015472 0.67658639 0.048571918 14407392
1.9046457 0.67755544 0.04767165 12894407
1.9097794 0.67942154 0.047507986 12302013
1.9131855 0.68089145 0.047400326 11249849
1.917114 0.68299282 0.046173021 10723241
1.9206576 0.68491703 0.046164531 11973049
1.9231012 0.68625152 0.045792796 12301507
1.9285471 0.68784374 0.0447203 11709366
1.9318624 0.68978 0.044694893 11840953
1.9342239 0.69160432 0.045043059 12828357
1.9365789 0.69198406 0.043997962 11906744
1.9397926 0.69400281 0.044366799 12630976
1.9420606 0.69360542 0.043347277 11972536
1.9466599 0.69560379 0.042745683 11644083
1.9515197 0.69771534 0.041971847 11248811
1.9555812 0.70070291 0.041063119 10920617
1.9592053 0.70249325 0.043119933 12829124
1.9612322 0.70239627 0.040250771 11117487
1.9648191 0.70441115 0.040018834 11249078
1.9696193 0.70634723 0.039475702 11512247
1.9732072 0.7079435 0.039521702 12170173
1.9759427 0.71061963 0.039281093 12038844
1.9781861 0.71010786 0.039978877 12104122
1.9820573 0.71259171 0.04068622 13157071
1.9865588 0.71495426 0.037340861 12829635
1.9894435 0.71571463 0.037896052 12895428
1.9919974 0.71717185 0.038632568 12961221
1.8230027 0.64246523 0.054903034 13685985
1.8249096 0.64407235 0.056194216 10529203
1.8380977 0.64980656 0.05239661 15591127
1.841197 0.65133399 0.053662799 16579061
1.8436527 0.65187901 0.052704345 16052467
1.8470581 0.65461105 0.053220898 15328745
1.8523662 0.65630698 0.049947783 14473448
1.8575337 0.65861458 0.049738713 13881050
1.8597444 0.65958208 0.04973229 16052987
1.8637098 0.66206098 0.04886701 14342107
1.8652134 0.66322303 0.049227431 13354455
1.8681151 0.66364491 0.048618846 14210014
1.8721157 0.66611516 0.048652269 14210013
1.8758345 0.66650587 0.047988057 14736609
1.8796349 0.66826487 0.047648899 13617362
1.8816137 0.66976541 0.048194505 15591921
1.8842255 0.67031622 0.047649171 13420495
1.8873016 0.67206806 0.047692485 13815002
1.8915031 0.67397815 0.047593318 13353937
1.8960989 0.67645317 0.047385901 13485525
1.9042485 0.67992383 0.044601396 11512240
1.9065261 0.68083006 0.04541143 11183021
1.9091024 0.68088883 0.04454758 10788255
1.9116666 0.68284029 0.044762909 9340809
1.9148648 0.68498963 0.044554949 9604758
1.9186478 0.68533283 0.045204591 10130857
1.9225112 0.6878497 0.044558723 11512244
1.9263551 0.69020677 0.044067901 11972542
1.929858 0.69148129 0.041191306 11776947
1.9444888 0.69770795 0.042216115 11446449
1.9501612 0.7013998 0.04033884 10985898
1.9545922 0.70286304 0.040002186 10591653
1.9582665 0.70514792 0.039672956 10854569
1.9598876 0.70402312 0.039754838 10985901
1.9628023 0.70685136 0.03927502 11051953
1.9671878 0.70803446 0.039352812 11183541
1.9706957 0.71001798 0.039272062 11841210
1.9770532 0.71359688 0.036206134 11908533
1.9792662 0.71352375 0.036449254 11974068
1.9817374 0.71469307 0.036620028 12500413
1.9841216 0.7156809 0.03723757 12829635
1.8210672 0.64381963 0.053018045 16382460
1.8355736 0.65106618 0.049821548 9869988
1.837625 0.65227818 0.051293716 13024950
1.839067 0.65225458 0.049370278 12630192
1.8431104 0.65413088 0.049678192 15459051
1.8458067 0.65554667 0.049895678 15262702
1.8482453 0.65694481 0.050201621 15065837
1.8511519 0.65731168 0.050052881 13617882
1.8544837 0.65937716 0.050194934 12762826
1.8569964 0.6602 0.049852673 14868708
1.8587052 0.66167867 0.049889252 13486041
1.8611301 0.66218716 0.049469389 14144222
1.8645499 0.66427517 0.049033392 14604774
1.870056 0.6667273 0.048500955 13024720
1.8736379 0.66725963 0.048158724 13881298
1.8782443 0.6698544 0.046614189 12696516
1.8816702 0.67165989 0.047027059 13091023
1.8822196 0.67213213 0.044102151 10919592
1.8852313 0.67382032 0.044297654 10722727
1.8894308 0.67480206 0.044369519 10656931
1.892375 0.67684317 0.044404104 10985639
1.8951132 0.67924583 0.044075541 11314606
1.8973398 0.67796487 0.044009943 11117228
1.8991174 0.68071353 0.04388155 11248816
1.9020416 0.68030572 0.044193901 11314606
1.9108021 0.68449998 0.041568074 9671314
1.9144181 0.68586719 0.041757945 9539733
1.916839 0.68803811 0.041116826 10526630
1.91917 0.68801188 0.041133337 10921384
1.9219552 0.68909049 0.041283522 11382190
1.9239957 0.68912995 0.041426994 11579569
1.9266016 0.69145793 0.040616907 11776690
1.9288086 0.69316161 0.04059539 11711153
1.9329568 0.69433337 0.040018316 11645104
1.9370579 0.69555509 0.039228447 11645104
1.9407585 0.69745314 0.03856821 11579567
1.9445621 0.69992137 0.037219506 11316140
1.9479432 0.70174617 0.036378101 11316140
1.9609526 0.70732224 0.035167657 10987175
1.9641312 0.70838565 0.035320953 11316139
1.9666715 0.71027333 0.035080425 11381931
1.969857 0.7116459 0.035069525 11644847
1.9725912 0.71248364 0.035738751 11776690
1.9749242 0.71416897 0.035778906 11776690
1.8112533 0.64275849 0.051331706 16711671
1.8145739 0.64384401 0.051364779 16711673
1.8166074 0.6453563 0.051477995 16711674
1.8189471 0.64501727 0.051302031 16711676
1.8340641 0.65218854 0.049267869 10330799
1.8358699 0.65346551 0.048883289 10001572
1.839597 0.65332782 0.048610579 12632253
1.8412048 0.65568948 0.048523419 13352890
1.8438987 0.65766382 0.048833013 14932962
1.8481915 0.65795624 0.046561677 11380661
1.8503071 0.65982234 0.046856791 11249332
1.8524628 0.66200817 0.046841811 10789041
1.8554875 0.66182059 0.046502091 10328228
1.8582716 0.66257834 0.046342645 10261670
1.8596988 0.66517293 0.046397131 10393504
1.8631676 0.66553032 0.045827664 11117233
1.8666338 0.66671288 0.045592647 11051695
1.8688897 0.66842365 0.045068495 10788264
1.8716905 0.66899109 0.044790387 10656679
1.874527 0.67055792 0.044902533 10525092
1.8764076 0.67145497 0.043684196 10657187
1.8794699 0.67341608 0.044425528 10854055
1.8827337 0.67439502 0.043083705 10657443
1.8876263 0.67680913 0.042819571 10723236
1.8914142 0.67817789 0.041334845 10855844
1.8938057 0.67973453 0.041378859 11053223
1.8971696 0.68014359 0.041526265 11118761
1.8992105 0.68153143 0.041694712 11184553
1.901437 0.68336552 0.04140171 11250346
1.9044483 0.68404579 0.040837035 11316139
1.9073356 0.68499988 0.040904351 10658210
1.9096191 0.68678421 0.04153464 9671317
1.9123769 0.68781263 0.041726302 10526626
1.9152539 0.68919206 0.041456688 11250348
1.9188744 0.69097006 0.040598147 11645361
1.9215851 0.69204825 0.040576953 11711154
1.9248874 0.69384181 0.039886743 11645361
1.92845 0.69574875 0.039024226 11513518
1.9316183 0.69741076 0.03856793 11381933
1.9365667 0.69861871 0.037422135 11579311
1.9400889 0.70020574 0.036869779 11316139
1.9437823 0.70247328 0.035686646 11184553
1.9469341 0.70374638 0.035472155 10921381
1.9508132 0.70430642 0.035422698 10921382
1.9543756 0.7062133 0.034560304 10724004
1.9567209 0.70816815 0.034331672 10789797
1.958904 0.7086755 0.034513503 10855590
1.9622012 0.71079171 0.034714293 11184554
1.9647305 0.71229529 0.03478593 11381933
1.9677366 0.71351564 0.035014182 11513518
1.8308557 0.65302175 0.046744984 15790071
1.8325633 0.65448797 0.047671657 12764634
1.8350346 0.65548575 0.045601744 11712210
1.8382515 0.6558001 0.046965431 9409184
1.8406248 0.65747309 0.045568485 8486019
1.843627 0.65929687 0.045257438 10787220
1.8463374 0.6600163 0.045453198 11315375
1.8487033 0.66181135 0.045539837 11052971
1.8509501 0.66374642 0.044858687 10987431
1.8536443 0.66415846 0.044481918 10395295
1.8565954 0.66556579 0.044014327 9868949
1.8596545 0.66627419 0.04365702 10000278
1.8625914 0.66741049 0.043434769 10724260
1.8652533 0.66869718 0.04333216 10987431
1.8680694 0.66955256 0.043353029 10658210
1.8710072 0.67052984 0.04299932 10329245
1.8734906 0.67267263 0.042627461 10526367
1.8764956 0.67453378 0.042645514 10526366
1.8787397 0.67449725 0.042350046 10592416
1.8810976 0.67672163 0.041852802 10657952
1.8842438 0.67646801 0.041353136 10526623
1.8858796 0.6784277 0.041682694 10724002
1.8895479 0.67943323 0.04154934 10921382
1.8923812 0.68072188 0.041503113 11118760
1.895179 0.68207002 0.041384745 11184810
1.9354268 0.70025814 0.03683681 11316139
1.9391 0.70236582 0.035808668 11184552
1.9427178 0.704373 0.034863424 10987174
1.9460939 0.70581865 0.034404378 10855332
1.9488672 0.70662785 0.034823351 10987174
1.9524677 0.70824593 0.03411974 11118761
1.955573 0.70965755 0.034041941 10921383
1.8260689 0.65324396 0.043936677 16513784
1.8282304 0.6543951 0.045166519 16513787
1.8305244 0.6567179 0.045450382 16645374
1.8327878 0.65747529 0.044138055 15658741
1.8363953 0.65823418 0.044892333 10923226
1.8420335 0.66090488 0.043183547 8421254
1.844686 0.66143119 0.044628255 11052450
1.8144144 0.65189755 0.043814242 16709858
1.8168325 0.65158963 0.043487027 16579058
1.8189341 0.65118271 0.043371566 16579577
1.8226398 0.65423781 0.043614816 16513785
1.8271759 0.65592444 0.043941334 16645629
1.8297454 0.65767145 0.042463183 16053238
1.8335726 0.65862489 0.042070836 15131902
1.8359897 0.66092992 0.04334135 12434679
1.8391135 0.66165173 0.04074879 10526925
1.8404378 0.6624648 0.041693978 8553111
1.8128622 0.65205359 0.041517109 15787190
1.8163195 0.65384078 0.042130105 16381680
1.8193183 0.65538633 0.041660808 16184569
1.8214741 0.65506768 0.042352602 16185079
1.8243144 0.65815532 0.041292135 16053241
1.8262123 0.65680981 0.041472409 15987705
1.8288879 0.65859383 0.039627045 15065588
1.831669 0.66028881 0.040944219 15394810
1.8379551 0.66283906 0.039200395 11973825
1.8391467 0.66344422 0.040408503 10724517
1.8114328 0.6536001 0.040927287 13877380
1.8148308 0.65494514 0.040028747 15458492
1.8173043 0.65659559 0.039164212 14800850
1.8195966 0.65654725 0.038604587 13946333
1.822395 0.65841949 0.039101895 14144226
1.8255962 0.66048354 0.03859124 13026002
1.8274419 0.66105735 0.038346745 12104899
1.8307734 0.66220349 0.038078286 12104897
1.8341721 0.66343021 0.037750967 12170690
1.8366028 0.66480374 0.03757916 11710646
1.8385041 0.66589868 0.038728431 11513775
1.8127975 0.65684181 0.038061272 10982757
1.8161006 0.65788937 0.037956096 11444601
1.8182185 0.65811896 0.038079776 12564406
1.8215795 0.66004169 0.036498293 11776438
1.8248373 0.66207671 0.03588995 11447982
1.8273869 0.66323286 0.035734817 11513775
1.8300798 0.66434073 0.035677608 11447982
1.8325539 0.66523647 0.035760365 11447982
1.8346199 0.66645563 0.035962194 11447982
1.8125912 0.65832782 0.034632642 9799786
1.8151062 0.65912461 0.034683187 9997420
1.8181114 0.66090965 0.034961443 11380888
1.8209864 0.66237819 0.035735033 11645360
1.8231227 0.66415673 0.035394285 11579568
1.825352 0.66472006 0.035876587 11579568
1.814449 0.66150045 0.034468103 9997422
1.972042 0.69330227 0.059876502 13356236
1.9830655 0.69702435 0.058110043 16382456
1.98646 0.70013958 0.058600862 16382712
1.9899153 0.70060188 0.057847477 16382456
1.9937361 0.70099866 0.057138562 16316666
1.9962959 0.70511985 0.057204187 16316666
2.0001018 0.70573628 0.056268033 16382458
2.00403 0.706563 0.055306721 16250876
1.9281362 0.67399138 0.06182624 12764351
1.9369313 0.67834198 0.060419608 12238006
1.9628905 0.69054866 0.057788454 13487814
1.9680443 0.69397593 0.057538677 13356489
1.9706701 0.69429517 0.058110807 13488074
1.9760258 0.69610614 0.056639679 16250874
1.980281 0.698843 0.057367839 16382456
2.0081785 0.71184993 0.054587193 15395575
2.0125358 0.71286201 0.053291991 13816805
2.0183468 0.71574581 0.050889727 11579845
1.920693 0.67351556 0.060501918 13356232
1.9263887 0.6765359 0.06048315 12830142
1.9342822 0.67991805 0.059896205 12040884
1.9429083 0.68419665 0.058651224 11843760
1.9468036 0.68378258 0.058276705 12172467
1.9502654 0.68845356 0.057800464 12041137
1.9532508 0.68832201 0.057341628 12303796
1.9558076 0.68809402 0.057566293 13027519
1.9578805 0.6912325 0.058168229 13224642
1.9611193 0.69167244 0.057363752 13553348
1.9652987 0.69406056 0.057980321 13422026
1.9710079 0.69639862 0.054486334 16382456
1.9728575 0.69775987 0.056226254 16250872
2.0026643 0.71045214 0.051561691 15790064
2.0080678 0.7131896 0.051729664 15658222
2.0096617 0.71439868 0.049731668 15921663
2.0190978 0.71866626 0.048774123 13092832
2.0206659 0.71813804 0.048819229 11051188
1.8920138 0.66279465 0.060701363 12632761
1.9000204 0.66656715 0.059757609 12106668
1.9075828 0.66892809 0.059945378 13224643
1.9122572 0.67244911 0.05972999 13684938
1.9140127 0.67154443 0.059927505 13487814
1.9171709 0.67592305 0.05949752 13356227
1.9195845 0.67523599 0.059552658 13356230
1.9241046 0.67846543 0.05972629 12764606
1.9327505 0.68290371 0.058326323 12040884
1.9398243 0.68511933 0.058494635 11909297
1.9652671 0.69552618 0.052973256 16316657
1.9682415 0.69818759 0.053780321 16250870
1.9933286 0.70839715 0.049654547 15856119
1.9956863 0.709512 0.051012367 15790064
1.9995946 0.71119368 0.050349385 15987711
2.0051346 0.71408772 0.048503086 14538986
2.0070231 0.71491301 0.049921028 16053247
2.0096116 0.7162118 0.048756886 14473194
2.0157533 0.71914458 0.048125058 14670828
2.0178523 0.71920985 0.048238017 13748699
1.8836281 0.66144919 0.06022894 14211535
1.8893665 0.66425622 0.060221225 13093314
1.8953059 0.66730475 0.060037404 12238261
1.8968405 0.66599876 0.060566068 12172465
1.9031112 0.67083555 0.059269808 13290179
1.906015 0.67090207 0.058875341 13224386
1.9103401 0.6734314 0.059398655 13816524
1.9565132 0.69499469 0.051551044 14803680
1.9621708 0.69690233 0.052572846 15330020
1.9867566 0.70766759 0.04866467 15856119
1.989876 0.70936084 0.049330823 15329770
1.9917895 0.71059853 0.049242061 16053759
1.9953184 0.71204424 0.048200913 14802917
2.0007396 0.71420699 0.047944732 14802664
2.0026717 0.71523076 0.048847355 14473450
2.0078614 0.71707672 0.048455015 14802407
2.0142202 0.72058117 0.045903765 14276064
2.0172024 0.72119033 0.045133077 14012639
2.0202863 0.72404009 0.046664778 12103863
2.022923 0.72454023 0.044715844 12695751
1.860846 0.65403467 0.060408052 14277070
1.8635886 0.65417916 0.059879709 14277070
1.8660443 0.65641123 0.060725212 14342862
1.8703641 0.65657032 0.060061365 14145487
1.8722408 0.65984637 0.060457163 14408913
1.8746357 0.65960765 0.060198344 14343119
1.877232 0.65961081 0.059763312 14211533
1.8802322 0.66383827 0.059286162 14408659
1.8823537 0.66286844 0.059528038 14343121
1.886865 0.66585898 0.059647772 13882827
1.894174 0.66909432 0.059156425 12501180
1.9243407 0.68163985 0.053226523 15987437
1.9311771 0.68532217 0.052780084 15526887
1.9378442 0.68893218 0.052495297 15132132
1.9406571 0.68895763 0.052111477 14803675
1.9476556 0.69286621 0.051564418 14803420
1.9539275 0.69583881 0.051570918 14803424
1.9749914 0.70498478 0.047150292 15657964
1.9810668 0.70809495 0.046950541 15921655
1.9853971 0.70949757 0.047409084 15197934
1.9907852 0.7112909 0.046149809 14407655
1.992751 0.71399969 0.047004081 14407653
2.0049381 0.7179783 0.043911245 14012893
2.0078833 0.72036779 0.043886095 14012893
2.0109887 0.72160816 0.044566937 14144478
2.0193141 0.72447121 0.044725943 14078432
1.8371629 0.6451444 0.061335251 14935262
1.840343 0.64571291 0.060526792 14606296
1.8458618 0.64877069 0.06055611 14869465
1.8526919 0.65240389 0.059864543 15000543
1.8550434 0.65207452 0.059829116 14671835
1.8567709 0.65543807 0.060231578 14342866
1.8589644 0.65495765 0.060148921 14277072
1.9072093 0.67693341 0.052736506 15395050
1.9147856 0.67872649 0.053211246 16250101
1.9217149 0.68386948 0.05212228 15855854
1.9277338 0.68703794 0.052136816 15527141
1.9358182 0.69032216 0.051860485 15132131
1.941236 0.69246602 0.048902668 14934510
1.9532651 0.69687742 0.047073968 14605798
1.961574 0.70033395 0.046553068 14145248
1.9667246 0.7039904 0.046216588 14540524
1.9678931 0.70376426 0.046843983 13947348
1.9711858 0.70581418 0.047061633 15461360
1.973164 0.70619875 0.046273537 14802659
1.9775743 0.7087006 0.046317209 15263206
1.9787097 0.70846379 0.047090501 16184575
1.98115 0.7099508 0.045392297 14539492
1.9848888 0.71206766 0.044962633 14275815
1.9894726 0.71308726 0.045639433 14341863
1.9936435 0.71542621 0.042205416 13683416
1.9971319 0.71725011 0.042279713 13683676
2.0013158 0.71975768 0.042923201 13881053
2.0035384 0.71950454 0.043498151 13881306
2.0074661 0.72168839 0.041162599 13487565
2.0098481 0.7232095 0.041458946 13553358
2.0127079 0.72547436 0.04116508 13619151
2.0143371 0.7244997 0.040951312 13684944
2.0171022 0.72664869 0.040815834 13750737
2.0206625 0.72768718 0.040831644 14013909
1.8319509 0.64482558 0.059881017 15789784
1.8344001 0.64674878 0.060890719 15789798
1.8401631 0.6493718 0.060858093 14737879
1.8428555 0.64988363 0.060379729 14474702
1.8502935 0.65287149 0.060036711 15132384
1.876092 0.66390014 0.054299641 16118506
1.8813499 0.66798651 0.053710826 16381423
1.883267 0.66700399 0.054042213 16315886
1.888193 0.6704877 0.053950232 16447471
1.8917741 0.67093134 0.053258512 16118512
1.8967081 0.67456532 0.052870944 15329510
1.899953 0.67454696 0.052239805 14869223
1.9053996 0.67834568 0.052152898 15329514
1.9131553 0.68140042 0.050533302 15394538
1.9211324 0.68485689 0.04858245 15920889
1.9272063 0.68736273 0.048555117 15591922
1.9339256 0.69006813 0.04883837 15263470
1.9399991 0.69346386 0.047836594 14671075
1.9464297 0.6965555 0.046825338 13881554
1.9514523 0.69851887 0.046403538 14474213
1.9533069 0.69963139 0.046275143 13749969
1.9587586 0.70268703 0.045954537 14144990
1.964994 0.70526278 0.046240613 14079453
1.9687562 0.7063905 0.043600928 12829126
1.9706993 0.7089209 0.044042729 12762567
1.9722682 0.70713049 0.043463789 12696520
1.9757879 0.70982164 0.044328988 13552082
1.979023 0.7124058 0.044230074 14143967
1.9855288 0.71402645 0.041002382 13354705
1.9884083 0.71474576 0.041987505 13420498
1.9911548 0.7171275 0.042121999 13486293
1.9947437 0.71867895 0.041530766 13355217
1.9985633 0.71958369 0.041355982 13421266
2.0007267 0.72081643 0.040552773 13224393
2.0029223 0.72191864 0.040941264 13290186
2.0054188 0.72362894 0.041060664 13355979
1.828077 0.64562726 0.058626413 11251354
1.8301046 0.64568913 0.059694149 14013369
1.8517075 0.6561473 0.054567605 15790306
1.8563415 0.65934837 0.054662425 16184813
1.859374 0.65916717 0.054416392 16052718
1.8637564 0.66211355 0.053732153 15262946
1.8659885 0.66163641 0.054463994 15789795
1.8692776 0.66179746 0.053959079 15855334
1.8709179 0.66489124 0.054458778 16118505
1.8735292 0.664675 0.054251052 16184298
1.8792436 0.66873676 0.053696249 16381933
1.885806 0.67147863 0.051986605 15920876
1.8902364 0.67434311 0.050450351 15394792
1.8936018 0.67446655 0.051399667 15658218
1.8984236 0.6768344 0.049401999 15394798
1.9034762 0.67970985 0.050408334 14868969
1.9062967 0.6800124 0.048795383 13947611
1.9086068 0.68092358 0.048001915 12829127
1.911563 0.68333149 0.047986314 13947102
1.9141763 0.68345499 0.04784986 14276832
1.9171371 0.68660778 0.047130249 13946587
1.920242 0.68720806 0.047215223 14933737
1.9241027 0.68850839 0.047507469 13683161
1.9257869 0.68970096 0.047020443 14868198
1.929319 0.69209766 0.046529766 13288401
1.931491 0.69140065 0.047317535 14276064
1.9326615 0.692909 0.046164934 14342107
1.9373826 0.69556391 0.044891011 12959692
1.9390305 0.69481325 0.046651993 14341849
1.9429111 0.69687575 0.044862337 12762060
1.9449916 0.69757122 0.045526087 13683920
1.9474918 0.70084441 0.044161614 12236228
1.9501941 0.70004374 0.044674359 13157584
1.9578527 0.70418537 0.042335663 12433858
1.9619116 0.70472658 0.042805821 12367049
1.9633693 0.70582348 0.042996872 12829382
1.966213 0.70839494 0.042801861 12433607
1.9774776 0.71296567 0.039770339 11512504
1.9805148 0.71374762 0.040453203 12433344
1.9830314 0.71553308 0.041039772 13156813
1.987005 0.71650106 0.041487649 13354961
1.9913675 0.71933806 0.038785338 12961221
1.9933012 0.72081822 0.039336123 13027014
1.996282 0.72145516 0.039927125 13092807
1.9983212 0.72271252 0.040519856 13224393
1.8242974 0.64608812 0.054968759 12765143
1.8262994 0.64636564 0.057126321 9805724
1.8438821 0.65390229 0.054465488 16250354
1.8447847 0.65598637 0.053248353 15855089
1.8486485 0.65731126 0.054297335 15460839
1.8516378 0.65678585 0.053604659 14802656
1.854118 0.66057152 0.054055966 15789801
1.8567762 0.66043246 0.053127635 15329000
1.8591338 0.65955633 0.052916069 15526124
1.8614601 0.66305059 0.053756401 15526375
1.8708837 0.66611671 0.051816009 14999521
1.875277 0.67050588 0.051137701 15328742
1.8774307 0.66958511 0.049950723 15394538
1.8836627 0.67265433 0.04904101 15065829
1.8874775 0.67356843 0.048391681 14341848
1.8889322 0.67538917 0.048995331 14933735
1.8918253 0.67633975 0.048860706 15197417
1.8949311 0.67826033 0.0484749 14736355
1.8968551 0.67854863 0.048741415 14802658
1.9001161 0.68021286 0.047826447 13947102
1.9018593 0.6809603 0.0480056 13355471
1.9057648 0.68262148 0.047557585 13091535
1.9090692 0.68400443 0.047820374 13552607
1.9128894 0.68638647 0.047223181 13552085
1.9173421 0.68760312 0.046119086 13354968
1.9195803 0.68912816 0.04614285 13814999
1.9207842 0.68915284 0.044260114 11643578
1.9246149 0.69160855 0.045933262 13683668
1.9297727 0.69214952 0.043997735 11840952
1.9324962 0.69536757 0.043862905 12630721
1.9361343 0.69769973 0.04435169 12828359
1.9385091 0.69619787 0.043755274 12302012
1.9435982 0.69945693 0.042775624 12039096
1.9497676 0.70271522 0.043482535 12828868
1.9558797 0.70476335 0.042321734 11972806
1.9601051 0.7069245 0.04245213 12104390
1.9653066 0.70904613 0.039443173 11117746
1.9681518 0.71161884 0.039271489 11183795
1.9707992 0.71372092 0.039362725 11183537
1.9735227 0.71317679 0.039476391 11512244
1.975672 0.71423763 0.039622866 11315125
1.9790497 0.71586066 0.039862789 11578036
1.9825091 0.71704435 0.037209585 12763585
1.9847757 0.71870828 0.037541468 12829635
1.9873512 0.71909088 0.03839802 12895428
1.9899507 0.72047544 0.038614057 12961221
1.8235881 0.64852107 0.053580362 15330295
1.8252398 0.64864469 0.05592075 10924221
1.8394194 0.65390921 0.05249789 15656656
1.8410811 0.65533209 0.053965099 16512748
1.8430648 0.65836567 0.052447826 16183795
1.8504307 0.66040719 0.050184734 13552342
1.8527455 0.66030681 0.050563354 14276577
1.8544271 0.66121733 0.050214719 14078935
1.8577971 0.66419494 0.049958527 13947095
1.8609153 0.66565794 0.049247548 14802410
1.8636625 0.6660105 0.049095616 15000042
1.8660284 0.66742456 0.049311735 14539237
1.8692932 0.66833246 0.048810542 14078429
1.8717635 0.66942376 0.0489868 14671074
1.8744663 0.67105848 0.048216466 13880793
1.8766981 0.67230284 0.048046678 13683409
1.8799113 0.67368126 0.047819644 14538466
1.8821635 0.6741311 0.048058894 14999782
1.8847229 0.67536718 0.047826268 13880789
1.8875623 0.676705 0.048025116 14736358
1.8921728 0.67887205 0.047695458 13682903
1.896541 0.68140358 0.047645837 13682904
1.899353 0.68321687 0.04471973 11380400
1.9009271 0.68214196 0.044588752 11446448
1.9040601 0.68398404 0.045474548 11775680
1.9076431 0.68562603 0.045179982 10459567
1.9107658 0.68747693 0.04459003 10327971
1.9125177 0.68671286 0.044351235 10065055
1.9151403 0.6892584 0.044058163 11314867
1.918728 0.69186926 0.044247378 12894152
1.9197348 0.69083321 0.043664146 11841212
1.9243718 0.692702 0.043352969 11906747
1.928094 0.69519699 0.04282739 11577780
1.9325333 0.69685471 0.042369738 11314349
1.9370903 0.69906652 0.041756976 10985640
1.9425899 0.70214796 0.040292375 10656935
1.9480159 0.70366871 0.039724465 11117488
1.952931 0.70588076 0.038867846 10722987
1.9563327 0.7077387 0.038804818 10722987
1.9597973 0.70958728 0.038772799 10920364
1.9623963 0.71189803 0.038782567 11051949
1.9639068 0.71057236 0.039030083 11051953
1.9734288 0.71527517 0.035758756 11316395
1.9755447 0.71667826 0.036157042 11513774
1.9785913 0.71745139 0.036412865 11710897
1.980989 0.7190572 0.036701955 12171704
1.8193136 0.64792567 0.05199419 16711420
1.8222214 0.65073681 0.052334286 16514046
1.8338248 0.65516466 0.049758144 10462634
1.83577 0.65649617 0.050780546 10856099
1.8390369 0.65658677 0.051705077 14536634
1.8441999 0.65910679 0.049596652 15261928
1.8460277 0.66026866 0.050214082 14274533
1.8488481 0.66124344 0.050261755 15197678
1.8529861 0.66334999 0.049905512 14078938
1.855091 0.66454011 0.04985708 12762571
1.8573632 0.6651057 0.049766455 15526644
1.8589838 0.66601026 0.05013483 13617627
1.8621277 0.66732275 0.046219125 11117487
1.8653138 0.6694625 0.045870505 11117488
1.8684829 0.67121315 0.04576369 10722734
1.8707076 0.67144156 0.04680318 11709116
