# .PCD v0.7 - Point Cloud Data file format
VERSION 0.7
FIELDS x y z rgba
SIZE 4 4 4 4
TYPE F F F U
COUNT 1 1 1 1
WIDTH 1099
HEIGHT 1
VIEWPOINT 0 0 0 1 0 0 0
POINTS 1099
DATA ascii
0.22475851 0.30510768 0.0018861294 9472919
0.22652154 0.30854934 0.0019112229 9340819
0.22883064 0.31023607 0.0019700527 9406613
0.2320811 0.31189087 0.002211988 9736352
0.23166528 0.31493443 0.0025497079 9736351
0.23433806 0.31655791 0.0021950603 9736352
0.23513423 0.32033646 0.0021378398 9735833
0.23723866 0.32202253 0.0020000935 9472920
0.23941103 0.32439822 0.0015250444 9538453
0.24169207 0.32684726 0.0014904141 9604508
0.24363354 0.32902491 0.0016365647 9735837
0.24547045 0.33030507 0.0014961362 9735836
0.24919032 0.33589444 0.0011273623 9867420
0.25232723 0.33806986 0.0011226535 9538719
0.25279915 0.34133032 0.0018410087 9472669
0.2551623 0.34343201 0.0014452338 9603992
0.25703034 0.34521681 0.0012510419 9866904
0.25842503 0.34785411 0.001735568 10130852
0.26568368 0.35748294 -0.0011895299 10656928
0.26803747 0.35883579 -0.00082999468 10591392
0.26966727 0.36033726 -0.0010734797 10525600
0.27041027 0.36483726 -0.00059044361 10657443
0.27324563 0.36672997 -0.00074255466 10591650
0.2749401 0.36818433 -0.00092595816 10525601
0.27782083 0.37042302 -0.0011050701 10591394
0.27957699 0.37699726 -0.0015013814 10788773
0.28150958 0.3782694 -0.0015845895 10789029
0.28446242 0.38008517 -0.0015067458 10789030
0.29134619 0.38876849 -0.0012716055 10196380
0.14991596 0.21518597 0.0078811049 7695983
0.15143661 0.21820708 0.0088649392 7432298
0.15543176 0.22222686 0.0066344142 8813179
0.15757562 0.22502838 0.0067187548 9471365
0.15921688 0.2274508 0.0072413683 9669263
0.16160497 0.2294641 0.0073747635 9735056
0.16388386 0.23230569 0.008025229 9669521
0.16622262 0.23427862 0.0070553422 9603986
0.16681249 0.23726861 0.0071006417 9604499
0.1688762 0.23908915 0.0063072443 9867409
0.1707018 0.24132939 0.0060437918 9670291
0.17270818 0.2431649 0.0057123303 9801618
0.17418317 0.24591632 0.0051173568 9736344
0.17692272 0.24758188 0.0051957965 9801624
0.17879026 0.24953744 0.0049972534 9801622
0.18652906 0.25972718 0.0044944286 9734783
0.18774477 0.26167142 0.0040447712 9800053
0.19021371 0.26473242 0.0045104027 9603448
0.19118483 0.26744166 0.0048692822 9209993
0.1936242 0.26855683 0.0040614009 9602917
0.19550034 0.2714895 0.0038987398 9668445
0.19689925 0.27416292 0.0031574368 9536863
0.19938545 0.2759296 0.0036159754 9273951
0.20101744 0.27787769 0.0030818582 9011044
0.20272812 0.28062731 0.0032868385 9075797
0.2041917 0.28355742 0.0026775599 9077349
0.20705964 0.2849769 0.0025358796 9406058
0.20778179 0.28964227 0.0024210215 9604746
0.20941257 0.29124033 0.0017524958 9538961
0.21195149 0.29324293 0.0019228458 9341591
0.2132224 0.29557851 0.0018877983 9472659
0.21571851 0.29719517 0.0018565655 9406608
0.2174881 0.30050579 0.0019108057 9604245
0.22014767 0.30210549 0.0019683242 9801626
0.22207668 0.30366912 0.0014515519 10064273
0.22320783 0.30664149 0.0018998384 9603985
0.22462699 0.308927 0.0016823411 9472397
0.22633402 0.31236103 0.0021063685 9537929
0.22831614 0.31394321 0.0015468001 9867413
0.23032914 0.31622723 0.0014712811 10130326
0.23286162 0.31911826 0.0018796921 10195864
0.23419324 0.32084087 0.002297461 9800852
0.23633823 0.32353598 0.0021027923 9603466
0.23916714 0.32709038 0.0018460751 10130061
0.24128105 0.32974645 0.0016542673 10129556
0.24341719 0.3323819 0.0014225841 9602701
0.24576172 0.33523142 0.0011339784 9932445
0.24698317 0.33681425 0.0010610223 10063767
0.24906598 0.33943126 0.00087201595 9932180
0.25121096 0.3421264 0.00067740679 9866642
0.25257874 0.34384501 0.00055325031 9997960
0.25438616 0.3468354 -0.0010454059 10064273
0.25700688 0.34969184 -0.0026257634 10064791
0.25830206 0.352027 -0.0021041036 10393756
0.25910524 0.3544825 -0.0017914772 10590878
0.26211384 0.35619164 -0.0016906857 10591391
0.14488015 0.2148129 0.0065973997 7828080
0.14969899 0.21951844 0.0061007142 7365216
0.15140456 0.2210663 0.0055621266 7891290
0.15394734 0.22407512 0.0058238506 8681064
0.15613036 0.22676793 0.0071971416 9865865
0.17430788 0.25166041 0.0044936538 9670552
0.1764636 0.25321129 0.003639102 9801363
0.17769107 0.25513813 0.0030797124 9801362
0.17947462 0.25736794 0.00279814 9735570
0.18152456 0.2591511 0.0025176406 9735053
0.18298987 0.26084733 0.0022709966 9800830
0.18546063 0.26333615 0.0019242167 9669238
0.18684979 0.26593819 0.0018597245 9866328
0.18873194 0.26869705 0.0026648045 9668715
0.19104329 0.27197975 0.002335906 9668710
0.19229491 0.27371261 0.0020147562 9668447
0.19404565 0.27608371 0.0018513799 9668185
0.19718015 0.27716717 0.00088113546 9339738
0.19947143 0.28106296 0.0029710531 8419680
0.20237693 0.28607452 0.000692904 9667401
0.20388541 0.28734273 0.00031393766 9733189
0.20528269 0.28938901 0.00091522932 9734494
0.20787996 0.2919713 5.7220459e-06 10129522
0.21027619 0.29436255 0.00044053793 10261125
0.21097323 0.29624835 -0.00032931566 9800337
0.21297751 0.29903421 -0.00052320957 9472137
0.21496652 0.30160791 -0.00086730719 9669773
0.21726973 0.30342093 -0.00089734793 9801364
0.220102 0.30444312 -0.00072962046 10065048
0.22091487 0.30980045 -0.00089871883 9406865
0.22303411 0.31130683 -0.00099873543 9341071
0.22509587 0.31248471 -0.00096195936 9406863
0.22917883 0.32133988 -0.0017407537 10065049
0.23142719 0.32275212 -0.0017207861 10065051
0.23401314 0.32489264 -0.0020757318 9867929
0.23642543 0.32716855 -0.0024709702 9736087
0.23868126 0.32820499 -0.0022540689 9736086
0.24037568 0.32965946 -0.0024375916 9670550
0.24087833 0.33562189 -0.002963841 9801621
0.24281086 0.33689401 -0.003047049 9999257
0.24489559 0.33794051 -0.0028047562 10065051
0.24767748 0.34042329 -0.0033521056 9867671
0.24826777 0.34510055 -0.0029820204 9801880
0.25050554 0.34601808 -0.0028393865 9801878
0.25250778 0.34699252 -0.002731204 9867414
0.14494698 0.21668798 0.0031652451 8220507
0.14688325 0.2183046 0.0043484569 7826018
0.14722058 0.22153673 0.0031896234 8284269
0.15031919 0.22183555 0.0042523742 7627866
0.18380287 0.26670259 0.0019091964 9670032
0.18574862 0.26834413 0.001768887 9603978
0.18920691 0.27095547 0.0015932322 9537395
0.19459419 0.27989766 0.0010330677 9339737
0.19688305 0.28212532 0.00067770481 9076050
0.19861749 0.28367832 0.00052845478 9009995
0.20036761 0.2859298 -0.0001167655 9405009
0.20313281 0.28872415 -0.00037372112 9930841
0.20515667 0.28983748 -0.00076347589 9866347
0.20398784 0.29421401 -0.000900805 10064783
0.20651881 0.29635042 -0.0010333061 9801621
0.21044257 0.29805398 -0.00067305565 9538707
0.21635669 0.30789351 -0.0013182759 9538706
0.21861002 0.3090553 -0.0011671185 9341072
0.22637866 0.31934664 -0.0017055869 10131099
0.23506017 0.33181176 -0.0028540492 9867415
0.23692816 0.33313093 -0.0029973388 9801878
0.23898993 0.3343088 -0.0029604435 9801621
0.24578114 0.34387067 -0.0031023026 9867672
0.14250904 0.21741441 0.0031956434 7957085
0.14381203 0.22094388 0.0017300248 8417632
0.14707589 0.22138657 0.0030611157 7891549
0.13581328 0.21506494 0.00056523085 6968372
0.13882188 0.21566746 0.0012967587 7429185
0.14088947 0.22038455 0.00077325106 8482387
0.1418352 0.22147641 0.00061160326 8152666
0.1323262 0.21167414 -0.001506865 6705201
0.13265736 0.21443754 -0.0003606081 6704936
0.13547021 0.21880598 -0.0010440946 7229732
0.13780442 0.22005405 -0.00057905912 7626300
0.1248707 0.20895138 -0.002612114 6574132
0.12764117 0.20973621 -0.0019807816 6705718
0.12922233 0.21166028 -0.0013402104 6573870
0.13092518 0.21456109 -0.0022301674 6704417
0.13334517 0.21716301 -0.0011278987 6835738
0.11975633 0.20446619 -0.0032070279 6444377
0.1218762 0.20705122 -0.0025444627 6179641
0.12548038 0.21077369 -0.0043376684 6310200
0.1267135 0.21287164 -0.0033525825 6704426
0.12822473 0.21574356 -0.0039474964 6703909
0.13066508 0.21846052 -0.0047208071 6506011
0.11957793 0.2093266 -0.0061143041 7431018
0.12232452 0.21014631 -0.0052633882 6443090
0.11577819 0.20904502 -0.0075746179 8419197
0.1216049 0.21424952 -0.006599009 6245424
0.12374324 0.21656629 -0.0070835948 6179101
0.33660066 0.43122834 0.0041451454 7296081
0.31322563 0.40525758 0.0037693381 11445933
0.31526622 0.40634507 0.0040914416 11511470
0.31717497 0.40765199 0.0042278171 11577264
0.31932226 0.41116476 0.0044502616 11577263
0.31987998 0.41487437 0.0046513677 11643055
0.32180169 0.41655084 0.0047305226 11577006
0.32341012 0.41796201 0.0047723651 11774126
0.32628381 0.42041722 0.0048540235 12168888
0.32878453 0.42240348 0.0049697161 12366267
0.33005977 0.42455116 0.0044488311 11905717
0.33247283 0.4271656 0.0043187737 10259857
0.33493009 0.42973912 0.0041089654 8218472
0.33781376 0.43329778 0.0036298037 7032371
0.28809428 0.37685525 0.0035429597 10853797
0.30573061 0.39953148 0.0031812191 11314091
0.30726948 0.40124011 0.0030317307 11379884
0.30918887 0.40304178 0.0030453801 11380397
0.31135616 0.40416023 0.0034218431 11445933
0.31420025 0.41078755 0.0042279363 11511470
0.31611961 0.41258919 0.0042416453 11577262
0.27568236 0.36610729 0.0033089519 10327197
0.27715904 0.36773783 0.0031651258 10327195
0.27913246 0.3689976 0.0033614635 10590368
0.28205487 0.37111303 0.0037073493 10788259
0.28439054 0.37390292 0.0033817887 10919333
0.28513277 0.37666729 0.0037526488 10853797
0.28579238 0.37935966 0.0039893985 10787747
0.28813297 0.38189903 0.0037950873 10458784
0.2907967 0.38420296 0.003900826 10392734
0.29265636 0.38580129 0.003985703 10458782
0.29435965 0.38827202 0.0032019019 10655647
0.29572922 0.39152312 0.0027516484 11050916
0.29799506 0.39411274 0.0024273992 11182761
0.29953387 0.39582145 0.0022777915 11248297
0.30139598 0.39729449 0.0024284124 11248555
0.30351418 0.39870441 0.0027532578 11248555
0.30748305 0.40493831 -0.0001270175 11117750
0.31061178 0.40952978 0.00044077635 11183542
0.31362861 0.41095981 0.00031346083 11315126
0.31660637 0.41670603 0.00031739473 11249071
0.31930053 0.41848394 0.00038844347 10788262
0.32062843 0.42073551 0.00011479855 11248549
0.32248709 0.4230442 -1.92523e-05 11840430
0.3242529 0.42588335 -0.00033098459 12235450
0.32616085 0.4273012 -0.00043988228 12301244
0.32830685 0.43017569 8.8453293e-05 11180960
0.33038968 0.43279275 -0.00010055304 8351605
0.33102563 0.43445501 -0.0019800067 9865104
0.17517771 0.24190985 0.010231912 9407901
0.26361749 0.35508883 0.0031554699 10590619
0.26493368 0.35722414 0.0029141307 10590620
0.26780653 0.35981792 0.0031331778 10590363
0.26985013 0.36128253 0.0028038621 10590881
0.27161694 0.36407062 0.0029785037 10656162
0.27365348 0.36590153 0.0029166937 10458784
0.27541816 0.36871114 0.0018885136 10130337
0.27708867 0.3713899 0.0024419427 10590114
0.27907366 0.37332392 0.0032384992 10722208
0.2809954 0.37565741 0.0026671886 10656932
0.28273758 0.37843919 0.0018914342 10985376
0.28485146 0.3810952 0.0016996264 10655909
0.28619382 0.38278008 0.00082677603 10327719
0.28833321 0.38546985 0.0013837218 10523802
0.29044709 0.38812587 0.0011917949 10392217
0.2919578 0.38963568 -0.00024980307 9999267
0.29427493 0.39205068 0.00023335218 10853803
0.29589355 0.39530528 0.0002117753 11116970
0.29767472 0.39669204 4.8458576e-05 11116715
0.29962698 0.3988781 0.00013363361 11248300
0.30143419 0.4023318 -7.3671341e-05 11182766
0.30403665 0.40363747 9.2387199e-06 11249075
0.3048526 0.40673229 0.00015729666 11248561
0.30724066 0.40858319 -0.00062859058 11314863
0.30922541 0.411035 -0.00049465895 11446189
0.31110829 0.41348496 -2.9981136e-05 11511479
0.31310362 0.41523504 -4.1723251e-05 11511730
0.31432179 0.41812366 -0.00097459555 11839923
0.31688866 0.42103058 0.00020903349 11380404
0.31828612 0.42256054 -0.00042843819 11380402
0.32083738 0.42440039 -0.00089877844 11709623
0.32070982 0.4277238 -0.0014850497 12169910
0.32352883 0.42996031 -0.0014883876 12038071
0.32674581 0.43230528 -0.001807332 11248295
0.32844195 0.43374529 -0.0021704435 10721432
0.32999128 0.43639833 -0.0024229288 8547949
0.15505558 0.22047938 0.011083007 9275272
0.1562669 0.22235568 0.011417806 9210518
0.15796204 0.22480576 0.010848939 9537936
0.15955384 0.22764662 0.010297954 9603979
0.16174611 0.22979772 0.010358632 9341587
0.16320184 0.23252103 0.0101372 9406865
0.16557336 0.23388588 0.0095289946 9275534
0.16727607 0.23629212 0.010208786 9341845
0.16881591 0.23953578 0.010055125 9342106
0.17162037 0.24093981 0.0098862052 9276315
0.1720871 0.24461004 0.010015309 9341852
0.17519972 0.24668904 0.0092946291 9276571
0.17735736 0.24740934 0.0093688369 9342107
0.17832772 0.25020191 0.0090997219 9276315
0.18178459 0.25553849 0.0076495409 9276316
0.233182 0.31925005 0.0028042197 9538974
0.25077474 0.341483 0.0011419654 9932437
0.25270399 0.34278372 0.0014180541 9866644
0.25564635 0.34734824 0.0013324022 9999268
0.25598094 0.35008299 0.0021191835 10722206
0.25869218 0.35210985 0.0024561286 10721949
0.26134399 0.35369125 0.0021742582 10327968
0.26298156 0.35457489 0.0014374852 10196901
0.26473147 0.35895875 0.0016610026 10065316
0.26718694 0.35970005 0.0017641783 10131110
0.26711071 0.36440501 0.0013744235 10262696
0.26986063 0.3658531 0.0012152791 10328745
0.27276871 0.36737114 0.0011078715 9933732
0.2728993 0.37185484 0.00082117319 9736352
0.27481887 0.37275741 0.00079518557 10262442
0.27771568 0.37466171 2.7418137e-06 10525610
0.28017887 0.37984523 0.00025272369 10460077
0.2831229 0.38115188 0.00027376413 10460077
0.2862761 0.38713086 -0.00065094233 10065059
0.28932747 0.38835222 -0.00092357397 10064801
0.29167488 0.39362592 -0.00070041418 10788261
0.29422599 0.39534363 -0.00079482794 10985900
0.29647124 0.39818144 -0.00056856871 10986158
0.29809171 0.4003728 -0.0008161664 10986158
0.29916346 0.40360275 -0.0012953877 11183530
0.30237123 0.40496844 -0.0010957718 11249323
0.3040632 0.40654811 -0.0013449192 11315116
0.30629089 0.41124457 -0.00039058924 11315373
0.31851867 0.42664006 -0.0016418099 11972530
0.32400101 0.43221116 -0.002340436 11249073
0.14899826 0.2165892 0.0092213154 6972522
0.15040895 0.21865436 0.010822892 8156281
0.15958999 0.22980715 0.011188984 9078680
0.16146222 0.23382255 0.0076588988 9407379
0.16307169 0.23533018 0.007275641 9407379
0.16622695 0.23775589 0.0082805753 9735566
0.16778752 0.23939575 0.0083036423 9735566
0.16937444 0.2427935 0.008734107 9604501
0.17215307 0.24398178 0.0079513192 9801615
0.17360267 0.24630742 0.0082711577 9670293
0.17477015 0.24820158 0.0077787638 9801362
0.1765838 0.25115538 0.0078107715 9670294
0.17922112 0.25394449 0.0075482726 9407384
0.17968996 0.25630704 0.0058433414 9735824
0.18246616 0.25846881 0.0061052442 9604499
0.18356802 0.26159984 0.0066543818 9276315
0.18533006 0.26358721 0.00573349 9276057
0.18799457 0.26504022 0.005587101 9276052
0.18893984 0.26867017 0.0060021877 9276055
0.19083112 0.27056342 0.0052013993 9209746
0.21469966 0.30013421 0.0023732185 9407643
0.21937899 0.3057577 0.0024141669 9209749
0.22321296 0.31166774 0.0024243593 9077910
0.22519709 0.31252322 0.0024582744 9209495
0.22737277 0.31336257 0.0026066899 9473181
0.22897302 0.31784672 0.0025702715 9670560
0.23145641 0.31820613 0.003010273 9604767
0.23462437 0.32487175 0.0025976896 9538196
0.23611374 0.32693005 0.001426518 9603992
0.23817919 0.32873955 0.001830399 9801365
0.24051392 0.33202767 0.0021885037 9603728
0.2418182 0.33387268 0.00089895725 9407127
0.24398857 0.33491415 0.0011286139 9603993
0.24579342 0.33850926 0.00078475475 9867161
0.24865815 0.34058902 0.00088715553 9604250
0.25075161 0.34620658 0.00070947409 9472924
0.25334138 0.34832755 0.0013067126 10327197
0.25525665 0.35068139 0.0015359521 10459042
0.25733805 0.35248274 0.0012634993 10327970
0.2593644 0.35459098 0.0016803741 10656155
0.26082572 0.35737419 0.0013748407 10393503
0.26255354 0.35945261 0.00045102835 10459297
0.26480415 0.36129528 0.00025117397 10524830
0.26717141 0.36298308 -0.00080710649 10591136
0.26908544 0.36962742 -0.001151979 10262429
0.27174619 0.37171784 -0.0013769269 9933463
0.27356979 0.37307805 -0.0014404058 10394014
0.27577162 0.37465638 -0.0014063716 10591395
0.27752936 0.37924525 -3.0517578e-05 10460075
0.2804004 0.38284937 -0.0017933249 10788773
0.28337705 0.38507986 -0.0019151568 10591652
0.28636697 0.39105475 -0.0014452338 10327709
0.28836665 0.39215451 -0.0014027357 10327707
0.29600728 0.40182045 -0.0013777614 11117738
0.14835121 0.22107175 0.0074388981 8417649
0.15064868 0.22219262 0.0075102448 9207423
0.15185854 0.22535881 0.0077669621 9602433
0.15401529 0.22836305 0.0083392262 9800847
0.15613915 0.229656 0.0082886815 9603986
0.15867969 0.23182057 0.0082096457 9538194
0.1611917 0.23521791 0.0080459714 9603985
0.16163971 0.23703337 0.0079889297 9603725
0.16318056 0.23955411 0.0071415901 9604495
0.16512261 0.24245203 0.0070749521 9670289
0.16681129 0.24402116 0.0063489676 9670031
0.16876264 0.24679987 0.0063592196 9736082
0.17106895 0.2492321 0.0060756803 9801618
0.17265558 0.25087109 0.0054870248 9735569
0.17453021 0.25341931 0.0053014159 9801102
0.17725265 0.25609979 0.0044735074 9867150
0.17817408 0.25836757 0.0052613616 9800843
0.18022709 0.26014629 0.005987525 9604501
0.18321817 0.26272881 0.0042517185 9735564
0.18382625 0.26495594 0.0050119162 9735308
0.185839 0.26689896 0.0049108267 9735305
0.18740687 0.26996824 0.0044235587 9800315
0.19034487 0.27246627 0.0043309331 9602934
0.19082494 0.27467328 0.00443542 9603456
0.19358592 0.27707249 0.0033867955 9471342
0.19586924 0.27913815 0.0030905604 9208414
0.19692905 0.28111306 0.003416121 8747601
0.19878469 0.28426403 0.0033910871 9207089
0.20088913 0.28677088 0.0028006434 9405538
0.20272261 0.28853151 0.0027772784 9931622
0.20406777 0.29120672 0.0026507974 9800835
0.20613576 0.29299363 0.0023261905 9800837
0.20867464 0.29490638 0.0018428564 9275276
0.20971064 0.29799727 0.0022925735 9406607
0.21171422 0.29979441 0.001989603 9735054
0.21444613 0.30330423 0.001524508 9735311
0.21639282 0.30449831 0.0016980767 9603987
0.21720113 0.30780518 0.001801908 9406348
0.21915872 0.3101902 0.0016877055 9143437
0.22095755 0.31215602 0.0016129017 9274512
0.22270152 0.31476223 0.0017053485 9603731
0.22540139 0.31679448 0.0022588372 9867417
0.22658846 0.31879917 0.0018876195 10130326
0.22884496 0.32152992 0.0016425252 9998483
0.23087084 0.32376289 0.0017130971 9406868
0.23457327 0.32921913 0.0019668341 9473437
0.23622683 0.33068588 0.0015038252 9341596
0.23806384 0.33151647 0.0013436079 9275804
0.24146709 0.33822468 0.00056958199 9603995
0.24305429 0.34090084 0.00016951561 10063506
0.24482089 0.34332937 8.9943409e-05 9932178
0.24694398 0.34521082 0.00026321411 9669781
0.24878374 0.34753859 0.00012558699 10129802
0.25045305 0.34909049 0.00012886524 10458766
0.25375509 0.35124394 -0.0019036531 10459550
0.25601935 0.35783136 -0.001837194 10394012
0.25827509 0.35886788 -0.0016202331 10525340
0.26066265 0.35968497 -0.0012177229 10591134
0.26430315 0.36615571 -0.00089240074 10591137
0.26594841 0.36790153 -0.0011273623 10722979
0.27510375 0.38012722 -0.0021409392 10723237
0.27770767 0.38238689 -0.0024217963 10854565
0.14506859 0.22041334 0.0064586997 7431009
0.14620341 0.22247882 0.0050247908 7299159
0.14822236 0.2239369 0.006105423 8351583
0.1495806 0.22586121 0.0075415373 9865346
0.15939826 0.23835787 0.0069438219 9538709
0.16120642 0.23947378 0.0068719387 9604757
0.17008071 0.25251704 0.0052201152 9604758
0.17201971 0.25508055 0.0044775605 9538966
0.17425902 0.25753981 0.003829658 9604757
0.17588629 0.25916657 0.0035204887 9604759
0.17819759 0.26140824 0.0039014816 9670292
0.1800286 0.26422307 0.00397259 9735827
0.18204615 0.26615199 0.0032859445 9735827
0.18343502 0.26894313 0.0040643215 9801360
0.18561162 0.27172559 0.0036543608 9801098
0.18778816 0.274508 0.0032443404 9800574
0.18964991 0.27671444 0.0011382699 9537910
0.19134441 0.27816883 0.0009548068 9603181
0.19510627 0.2835587 0.0027169585 8354405
0.19745666 0.28530681 0.0023075938 8551017
0.19965413 0.29026833 0.0021692514 9407112
0.20246637 0.29179451 0.0020045042 9473168
0.20406182 0.29652908 0.0018368959 9012889
0.20613109 0.29711473 0.00084513426 9406607
0.20850445 0.29870594 0.0011765361 9275537
0.2110994 0.30045661 0.00083887577 9801105
0.21209531 0.30283344 0.001298666 9472660
0.21410082 0.30685702 -0.0015351176 9670035
0.21483429 0.3103846 0.00044423342 9472143
0.21655142 0.31170771 0.00046628714 9405836
0.21891271 0.31268483 0.0010227561 9406091
0.22115414 0.31620172 -0.0017963052 9538446
0.22323392 0.31749868 -0.0016853213 9867671
0.23249526 0.3297132 -0.0025718212 9670551
0.23827365 0.3383556 -0.0026777387 9670036
0.24040009 0.33948639 -0.0025808811 9867415
0.2420667 0.34132266 -0.0031010509 9933465
0.24376357 0.34265184 -0.0032188892 9867671
0.24510658 0.34800175 -0.0029650331 9736085
0.24727239 0.34934202 -0.0030792952 9867413
0.25002491 0.35000774 -0.0025220513 10130585
0.25185719 0.35536274 -0.002124846 10591391
0.25412357 0.35689399 -0.0020307899 10525596
0.13996865 0.21849667 0.0043652058 7694692
0.14207795 0.21992986 0.0058012605 7102814
0.14543027 0.22291891 0.0043703318 7364946
0.17298865 0.2583853 0.0041954517 9801100
0.17850231 0.26420277 0.0028237104 9866378
0.17882055 0.26811832 0.0020552874 9670294
0.18156064 0.2705169 0.0016535521 9670036
0.18458955 0.27221984 0.0018941164 9669776
0.18632825 0.27363324 0.0016308427 9604233
0.18815403 0.27621692 0.0016924739 9734778
0.18936218 0.27906933 0.0022137761 9734249
0.19139872 0.28190082 0.0018264055 9536604
0.19261497 0.28508517 0.00023913383 8944982
0.19481778 0.28717276 -5.0187111e-05 8878924
0.1962183 0.28891614 -0.00035697222 9339217
0.19896427 0.29120219 -0.00047850609 9931619
0.20139958 0.29359564 -0.00076454878 10063745
0.20330042 0.29621184 0.00057512522 9997961
0.20510145 0.29873377 0.0012813807 9471622
0.206824 0.3015354 -0.0012072921 9538195
0.20925646 0.30339012 -0.0001218915 9800843
0.21076554 0.30499706 -0.00023579597 9866635
0.2116708 0.30780461 -0.00042331219 9603726
0.21342872 0.31086287 -0.001332283 9406864
0.21512313 0.31231731 -0.0015156865 9275024
0.21820204 0.31427497 -0.0016287565 9340814
0.22227527 0.32207489 -0.0020592809 9999256
0.22494875 0.32403696 -0.0021486878 9801878
0.22755007 0.32642192 -0.0024951696 9604244
0.22941799 0.32774124 -0.0026383996 9538707
0.23133942 0.33400989 -0.0027862191 9801879
0.23406239 0.33617839 -0.0030167699 9736084
0.23599739 0.33732525 -0.0030343533 9670035
0.24076858 0.34579352 -0.0033585429 9670293
0.24285084 0.34696522 -0.0031818748 9604755
0.13759135 0.21767651 0.0040326118 7760737
0.14118706 0.2220239 0.002822578 7562583
0.18802364 0.28167135 0.00044947863 9537919
0.18971802 0.28312576 0.00026601553 9274738
0.19964187 0.29787284 -0.0016787648 9604497
0.20311749 0.29960746 -0.0013946891 9275280
0.21974459 0.3208859 -0.0020995736 9999255
0.13179302 0.21614973 0.001414597 7692878
0.13479921 0.21687752 0.0020805597 8088411
0.13458687 0.2200121 0.00060433149 8480585
0.13653769 0.22124416 0.0010531545 8154458
0.12639941 0.21460487 0.00034612417 6573603
0.12885408 0.21524957 0.00087434053 7100210
0.13375551 0.22002706 0.00051182508 8284236
0.12154896 0.21030322 -0.0018886924 6705718
0.12423413 0.21278046 -0.0009201169 6442284
0.12747064 0.21755391 -0.0010754466 7164701
0.12960368 0.21977313 -0.0014918447 7559212
0.11377276 0.20325774 -0.0034593344 7169133
0.11526649 0.20520133 -0.0026263595 6311496
0.11624833 0.2072711 -0.0021421313 6376758
0.11881997 0.20844768 -0.001822114 6639670
0.12001206 0.21215586 -0.004694283 6375983
0.1225623 0.21324214 -0.0040889978 6704679
0.12366332 0.21559407 -0.0019288659 6704154
0.11048178 0.20287845 -0.0042114258 8222078
0.11218429 0.20511872 -0.0022870302 6113868
0.11765335 0.21105348 -0.0051850677 6310975
0.11741728 0.21438868 -0.0041454434 6836008
0.12012618 0.21515977 -0.0037918687 6507033
0.12221755 0.21797939 -0.0043308139 6572288
0.12364753 0.21977615 -0.0044606328 6768641
0.11378276 0.21187213 -0.0063719749 6444120
0.11565553 0.21404748 -0.0070146918 7166028
0.11053817 0.21074583 -0.0080935955 7629420
0.10744794 0.21164781 -0.0083894134 9010821
0.1088779 0.21344458 -0.0085191727 8023154
0.31079438 0.40785617 0.0040956736 11445677
0.31252965 0.4092983 0.0041918159 11511214
0.32240707 0.42347825 0.0045177937 11839923
0.32480058 0.42553839 0.004473567 10655134
0.32688141 0.42832896 0.0040064454 8942712
0.32828361 0.43050751 0.0035398006 7625562
0.32995415 0.43199673 0.0035759807 7491912
0.33264005 0.43428019 0.0036417842 7492403
0.30318812 0.4023433 0.0034617782 11379628
0.30467531 0.40446863 0.003195107 11380142
0.3068943 0.40517038 0.0036887527 11445677
0.30861974 0.40711346 0.0035222769 11445678
0.30918172 0.41146725 0.0044186711 11445420
0.31169951 0.41368368 0.0043630004 11511469
0.31337816 0.41579294 0.0042106509 11577519
0.31589979 0.41782144 0.0042536259 11774385
0.3185586 0.42037582 0.0042280555 12103094
0.32003778 0.42188114 0.0041497946 12234424
0.27492177 0.37019506 0.0036714673 10064023
0.27704492 0.37135449 0.0041277409 10590624
0.28443664 0.38440108 0.003908515 10524575
0.28706571 0.38685367 0.0039186478 10656162
0.28930202 0.38983944 0.0034373403 10853797
0.29089302 0.39117977 0.0031924844 11050915
0.29258561 0.39264855 0.0031886697 11116708
0.29512 0.39549622 0.0031942129 11116712
0.29731461 0.39839768 0.0028584003 11248298
0.29878739 0.40026924 0.0024634004 11379625
0.30076411 0.40234643 0.0024926066 11314345
0.30209541 0.40488523 0.001801908 11577258
0.30420929 0.4075413 0.0016101003 11380142
0.30632952 0.40996712 0.0027304888 11445421
0.30839041 0.41227961 0.00074309111 11183541
0.30972347 0.41607645 0.0015380979 11249334
0.31226164 0.41688964 0.0017754436 11314870
0.31458551 0.41785038 0.0016930103 11315126
0.31555343 0.41957876 0.00084090233 11380662
0.31751454 0.42425877 0.00040274858 12497085
0.31894457 0.42605546 0.00027298927 12497085
0.32102737 0.42867246 8.3982944e-05 10853280
0.32317236 0.43136758 -0.00011068583 8812414
0.32454014 0.43308625 -0.0002347827 5851729
0.32665411 0.4357422 -0.00042665005 7423804
0.15708537 0.22714414 0.012295902 9013399
0.15842317 0.22847065 0.011729777 8947863
0.2621817 0.35993308 0.0030061603 10129814
0.26381871 0.36195797 0.0029992461 10129813
0.26671049 0.36408263 0.0031353831 10524828
0.26947787 0.36605111 0.0032827854 10393244
0.27101678 0.3677597 0.0031332374 10064280
0.27288124 0.36910766 0.0033494234 9932694
0.27356362 0.37536171 0.0035249591 10656418
0.27510253 0.37707037 0.0033754706 10722465
0.27752098 0.3783761 0.0037949681 10722722
0.28000116 0.38081822 0.003790617 10656673
0.28233153 0.38336071 0.0035264492 10590367
0.29339319 0.39824978 0.00013428926 10920369
0.29926935 0.40486401 0.00049704313 10986162
0.30140918 0.40546516 0.00049722195 10986162
0.3017785 0.40936527 7.8380108e-05 11117999
0.30391079 0.41073868 5.3882599e-05 11117744
0.30702823 0.41617724 0.00041025877 11249583
0.31038448 0.4183813 -3.0577183e-05 11512493
0.31191692 0.42056218 -0.00080215931 11578030
0.3136318 0.42280331 -0.00050085783 11643826
0.31544834 0.42506483 -0.00057137012 11709621
0.31700683 0.42724705 -0.0010367036 11972541
0.31980768 0.42883891 -0.0013042092 11972542
0.14826743 0.22065404 0.011366725 9012361
0.1512969 0.22314528 0.011892259 9210259
0.15331097 0.22529183 0.012407899 9078935
0.15486097 0.22783396 0.012400746 9013143
0.15552889 0.23090428 0.011758804 8947353
0.15804088 0.23253462 0.011499465 9078679
0.16098481 0.23384137 0.011520445 9210520
0.16245559 0.23606387 0.011236548 9210521
0.16300645 0.23972028 0.010625601 9342106
0.16585346 0.2410977 0.010556519 9210523
0.16768914 0.24309751 0.0097327232 9276059
0.16927435 0.24607158 0.01077652 9276314
0.17217852 0.24843465 0.0099199414 9210778
0.17385751 0.25030175 0.0090773702 9276571
0.25778669 0.35663551 0.0022629499 9998745
0.26044595 0.35844272 0.0031225085 10130070
0.26190707 0.36093557 0.0023392439 9932695
0.26413393 0.36261016 0.0025049448 10327195
0.26613206 0.36521798 0.0027332902 10523544
0.26650491 0.36819959 0.0014510751 9867422
0.26932675 0.36990497 0.0018054247 9669525
0.2712543 0.37179637 0.0013806224 9998750
0.27315769 0.37404546 0.0020957589 10656412
0.27395648 0.37671685 0.00091642141 10525348
0.27634752 0.37890226 0.00080657005 10525605
0.27881557 0.3811543 0.0015824437 10788512
0.28033894 0.38419893 0.0007070303 10459557
0.28305382 0.3862212 0.00057846308 10196387
0.28424072 0.38943511 -3.7670135e-05 10459041
0.2860758 0.39174163 0.0001296401 10656936
0.28886929 0.39310977 -0.00036120415 10459819
0.2877079 0.39711064 -0.0003015399 10722733
0.29131132 0.39805439 -0.00034290552 11051431
0.29392174 0.40092626 -0.00011128187 11051690
0.29433981 0.40387106 -0.00022155046 10986157
0.2961342 0.4051778 -0.00046181679 11051950
0.29896742 0.4079518 -0.0002528429 11117741
0.30460012 0.41469243 -0.00052845478 11445933
0.30702451 0.41650125 -0.0010531545 11773623
0.30839229 0.41821992 -0.0011773109 11708086
0.31053737 0.42091498 -0.0013719201 11774384
0.31262016 0.42353195 -0.0015609264 11971505
0.31405011 0.42532873 -0.0016906857 12169140
0.31809667 0.43431932 -0.0027682185 9865874
0.32085261 0.43564111 -0.0028383136 9075325
0.14502224 0.21927203 0.010528088 7959163
0.15105315 0.22758947 0.010478377 9669518
0.15248314 0.22938627 0.010348618 9669261
0.15420899 0.23137756 0.0099695325 9471884
0.15621197 0.23355751 0.0099398494 9537931
0.15781917 0.23576894 0.0095282793 9603980
0.16038334 0.23851076 0.010168672 9407378
0.16347206 0.24238826 0.0083861351 9735569
0.16586415 0.24508512 0.0088707209 9538965
0.1685829 0.24726872 0.0082121491 9801362
0.17021158 0.25031269 0.0089308619 9407382
0.17134954 0.25193453 0.0084783435 9407381
0.17332324 0.25391129 0.0082651973 9341591
0.17651176 0.25655752 0.007963717 9144729
0.17832646 0.25851524 0.0072125793 9276316
0.18239695 0.26520255 0.0064117908 9342108
0.18408482 0.26950818 0.0066409111 9276315
0.18652703 0.27209321 0.0055395961 9276056
0.18818808 0.27318424 0.0052735806 9341846
0.22069915 0.31419435 0.0026166439 9538715
0.22214156 0.31684482 0.0038101077 10261651
0.22357151 0.31864154 0.0036803484 9998222
0.22542648 0.32069778 0.0029634833 9538453
0.22736858 0.32273698 0.0029722452 9472658
0.22929154 0.32582846 0.0031612515 9932437
0.23085956 0.32730019 0.0027108788 9736086
0.23237163 0.32883021 0.0024501681 9538707
0.23420329 0.33199993 0.0027155876 9799305
0.23637938 0.33473405 0.0025181174 9668744
0.23837829 0.33660176 0.0016645789 9406609
0.23989211 0.33914781 0.0021993518 9735056
0.2420371 0.34184292 0.002004683 9997962
0.24405131 0.34345704 0.0013524294 9603985
0.24626499 0.34715495 0.0016210079 10326678
0.24812679 0.34878728 0.0013136268 10262171
0.25001338 0.35067493 0.0006801486 10328223
0.25098461 0.35359862 0.0010544062 10195610
0.25341502 0.35583901 0.00095897913 9735828
0.25513285 0.35706049 0.00076180696 9801881
0.25624433 0.36006871 0.00089889765 9867677
0.25910825 0.36159086 0.00095289946 9736352
0.26173759 0.365648 0.00013947487 10196385
0.26325715 0.36738312 0.0010310411 10131109
0.2686398 0.37507284 -0.0015624166 9867414
0.27038869 0.37626645 -0.00062096119 10262437
0.2724041 0.37832513 -0.0018975139 10657444
0.2738837 0.38213545 -0.0007776022 10525859
0.27636954 0.38388896 -0.00080120564 10525863
0.27811393 0.38559809 -0.0013383627 10591394
0.28037733 0.38794625 -0.00059992075 10328228
0.28144476 0.39043769 -0.0010157824 10525346
0.28425395 0.39366823 -0.00095009804 10788515
0.28601986 0.39555064 -0.00062429905 10722985
0.28781882 0.39631662 -0.0012111068 10920101
0.29146996 0.40328214 -0.0010085702 10986151
0.31328928 0.43088979 -0.0030872822 11972533
0.31611982 0.43303287 -0.0033705831 11577516
0.14386311 0.22224198 0.0078597069 8879227
0.1452063 0.22373755 0.0079200268 9075566
0.14659503 0.22568378 0.0080770254 9471365
0.14785638 0.22771214 0.0088524222 9800589
0.15121044 0.2297035 0.0091356635 9538193
0.15327191 0.23181865 0.0084090829 9407122
0.15534508 0.23498026 0.0082693696 9472916
0.15751682 0.23759125 0.0080909729 9538707
0.15873757 0.23979445 0.008033514 9604243
0.15980965 0.24222448 0.0074115396 9604498
0.16201444 0.24508145 0.0065716505 9604758
0.1635174 0.24655195 0.0062738061 9604758
0.16589375 0.24903917 0.0057501197 9604757
0.16821036 0.25132304 0.0052977204 9670294
0.16778341 0.25435597 0.0071386695 9603986
0.17302397 0.25586408 0.0060105324 9669776
0.17449565 0.25774518 0.0057352781 9669777
0.17509753 0.26023814 0.0067108274 9407640
0.1781127 0.26269445 0.0068913698 9276571
0.17998064 0.2646707 0.0060974956 9342109
0.18058681 0.26824364 0.0064164996 9276316
0.18460253 0.27263057 0.005951643 9341850
0.18786044 0.277702 0.0048406124 9473178
0.19009341 0.27952698 0.0042014718 9275794
0.19196677 0.28130105 0.003326416 9012353
0.19756937 0.2885648 0.0025776029 9275521
0.20741545 0.30167538 0.0019312501 9275800
0.20933503 0.30257791 0.0019052029 9144473
0.21275592 0.30755177 0.0021252036 9012632
0.21480225 0.30848536 0.0021535158 9012631
0.21642792 0.31271288 0.0023883581 8880787
0.21854138 0.31347412 0.0025423169 9275800
0.21852556 0.31782204 0.002306819 9670558
0.22144736 0.31980631 0.0017170906 9867418
0.22382113 0.32081425 0.0019512773 9670297
0.22507845 0.32403225 0.0018734336 9472405
0.22804259 0.32586196 0.0018250346 9538198
0.23043789 0.32848534 0.0011793971 9866900
0.23101886 0.33149642 0.0014178753 9472665
0.23352383 0.33281302 0.0011695623 9472406
0.23530972 0.3352589 0.00036072731 9406611
0.2371393 0.33775142 0.000680089 9275286
0.23916259 0.33986533 0.0005491972 9603992
0.2413011 0.34155729 0.0005735755 9604250
0.24298771 0.34296796 -0.00030207634 9801364
0.24408713 0.34828052 0.00029563904 9867419
0.24554205 0.35019425 0.00028669834 10524056
0.24790324 0.35117137 0.00084322691 10590107
0.25013411 0.35435939 0.00044310093 9802144
0.25486341 0.36257756 -0.0020317435 10327707
0.25740901 0.36301509 -0.0015974641 10196122
0.25942662 0.364234 -0.0014808178 10064792
0.26080889 0.36979344 -0.0014380217 10459807
0.26264569 0.37152308 -0.0015585423 10328222
0.26462242 0.37275428 -0.001721561 10065049
0.26658946 0.37456918 -0.00099909306 9736089
0.26815662 0.37918779 -0.0013107657 10656928
0.27035835 0.38076621 -0.0012767315 10657187
0.27240705 0.38157466 -0.0011827946 10657188
0.14133406 0.22235282 0.0063384175 7628126
0.14343145 0.22511756 0.0065828562 9141104
0.14565638 0.22648822 0.0084284544 9800328
0.15987878 0.24413314 0.0071279407 9801615
0.16130874 0.2459299 0.0069981813 9801615
0.16273868 0.24772666 0.006868422 9735821
0.16410656 0.24944527 0.0067442656 9735821
0.16578756 0.25243208 0.006362021 9669779
0.16764779 0.25512996 0.0057262778 9538194
0.16977851 0.25733557 0.0058625937 9538193
0.1718539 0.25970855 0.0055817366 9603726
0.1730161 0.26230749 0.0047454238 9669777
0.1749063 0.26436815 0.0040355325 9670035
0.17680714 0.26715046 0.0041308403 9670035
0.17983654 0.26920938 0.0053169131 9735307
0.18040407 0.27163908 0.0044469237 9735566
0.18267751 0.27376303 0.0045539737 9735308
0.18451196 0.27635098 0.0041795373 9735568
0.18647926 0.2787261 0.0038000345 9932425
0.18841651 0.27998984 0.0045382977 9932418
0.19019483 0.28317907 0.0040434599 9406594
0.19236939 0.28535703 0.0036607385 9340281
0.19419375 0.28715047 0.0031036735 9274738
0.1956442 0.29036564 0.0033432841 9735033
0.19728976 0.29288134 0.0025461316 9670030
0.19977763 0.29431152 0.0027941465 9604240
0.20178843 0.29644752 0.0028328896 9603984
0.20296858 0.29961041 0.0023229122 9275540
0.20535412 0.30179295 0.0015221238 9538191
0.20728241 0.30439875 0.0018380284 9406346
0.2093268 0.30642903 0.001521647 9209231
0.21127848 0.30861861 0.0023880005 9603208
0.21270956 0.3113372 0.0020362139 9077904
0.21479133 0.3130323 0.0020692348 9274751
0.21608166 0.31603301 0.0011187196 9669007
0.21832427 0.31798407 0.0011512637 10129557
0.22700965 0.33020836 -0.002106607 9670293
0.23856823 0.34452575 -0.0017339587 9867157
0.24055742 0.34640312 9.6797943e-05 9538454
0.24219021 0.34782764 -0.00029355288 9800590
0.24612395 0.3537125 -0.0030768514 10459548
0.2485736 0.3546077 -0.0026798844 10525598
0.24827948 0.35883176 -0.0023795366 9801620
0.25176048 0.36081383 -0.0021567941 9932948
0.25857115 0.36887592 -0.0015806556 10393759
0.13599041 0.2167125 0.0058333278 7367784
0.13546319 0.21996939 0.0061252117 6839898
0.13810681 0.22072324 0.0067021251 7234140
0.1397402 0.22425012 0.0052955747 7956826
0.17263547 0.26795939 0.0025939345 9670295
0.1742653 0.26946089 0.0023505688 9670295
0.17685196 0.27083358 0.0028916001 9670292
0.17756668 0.27254814 0.0017181635 9604758
0.18032587 0.27500322 0.0014231801 9670294
0.18270721 0.27723989 0.0010308623 9801621
0.18497874 0.27967572 0.00041288137 9670029
0.18679725 0.28161135 0.0020564795 9866631
0.18892197 0.28431252 0.0017220974 9602935
0.19059147 0.28746885 0.00090181828 9273442
0.19268683 0.28901011 0.0010213256 9273686
0.192909 0.29169586 -0.00010889769 9733979
0.19571926 0.29413551 -5.4359436e-05 10063224
0.19754919 0.2969462 -0.0012350082 9801358
0.19949171 0.29854017 0.00059002638 9472659
0.20179886 0.29997629 -0.00018435717 9472397
0.20298605 0.30286968 -0.00080275536 9406863
0.2052865 0.30633408 -0.00044971704 9472656
0.20660162 0.3080824 -0.00074368715 9406607
0.20749149 0.31091982 -0.00039112568 9340556
0.21023139 0.31311089 -0.00012254715 9340556
0.21305974 0.31522012 -1.3649464e-05 9340297
0.21324316 0.31721219 -0.0023131967 9538190
0.21698806 0.31880358 -0.0019317865 9801877
0.21730848 0.32373488 -0.0019045472 9933462
0.21926381 0.32487574 -0.0017823577 9867669
0.22214885 0.32697475 -0.0020754337 9538962
0.22468433 0.32946941 -0.0025148392 9604500
0.22850281 0.33217981 -0.0026670098 9801880
0.22832227 0.337172 -0.0028859377 9538707
0.23145762 0.33891216 -0.0027307868 9341070
0.23321669 0.34031945 -0.0028541684 9406862
0.23602881 0.3422952 -0.0029991269 9735572
0.23759997 0.34907037 -0.0035383701 9670036
0.23946798 0.35038954 -0.0036815405 9736084
0.24276233 0.35213724 -0.003442049 10130584
0.13267601 0.21891993 0.004304409 7366242
0.13306119 0.22142521 0.0033570528 7693403
0.13501298 0.22276992 0.0033099651 7233870
0.1363765 0.22472031 0.0039835572 7430989
0.18302557 0.28439891 -2.3841858e-05 9670033
0.18570015 0.28629848 -8.0525875e-05 9538441
0.18739462 0.28775284 -0.00026386976 9341053
0.18981387 0.29026178 -0.00090032816 9406063
0.19226101 0.29238886 -0.0011997819 9669234
0.1951239 0.2945084 -0.0014531016 9735555
0.19515128 0.29916832 -0.0013235211 9670293
0.19703956 0.30048141 -0.0013269186 9538707
0.19984937 0.3014757 -0.00090670586 9341329
0.20270677 0.30888757 -0.0014984608 9341586
0.20353952 0.310864 -0.0021768808 9209743
0.20536321 0.31222412 -0.0022403598 9209742
0.20830469 0.31410563 -0.0022650957 9209485
0.21137527 0.31589296 -0.0021700263 9143432
0.21445201 0.32290676 -0.0023106933 10065050
0.22501098 0.33569226 -0.0031469464 9670293
0.23583849 0.34778833 -0.0034805536 9867159
0.12844266 0.21733731 0.0022065639 8286051
0.12985741 0.22049424 0.0012447238 8416862
0.13223669 0.22159037 0.0018753409 8088415
0.1931933 0.29815283 -0.0015115142 9801366
0.12359519 0.21673471 0.00070631504 7956043
0.12693731 0.2198097 0.00035351515 8481355
0.12807783 0.22085676 -5.3107738e-05 8086603
0.11483095 0.209122 -0.00099533796 6639920
0.11683055 0.21022184 -0.00095283985 6705717
0.11926129 0.21316981 -0.00070130825 6573869
0.12133932 0.21569823 0.00048941374 7231540
0.12185724 0.21763107 -0.00071710348 7033361
0.12435827 0.21900879 -0.00016337633 7889203
0.10954808 0.20398916 -0.002667129 6443611
0.11096863 0.20760749 -0.0016067028 6376499
0.11885448 0.21687464 -0.0017424226 6704148
0.1211561 0.21896245 -0.0024158955 6572545
0.12258608 0.22075923 -0.0025456548 6901026
0.10628087 0.20357507 -0.003638804 7037291
0.10736238 0.20602977 -0.0020435452 6047808
0.11336474 0.21356763 -0.0043407679 6375986
0.11487161 0.2158806 -0.0035650134 6441491
0.11629274 0.21827479 -0.0043824315 6573059
0.10718751 0.210329 -0.0064781308 6970722
0.10982621 0.21133333 -0.0060324669 6442822
0.11049024 0.21425936 -0.0042839646 6835756
0.098425038 0.20397432 -0.0066941381 8551558
0.10356119 0.20991233 -0.0078982115 8222076
0.10568466 0.21165249 -0.0064865351 8418183
0.10786065 0.21438675 -0.0066840053 6771532
0.10079029 0.2109257 -0.0084502697 10195852
0.2985608 0.4041087 0.0034999847 11314348
0.30150053 0.40600452 0.003654778 11314091
0.30417085 0.40849319 0.0037319064 11314347
0.30583614 0.41351104 0.0047109723 11445420
0.30738801 0.41558924 0.0045042634 11511469
0.30959561 0.41841081 0.0040914416 11643055
0.31198671 0.42059609 0.0039815307 11971507
0.31383887 0.42257017 0.0038694739 12103094
0.31582645 0.42524341 0.0034107566 11774126
0.31909943 0.42735028 0.0039553642 10260112
0.32023007 0.42934769 0.0033059716 9272183
0.32183355 0.43100932 0.0032164454 7889248
0.32382399 0.43405521 0.002630651 7229500
0.32625124 0.43652713 0.0024564266 7361054
0.28170019 0.38735431 0.0040089488 10655903
0.28330365 0.38901585 0.0039194822 10984613
0.28637883 0.39095393 0.0043782592 11050918
0.28831616 0.39447916 0.0036423802 11051174
0.29052785 0.3955566 0.0039390922 11051174
0.29174098 0.3976261 0.0034238696 11050919
0.29408917 0.40028778 0.0032337308 11116969
0.29674536 0.40246946 0.0033352971 11314090
0.29774612 0.4087384 0.0036796331 11314092
0.3007102 0.41093814 0.0038800836 11379883
0.30354518 0.41323197 0.003960371 11379884
0.3043848 0.41416913 0.0013754964 11117749
0.31042096 0.42199409 0.00076681376 11512504
0.26263651 0.36686423 0.0029585958 10393244
0.26608416 0.36987978 0.0029454827 10064281
0.26768771 0.37154129 0.0028559566 9998486
0.26922646 0.3732501 0.0027064085 10064278
0.27146098 0.37419614 0.0032085776 10393246
0.27387613 0.38201755 0.0034145713 10524574
0.27569738 0.38350299 0.0032855868 10458782
0.2786755 0.38551173 0.0036543012 10326939
0.28762183 0.39443913 0.0025261045 11181989
0.28909609 0.39619493 0.0023165941 11247778
0.29332387 0.40150705 0.001932919 11248293
0.29475385 0.40330383 0.0018031597 11379879
0.29603609 0.40638068 0.0012267232 11183018
0.29788411 0.40824756 0.0010628104 11314606
0.2994855 0.41127217 0.0012124181 11248559
0.30147314 0.41293353 0.00062566996 11248814
0.30313322 0.41567987 0.0014103055 11314608
0.30519855 0.418226 0.00093448162 11380403
0.30719623 0.42011482 0.00065433979 11380404
0.30952018 0.42185703 0.0004632473 11839919
0.31033877 0.4256635 0.00015348196 11906488
0.31303293 0.42627078 0.00014448166 12366519
0.31409481 0.4296273 -0.00061404705 11511214
0.31623435 0.43200931 -0.0012150407 10721172
0.31862861 0.43330154 -0.00036329031 8746595
0.32077363 0.43599665 -0.00055795908 6705215
0.14670691 0.22344716 0.011574507 9144212
0.14723785 0.22591539 0.012606978 8947092
0.15001124 0.22728039 0.012440801 9012885
0.15270117 0.22847675 0.012565553 9078936
0.15322801 0.2320298 0.012621164 9143956
0.15532416 0.23440537 0.011895061 9275541
0.15733938 0.23722708 0.012023091 9144985
0.15893118 0.2398534 0.011870384 9210777
0.16167994 0.24136412 0.011678457 9276570
0.1637533 0.24313335 0.011167467 9210779
0.16602328 0.24882695 0.010442734 9210520
0.16877215 0.2503376 0.010250866 9210521
0.25337529 0.3592073 0.0022575259 9801103
0.25595939 0.36148328 0.0024273396 10064275
0.25826022 0.36409348 0.0023313165 9998480
0.25956729 0.36560678 0.0019446611 10064536
0.26158157 0.36852336 0.0018982291 10326934
0.26363176 0.37094033 0.0024204254 10129815
0.26497498 0.37371981 0.0022393465 10064020
0.26698959 0.37582257 0.0018587708 10392736
0.26866007 0.378061 0.0019279718 10656412
0.27084273 0.37987337 0.002332747 10656157
0.27221331 0.38188165 0.00093340874 10656413
0.27432722 0.38453776 0.00074160099 10590619
0.27626035 0.38725513 0.00029265881 10130590
0.27815118 0.38844296 0.00035494566 10261924
0.27934527 0.39074627 0.000210464 10919079
0.28155899 0.39370432 -1.8417835e-05 10919846
0.28354746 0.39628282 -0.00030261278 10985641
0.28566414 0.39884582 -0.00057047606 10920359
0.28756264 0.40092126 -0.00054180622 10854054
0.28949234 0.40279815 -0.00025826693 10920107
0.29135883 0.40639991 0.00017011166 10920622
0.29568645 0.41087973 -2.4437904e-06 11051950
0.29794583 0.4120951 -0.00081533194 11249066
0.30191442 0.41910353 -0.0018375516 11642798
0.30568916 0.42522958 -0.0012608767 11643829
0.30756807 0.42700896 -0.0028874874 11775408
0.31013072 0.42886603 -0.002107203 11841207
0.14127031 0.22262059 0.011116087 9144207
0.14485712 0.22393444 0.012116373 9012883
0.14458187 0.2271018 0.010400534 9997448
0.14722095 0.22986262 0.010947168 9472141
0.14933814 0.23176382 0.011270106 9275281
0.15281869 0.23677525 0.0091226101 9538445
0.15510552 0.2396974 0.009203434 9735565
0.15606606 0.2414348 0.009282589 9603979
0.15813152 0.24353142 0.0087870955 9669774
0.16060829 0.24568857 0.010117769 9341849
0.1633378 0.24746792 0.0092968345 9538708
0.16470818 0.25081342 0.0075033903 9735570
0.16649823 0.25270933 0.007396996 9669778
0.16808212 0.25553846 0.0090783834 9144986
0.17007276 0.25723574 0.0084332228 9144986
0.17236134 0.25895408 0.0078168511 9210523
0.17496476 0.26440904 0.0074622631 9210779
0.1764522 0.26563528 0.0071558952 9276315
0.18231046 0.27344459 0.0061433315 9342107
0.22316632 0.32349399 0.0025939345 9144217
0.22638342 0.32911006 0.0023713112 9538975
0.2283029 0.33001268 0.002345264 9473183
0.24640699 0.3533366 0.00015562773 10065060
0.24815811 0.3560971 0.001547277 9866903
0.25044337 0.35784405 0.0012905002 9538457
0.2534346 0.35883 0.0012307167 9538718
0.25371861 0.3630254 0.0013024211 9736097
0.25677857 0.36447707 0.0010625124 9604767
0.25938469 0.36964762 0.0012313724 9670559
0.26132259 0.37182412 0.00043612719 9670307
0.26359472 0.37393934 -0.00018405914 9604508
0.26562768 0.3768779 -0.00090008974 10065048
0.26700288 0.38080731 -0.00046300888 10459813
0.26940387 0.38130224 -0.0008276701 10328491
0.27177355 0.38200027 -0.0004992485 10394284
0.27271602 0.38638842 -0.00069415569 10262436
0.27531034 0.38872364 -0.0013636351 10327966
0.27659932 0.39026529 -0.00037539005 10196643
0.27834043 0.39305881 -0.00011324883 10591144
0.27922502 0.39525017 -0.00078970194 10985895
0.28134003 0.39718658 -0.00029820204 10854570
0.28421623 0.39951643 -0.00015068054 10722990
0.28732049 0.40446112 -0.00027918816 10986407
0.28926849 0.40597755 -0.00035393238 11051944
0.29243326 0.40953472 -0.001303196 11183529
0.29754555 0.4178865 -0.0012530684 11314857
0.29917282 0.41951326 -0.0015622377 11249322
0.30110291 0.42091066 -0.0017110705 11314859
0.30285463 0.42269352 -0.0020314455 11446444
0.30937308 0.43419102 -0.0031927228 10589847
0.31177241 0.43588966 -0.0028603673 9206910
0.14159389 0.22411408 0.0087741613 9537928
0.14219508 0.22604939 0.0097014308 9406862
0.14359534 0.22852591 0.0094985366 9472398
0.14553398 0.22993444 0.0095993876 9472399
0.14831431 0.23212728 0.0094507337 9406864
0.15082552 0.23446319 0.0092047453 9472400
0.15098304 0.23727904 0.0091626048 9538450
0.15379794 0.23823035 0.0090437531 9538190
0.15569919 0.24241659 0.0081992149 9604243
0.15754427 0.24460717 0.0083481073 9604497
0.15926537 0.2467152 0.0077602863 9604499
0.16080967 0.24933046 0.0078167915 9538707
0.16207474 0.25087711 0.0077239871 9670034
0.16515329 0.25371194 0.0086747408 9472663
0.16737929 0.25577766 0.008190155 9603728
0.16880935 0.25757432 0.0080603957 9537935
0.16898835 0.26187751 0.0075799227 9210521
0.17212792 0.26302856 0.0076011419 9276315
0.17599881 0.26837203 0.0063769817 9210523
0.17694214 0.27032894 0.0066471696 9210523
0.17995897 0.27175897 0.0065199137 9341851
0.18152244 0.27504626 0.0066388845 9604241
0.18215114 0.27757978 0.0058121085 9342107
0.18530667 0.28013 0.0049986243 9341851
0.18669993 0.28245655 0.003824532 9341849
0.19877714 0.29522771 0.0053409934 9800842
0.20020708 0.29702446 0.0052112341 9800842
0.20601028 0.3051962 0.003292799 9275026
0.20883135 0.30776393 0.0043529272 9273737
0.21003693 0.3099187 0.0031629801 9077903
0.21162917 0.31127924 0.0040990114 9406091
0.21316488 0.31450009 0.0031402111 9143430
0.21505675 0.31730244 0.0029694438 9538970
0.21665421 0.31978652 0.0029765368 9735835
0.21923827 0.32140666 0.0030757785 9669774
0.22129032 0.32340124 0.0027923584 9472403
0.22187966 0.32660583 0.0022572279 9472405
0.22456786 0.32836989 0.0022462606 9801109
0.2265881 0.33118895 0.0019502044 9735315
0.22852071 0.33322987 0.0020259023 9472399
0.23053949 0.33523902 0.0018731952 9472150
0.23268424 0.33739018 0.0015294552 9340814
0.23391984 0.34028056 0.0011065602 9275024
0.23645453 0.3427754 0.0012515783 9603988
0.23844311 0.34505421 0.00095415115 9603986
0.23858333 0.34814259 0.00095033646 9736085
0.24110563 0.35034847 0.00079834461 10130075
0.24367265 0.35187414 0.00081962347 10393502
