# .PCD v0.7 - Point Cloud Data file format
VERSION 0.7
FIELDS x y z rgba
SIZE 4 4 4 4
TYPE F F F U
COUNT 1 1 1 1
WIDTH 1128
HEIGHT 1
VIEWPOINT 0 0 0 1 0 0 0
POINTS 1128
DATA ascii
0.20227075 0.15295263 0.035112262 9803407
0.20379817 0.15510473 0.035986483 10066320
0.1028254 0.0096586458 0.057941437 8882041
0.10394009 0.011298027 0.057677507 8947834
0.10505486 0.01293743 0.057413459 9079420
0.10884479 0.019158818 0.058262587 8947840
0.11006001 0.021535825 0.057321608 9013375
0.11262713 0.024024285 0.055583835 9013374
0.11293594 0.026330892 0.056060016 8882302
0.11545464 0.028876029 0.055606484 8817025
0.11723091 0.031337928 0.054531038 8816769
0.11879562 0.033144459 0.053795874 8817025
0.12040822 0.034971792 0.053012788 8816769
0.19529764 0.14732757 0.03437376 9737356
0.19711593 0.14827578 0.034303129 9737356
0.19868806 0.15103637 0.035167933 9803144
0.20026916 0.15369146 0.035036683 9934732
0.1039684 0.015674036 0.055425823 9079409
0.10513884 0.017395403 0.055148661 9079409
0.11233579 0.027884617 0.054462135 9013630
0.11229306 0.029889461 0.053095043 9013374
0.11264759 0.031690724 0.052141249 9013376
0.11569187 0.035089616 0.053526878 8816769
0.11767531 0.03701986 0.053054988 8816769
0.11922784 0.03964499 0.051670015 8882562
0.1212846 0.042149283 0.050527453 8882562
0.12313502 0.043956976 0.049869061 8882562
0.18923162 0.14195167 0.033709168 9605772
0.19127035 0.14534849 0.034245253 9737350
0.19333768 0.14767531 0.034317732 9803145
0.19483292 0.15006271 0.033739746 9803146
0.19654086 0.15239863 0.033613741 9934216
0.10460973 0.02095174 0.053029001 9079158
0.10628182 0.023410872 0.052633047 8882040
0.10800968 0.025951989 0.052223861 9013626
0.11346066 0.033575319 0.051368475 9013374
0.11406808 0.036338963 0.049883366 9013374
0.11873872 0.044791747 0.050126016 8882561
0.1198391 0.046678696 0.049066126 8948099
0.12119677 0.048648238 0.0480901 8948355
0.12335479 0.051030513 0.04699558 8948099
0.1247689 0.052222352 0.046731412 8948100
0.18152469 0.13441302 0.034403145 9671299
0.18314271 0.13644853 0.034431338 9474178
0.18444791 0.13930467 0.033815145 9737352
0.18616588 0.14196366 0.033717752 9671560
0.18797055 0.14419127 0.033580303 9671558
0.19080222 0.14868473 0.032910407 9803146
0.19253105 0.15188897 0.033593297 9868680
0.10671234 0.0299551 0.049635172 8947834
0.10844019 0.032496218 0.049225986 9013628
0.11461975 0.039020751 0.048411429 9013376
0.11629476 0.041236117 0.047650695 9079166
0.12168223 0.05000098 0.0471766 8948099
0.12075955 0.052936137 0.047113419 8948355
0.12338689 0.053911932 0.04608506 8948100
0.12428322 0.057349052 0.045077503 8948355
0.12634416 0.058973648 0.044550002 9013892
0.12783533 0.061311893 0.043397367 9013892
0.15664187 0.10422073 0.036794841 9145219
0.15928286 0.10504907 0.037180901 9079684
0.16144557 0.11118761 0.035947978 9145219
0.16399071 0.11271162 0.035704017 9342596
0.16739264 0.1186291 0.035300374 9408648
0.16922319 0.12045687 0.034683168 9474442
0.16866353 0.12343366 0.034896672 9408649
0.17144051 0.12618522 0.034163356 9474442
0.1733681 0.12772059 0.033655643 9539975
0.17520188 0.13053358 0.033488214 9539973
0.17690271 0.13285539 0.033497155 9605767
0.17823373 0.13548841 0.033498526 9605770
0.1800808 0.13798091 0.032533407 9605768
0.18308127 0.14029548 0.031545699 9802887
0.18368283 0.1418259 0.032604396 9737097
0.18444633 0.14573286 0.031302452 9802888
0.18788609 0.14697252 0.031934023 9802887
0.10796684 0.036134459 0.047093153 9079169
0.10994796 0.038837429 0.04749608 9079167
0.1114352 0.040967841 0.047434747 9013374
0.113175 0.043405112 0.047567785 9013630
0.11397821 0.045964573 0.046398878 9079166
0.11539271 0.047771223 0.045408845 9013626
0.11763716 0.050356381 0.044803083 9013623
0.12149926 0.055479445 0.044565916 9013881
0.1234803 0.061124101 0.044296563 9013893
0.1251201 0.063114874 0.043507457 9013893
0.12755458 0.065682054 0.042456031 9079686
0.12974077 0.067367882 0.042080402 9079687
0.13112193 0.068560019 0.041678846 9079686
0.1330913 0.073675737 0.04085362 9145221
0.1340856 0.074988797 0.040327072 9145478
0.13576373 0.07622318 0.039927006 9145478
0.14587355 0.091387153 0.037388027 9014150
0.15013011 0.097451769 0.036961377 8224630
0.152127 0.098318413 0.037138462 8356210
0.15258551 0.1024456 0.036673665 8882049
0.15433091 0.10343449 0.03654784 9079683
0.15631503 0.10891742 0.035792708 9145220
0.15849748 0.10966235 0.035997689 9079426
0.16030356 0.11310501 0.034699082 9605250
0.16103417 0.11494534 0.03481859 9408388
0.16311267 0.11702836 0.034560621 9539974
0.16481827 0.11974461 0.033629954 9408383
0.16600442 0.12228063 0.033932507 9474180
0.16884008 0.12484792 0.033439398 9539973
0.16938865 0.12646623 0.032547593 9605248
0.17101043 0.12969562 0.03369242 9474184
0.17459309 0.13417059 0.031533301 9671301
0.17701131 0.13634671 0.031394124 9671303
0.17863512 0.14221412 0.031126082 9671301
0.18146077 0.14412667 0.031070232 9737351
0.10308579 0.036846183 0.04681164 9013626
0.10420047 0.038485564 0.046547651 8947837
0.10592833 0.041026678 0.046138465 8882043
0.10765615 0.043567743 0.04572928 8882042
0.10960758 0.044359755 0.043735564 8947834
0.11133543 0.046900876 0.043326437 9079417
0.11388817 0.049848136 0.044756234 9013628
0.11498986 0.051467665 0.044313669 9079419
0.11736575 0.053750031 0.042887807 9079419
0.11958684 0.056866843 0.041949451 9210752
0.12071477 0.059855755 0.041030765 9079160
0.12220404 0.06288518 0.04075259 9276017
0.12729135 0.069192141 0.042308688 9014150
0.12896299 0.071081489 0.041402519 9079685
0.13121624 0.072890446 0.040938437 9079685
0.13110909 0.077220276 0.040100873 9145220
0.13384372 0.078826271 0.040029824 9145477
0.13629541 0.081806883 0.039472044 9211013
0.13772513 0.083645858 0.038999617 9211268
0.13872918 0.085646965 0.038241863 9211269
0.14138155 0.088873647 0.037660718 9277064
0.14254507 0.091349885 0.037495911 9277064
0.1440299 0.09392941 0.037436068 9211272
0.14656654 0.095514677 0.037157893 8947844
0.14706519 0.09856306 0.035844922 8487796
0.14922081 0.10127485 0.035903096 8618868
0.15015596 0.10399348 0.034133196 9210996
0.15151875 0.10652835 0.035047889 9211008
0.15377808 0.10866556 0.034122348 9211261
0.15531158 0.1115758 0.032912254 9342322
0.15754527 0.11348668 0.034513414 9276799
0.15731755 0.1166037 0.033968806 9539967
0.15898965 0.11906284 0.033572853 9671554
0.16071749 0.12160391 0.033163667 9737089
0.16372497 0.12417459 0.031902075 9605506
0.16506168 0.12567203 0.031693637 9671300
0.16848609 0.12671186 0.031019509 9671302
0.1683642 0.13099808 0.030985296 9605509
0.1713669 0.13248159 0.031285882 9671301
0.17423505 0.13882381 0.031265736 9671559
0.17583227 0.14038387 0.031031251 9671558
0.11479545 0.05643177 0.042880297 9145216
0.11595148 0.059115525 0.041699708 9145215
0.11738288 0.061514307 0.040670574 9145216
0.11863311 0.063154966 0.040228605 9144960
0.12950937 0.07615009 0.040337026 9079684
0.1393279 0.091476604 0.03757751 9211527
0.14496557 0.098733395 0.036749244 9211269
0.14999036 0.10783766 0.03192693 9342078
0.15279563 0.10952418 0.032275438 9276542
0.15511364 0.11157759 0.032087207 9276543
0.15648177 0.1180784 0.031263828 9605250
0.15847754 0.11918986 0.031441748 9605507
0.16050825 0.12126333 0.030922651 9605508
0.16186444 0.1241477 0.031076014 9605508
0.16323987 0.12713446 0.031188607 9605510
0.16554148 0.1291879 0.030931592 9605508
0.10645439 0.047612514 0.043045044 8947835
0.10818224 0.050153632 0.042635858 9013624
0.11163792 0.055235818 0.041817546 9145464
0.11275269 0.056875221 0.041553557 9079671
0.11448051 0.05941629 0.041144371 9145210
0.1167657 0.062777132 0.04060322 9013368
0.11849353 0.065318204 0.040194035 9341818
0.11968036 0.066430867 0.038857043 9210748
0.12148236 0.06907846 0.038437724 9276282
0.12318867 0.071598724 0.036899209 9342078
0.12558858 0.073773868 0.037055135 9342078
0.13077208 0.081397116 0.035827637 9408388
0.13188685 0.083036527 0.035563648 9408382
0.1336147 0.085577637 0.035154462 9276796
0.13534252 0.088118702 0.034745276 9474176
0.13704248 0.090618841 0.034342706 9408381
0.13835551 0.093262345 0.033197045 9408128
0.14009975 0.096104525 0.034348071 9474174
0.14179976 0.09860462 0.033945501 9276795
0.14312917 0.10154927 0.034359992 8750204
0.14425738 0.10361512 0.032760441 8618869
0.14679775 0.10634956 0.032690048 9145210
0.14761999 0.10968122 0.032608926 9342588
0.14915872 0.11105686 0.032497108 9276541
0.15105711 0.11334332 0.032173812 9342332
0.15300605 0.11575302 0.031693101 9473914
0.15455902 0.1169261 0.031141102 9473919
0.12106383 0.070568323 0.036679745 9211008
0.12093434 0.07334131 0.037443995 9342331
0.12324704 0.075173497 0.036238492 9210753
0.12512346 0.077492088 0.035453677 9276545
0.12592313 0.079639122 0.035496771 9276801
0.12730779 0.082464546 0.035025239 9211011
0.12877727 0.085167944 0.034532905 9408127
0.13085197 0.087516561 0.034203708 9342335
0.13276167 0.089844197 0.033804953 9473919
0.13457195 0.092222705 0.033302903 9408128
0.13563855 0.095432699 0.033308446 9473920
0.13746245 0.0979155 0.032185137 9342081
0.13961884 0.10027399 0.032072783 9210497
0.14128336 0.10158846 0.032112479 9013116
0.11910761 0.074152708 0.036284328 9210752
0.12036148 0.07673426 0.03526175 9210752
0.12289914 0.078789383 0.034875393 9210753
0.12463725 0.081270397 0.034136415 9211008
0.1292219 0.089766398 0.033527136 9342338
0.13036063 0.091243088 0.033111572 9408130
0.13239008 0.09356153 0.032593191 9408131
0.10549572 0.0002720803 0.06698823 8751234
0.10661605 0.002138868 0.065887094 8751232
0.10349356 0.0015766025 0.066635191 8882305
0.10518557 0.0042537786 0.066162229 8751233
0.10698512 0.0066754855 0.064935744 8817025
0.10907879 0.0090370812 0.063820243 8817024
0.099285759 0.00079898164 0.065061867 8882039
0.10058292 0.0034878328 0.063789189 9013626
0.10174903 0.0054071546 0.064117014 8947839
0.10598588 0.0087102987 0.065398037 8817026
0.10696417 0.0099011175 0.064802229 8817026
0.10847417 0.01243085 0.063402951 8817024
0.10963348 0.015150338 0.061700583 8817026
0.1109259 0.016260736 0.061174631 8816769
0.10297939 0.0087662786 0.062520206 8947582
0.10432708 0.011042207 0.061510742 9013375
0.10555324 0.013582733 0.060494959 9013375
0.10715625 0.01626379 0.060806692 8882304
0.1085287 0.018224485 0.060469449 8816769
0.10994019 0.020628497 0.059893548 8817026
0.11193478 0.023705743 0.058257997 8816769
0.20324352 0.15715523 0.037287533 9934732
0.099344954 0.0075083859 0.060953617 8947581
0.10051547 0.0092297718 0.060676396 8947835
0.10347101 0.015898678 0.06078136 9013631
0.10384835 0.017782144 0.059676826 9013374
0.11015148 0.022021193 0.058827817 8816769
0.10865757 0.024953991 0.058610857 8751234
0.11315244 0.025592834 0.057315409 8816768
0.19806816 0.1529896 0.036157191 9934732
0.19917242 0.15502782 0.036684275 10131855
0.20108891 0.15664685 0.03658545 10000528
0.099428967 0.011966407 0.05868876 8947835
0.10054369 0.013605841 0.058424771 9013627
0.10216279 0.015657183 0.057798266 9079416
0.10466143 0.019666739 0.058904052 9013374
0.10499997 0.021345671 0.057880998 8882046
0.10587671 0.023742013 0.056766868 8947839
0.10928755 0.026470289 0.057808518 8751234
0.11081073 0.028338481 0.056901574 8751232
0.11216393 0.031403668 0.055892587 8816769
0.11423288 0.0332422 0.054454684 8816770
0.19549321 0.15417142 0.036032379 10000527
0.10013372 0.018425696 0.057079196 9079671
0.10164683 0.019661635 0.05599153 9013620
0.10684624 0.027407195 0.054833174 9013374
0.1074338 0.030191053 0.053389251 9013630
0.10857813 0.031872645 0.05275476 8947838
0.11148717 0.034533061 0.055043757 8817026
0.1127076 0.036522616 0.053991675 8751233
0.11462946 0.038903274 0.053026438 8816768
0.11640054 0.04140646 0.051806927 8882306
0.11759315 0.043355051 0.050761402 8882562
0.18570602 0.14229617 0.035355866 10197637
0.18737811 0.1447553 0.034959853 9802627
0.1884985 0.14768685 0.034915507 9737348
0.19030944 0.15054795 0.034571886 9868937
0.19168012 0.15295047 0.034774125 9868941
0.19331828 0.1547779 0.034592211 10066061
0.19505326 0.1580219 0.034600973 9473926
0.10041723 0.023665398 0.053313851 9013364
0.10211715 0.026165489 0.052911282 9013114
0.103845 0.028706606 0.052502096 9013370
0.10591553 0.030762166 0.051282525 8947834
0.10869135 0.033713631 0.051786125 9013375
0.10980143 0.035640519 0.051014841 9013374
0.11030163 0.037360433 0.050171375 9013374
0.11246838 0.0411998 0.052859247 8816768
0.11376962 0.043209877 0.051896811 8882562
0.11519921 0.045998629 0.050250888 8882560
0.11737314 0.048503127 0.049225569 8882561
0.11865848 0.050390903 0.048193932 9013892
0.11950704 0.051785301 0.047557056 9013891
0.17625523 0.13420925 0.034625113 9736836
0.17736995 0.13584867 0.034361124 9736576
0.17869936 0.13879332 0.034775615 9671042
0.18052013 0.14124021 0.034174263 9802887
0.1818417 0.14411825 0.034142017 9868674
0.18370929 0.14643441 0.034062386 9802890
0.18553317 0.14859845 0.033611238 9737098
0.18782555 0.15136278 0.033436656 9737353
0.10339318 0.032604642 0.052073538 9013372
0.10501954 0.034541789 0.051020801 9013373
0.106512 0.037707396 0.05071795 9013375
0.10758954 0.040226854 0.049701333 9013629
0.11519857 0.05016496 0.049605608 8882561
0.1163547 0.052133884 0.048532367 8948355
0.11761153 0.05410317 0.047507882 8948099
0.12001547 0.05652681 0.046572685 8948100
0.12160718 0.059234142 0.045105636 9013892
0.16726917 0.12626565 0.034473777 9539716
0.16887221 0.12766193 0.034382999 9539716
0.17022412 0.12977275 0.033881366 9802884
0.1714282 0.13289434 0.034108043 9605764
0.17330372 0.13500537 0.033924341 9605251
0.17455509 0.13812113 0.034314334 9868422
0.17705771 0.14066695 0.033670664 9606027
0.17833386 0.14328539 0.033854902 9606027
0.18016914 0.14411098 0.033852577 9605771
0.18221486 0.14784053 0.032569766 9737096
0.18312603 0.15021122 0.03308332 9737097
0.18552336 0.15193762 0.033093631 9934217
0.10111851 0.035931829 0.048736095 9013627
0.10852139 0.042827614 0.048574328 9013631
0.11012287 0.045206148 0.047758758 9079165
0.1107946 0.047990549 0.04629463 9078910
0.11275186 0.05022708 0.045720637 9079167
0.11695601 0.058512863 0.046365917 8882564
0.11929485 0.061038405 0.045409977 8948100
0.12069958 0.063151315 0.044386566 9013893
0.12275061 0.065819398 0.043100238 9013892
0.12541878 0.067179807 0.043117285 9014150
0.15501103 0.11217839 0.03538543 9145219
0.15931228 0.11942732 0.034926295 9539718
0.16070706 0.12214957 0.03480345 9539972
0.1623017 0.12509856 0.03428179 9539971
0.16404183 0.1269106 0.034195304 9605508
0.16545011 0.13019855 0.033791721 9473924
0.16788137 0.13204849 0.033575773 9605511
0.16820131 0.13547963 0.033506393 9474442
0.17118579 0.1370295 0.032248199 9605768
0.17407918 0.13889769 0.0333395 9605772
0.17616504 0.14418113 0.031395853 9671302
0.17922303 0.14586905 0.031683743 9737094
0.17986943 0.14970836 0.032118738 9802886
0.10724684 0.05021967 0.04591459 8947837
0.1135937 0.052991159 0.044470191 9079167
0.11436811 0.054671213 0.043778896 9144961
0.12058488 0.066358991 0.043366611 9013892
0.12183816 0.069409162 0.042599857 9013894
0.12385622 0.071340315 0.041901469 9013894
0.12576583 0.073209941 0.041120052 9079685
0.12765776 0.076609358 0.040673256 9079684
0.12831131 0.079370096 0.040122449 9079685
0.13039958 0.081158116 0.039588809 9145221
0.133149 0.082785167 0.039332449 9145477
0.13307115 0.086173728 0.039213002 9211012
0.13555583 0.088617958 0.03836751 9211270
0.13805819 0.090448469 0.037952662 9211526
0.13802539 0.093755335 0.037894964 9211271
0.14088838 0.096139915 0.03714031 9277064
0.14322022 0.09774448 0.036875069 9342601
0.14380726 0.10191305 0.036452293 9277062
0.14642534 0.10339636 0.036263466 9013634
0.14748237 0.10603601 0.035906374 9211268
0.14855582 0.10867555 0.035618186 9342597
0.1508989 0.11032128 0.035277486 9211013
0.1531029 0.11139347 0.035332739 9145219
0.15424863 0.11613673 0.034777105 9342599
0.15676987 0.11782334 0.034684658 9408393
0.15654394 0.12178309 0.034456611 9342857
0.16100809 0.12425557 0.034190476 9408392
0.16259788 0.12797761 0.034471393 9474184
0.1636478 0.12937269 0.033931613 9474186
0.16580145 0.13302578 0.031241119 9671302
0.16868064 0.13479538 0.031281114 9671303
0.16763723 0.13809645 0.031465948 9671299
0.17075576 0.14019386 0.031521916 9671300
0.17315869 0.14212517 0.031313062 9671301
0.099319518 0.039197225 0.046266198 8947834
0.10048999 0.040918637 0.045989037 9013628
0.10218996 0.043418702 0.045586467 8947578
0.10388991 0.045918837 0.045183897 9013113
0.10561778 0.048459958 0.044774711 9013111
0.1073456 0.051001024 0.044365525 8948088
0.10827431 0.052828785 0.044485867 9079165
0.10960761 0.055724178 0.043348074 9079421
0.11090624 0.058946427 0.042073846 9144959
0.12389356 0.075833783 0.041175067 9013892
0.12509485 0.077352419 0.04052645 9079684
0.12929556 0.083335117 0.040112972 9145478
0.13082807 0.084650815 0.039602578 9145477
0.13442452 0.090631492 0.038897812 9145478
0.13601285 0.092029065 0.038374245 9211270
0.13860385 0.097985208 0.037437975 9276807
0.14086632 0.099610418 0.03700763 9277063
0.142079 0.10080159 0.036646485 9277061
0.14367498 0.1053025 0.035982251 9342597
0.14572029 0.10743786 0.035277903 9408127
0.14747599 0.11002 0.034862101 9473916
0.14859076 0.11165939 0.034598112 9276536
0.15035072 0.11419953 0.034508526 9408385
0.15204644 0.11674158 0.0337798 9605501
0.1534781 0.11926348 0.032569051 9539713
0.15540546 0.12137972 0.031311154 9605251
0.15732625 0.12428813 0.031220019 9605508
0.15793915 0.12723008 0.031370223 9605507
0.16056849 0.1291007 0.031361341 9605509
0.16305214 0.13105258 0.031242192 9605509
0.16406572 0.1357521 0.031372607 9671302
0.16569731 0.13706692 0.031274855 9671301
0.10865579 0.057262398 0.041810393 9145209
0.10977056 0.058901802 0.041546404 9145213
0.11176635 0.061516009 0.041018546 9144957
0.11374441 0.06437543 0.040422678 9144956
0.11503696 0.06692335 0.039354444 9144957
0.11652306 0.069150038 0.039002597 9144954
0.11808318 0.071321934 0.038875282 9210746
0.13161932 0.091034338 0.036372304 9407862
0.13334715 0.093575403 0.035963118 9342847
0.135075 0.096116528 0.035553932 9407611
0.13677493 0.098616615 0.035151362 9473660
0.13853063 0.10119873 0.03473562 9473915
0.13981663 0.10363047 0.033802032 9473663
0.1415536 0.10534379 0.032710135 9276543
0.14391723 0.10719305 0.032583177 9342078
0.14484766 0.1103625 0.032330334 9408129
0.14544821 0.1134899 0.031938493 9408128
0.14758697 0.11574731 0.031502843 9407872
0.15047127 0.11747561 0.031687021 9539711
0.15015993 0.1216798 0.031479955 9605506
0.15310049 0.12336766 0.031650484 9605508
0.15467626 0.12460047 0.031565845 9605508
0.1125655 0.068434909 0.039441884 9144959
0.11445775 0.070773408 0.038847327 9210751
0.1161841 0.073209509 0.037274837 9210752
0.11702181 0.075896114 0.036788702 9276542
0.11857469 0.077973947 0.036299229 9210752
0.1202701 0.080187909 0.035994172 9145214
0.1219787 0.082273051 0.035576522 9276544
0.12382204 0.084835574 0.035030603 9276543
0.1257474 0.087173685 0.034573615 9408128
0.12729539 0.089549862 0.034401 9408124
0.1306048 0.096634448 0.032773793 9407874
0.13245362 0.098072276 0.032842219 9408386
0.13410103 0.099509381 0.032813549 9473923
0.13659999 0.10170599 0.032763958 9473924
0.13589506 0.1053564 0.032759249 9473923
0.13823292 0.10738967 0.032529831 9473666
0.14042521 0.10950416 0.032190025 9539458
0.14242083 0.11061572 0.032367885 9473922
0.12151323 0.086273663 0.034969687 9276546
0.12389997 0.088797539 0.034584105 9342338
0.12606715 0.090973504 0.034141421 9276801
0.12785301 0.093475282 0.0333547 9342337
0.12915327 0.094993085 0.033118606 9342337
0.10160798 0.00012832507 0.069629788 8948099
0.10217756 0.0030678101 0.068445027 8882820
0.10390437 0.0055301003 0.067163348 8817025
0.10550031 0.0073576197 0.066311538 8817025
0.096594363 0.00022677332 0.067378998 9210752
0.097410426 0.0018451624 0.066859543 9144954
0.099462979 0.0048382245 0.066082478 9145209
0.10249737 0.0068675987 0.068012893 8948354
0.10403069 0.009390384 0.066668689 8882562
0.10495175 0.011481445 0.065361381 8817026
0.10589004 0.013449863 0.064122379 8882818
0.097676992 0.0027050078 0.066506505 9144960
0.098883644 0.0051433779 0.065531373 9013376
0.099541761 0.0076616481 0.064251721 9013375
0.1044916 0.014726002 0.065006077 8882563
0.10594396 0.016815152 0.063025832 8817026
0.097856104 0.0089803301 0.064186454 9079165
0.098984852 0.011143241 0.063065827 9079167
0.10040317 0.01351098 0.062166929 9078911
0.10249396 0.014462885 0.061376333 8947838
0.10577008 0.020938247 0.061822176 8817025
0.10730793 0.023045506 0.059621513 8817026
0.19803177 0.15659529 0.038318932 9737101
0.19935662 0.15782791 0.037930906 8881790
0.097608663 0.012356661 0.061380744 9145213
0.099308617 0.014856804 0.060978174 9145214
0.10032891 0.016901884 0.06131947 9013375
0.10133198 0.020444363 0.059522986 9013630
0.10532627 0.024769295 0.060064435 8817025
0.10681382 0.027496323 0.058658838 8750976
0.10824121 0.030060075 0.057121992 8751233
0.10978891 0.03198918 0.056318521 8816770
0.19487283 0.15635905 0.037149549 10131858
0.098779514 0.018413059 0.058858514 9079419
0.10045162 0.020872191 0.05846256 9079416
0.10199513 0.02328999 0.058024645 8947839
0.1030838 0.024889611 0.057403266 8947840
0.10608543 0.031578064 0.057824433 8816770
0.10818651 0.034123212 0.05674392 8816769
0.10908769 0.03623445 0.055477798 8816770
0.18991494 0.15525439 0.036628008 10000527
0.19219002 0.15610602 0.036825657 9934732
0.19425645 0.15882896 0.036248326 8420193
0.099182174 0.024916276 0.055867255 9013366
0.10084707 0.027454261 0.056309342 8947581
0.10288143 0.029837541 0.054699302 8947579
0.10974047 0.038935296 0.054551244 8751233
0.11054885 0.041568831 0.053611517 8816768
0.11152866 0.044257466 0.052727818 8882562
0.18253636 0.14750358 0.036127865 9802890
0.18426418 0.15004465 0.035718679 9802632
0.18595386 0.15262738 0.035027862 9934476
0.18780735 0.15501022 0.035303295 10066316
0.10048063 0.030476727 0.055349469 8947837
0.10192616 0.033387758 0.053772569 8947836
0.10290401 0.036008175 0.052961767 9013374
0.11182864 0.045731802 0.051786423 8816769
0.11251488 0.048380505 0.051245689 8816768
0.1726435 0.13728879 0.036225677 9737093
0.17375827 0.1389282 0.035961688 9868422
0.17548609 0.14146927 0.035552502 9933956
0.17715821 0.14392839 0.035156548 9999747
0.17908001 0.14685267 0.034410715 9802876
0.18232639 0.15218917 0.034540176 9737357
0.18429998 0.15384454 0.034845591 9868682
0.18603124 0.15471226 0.034286618 9934473
0.10153286 0.03719157 0.051111877 9013371
0.10402273 0.039571971 0.05102855 8947838
0.10495504 0.042050339 0.049901068 9013373
0.1060161 0.044569951 0.048815727 9013373
0.11255896 0.052029751 0.049661279 8948353
0.11409067 0.053836528 0.048788548 8948099
0.11521851 0.055886894 0.047722518 8882563
0.16593966 0.13334079 0.034917176 9737094
0.16766746 0.13588186 0.03450799 9802626
0.16878219 0.1375213 0.034244061 9605763
0.17342076 0.14316005 0.03354305 9540234
0.17555885 0.14551744 0.033725858 9671563
0.17650992 0.14752418 0.03328371 9671561
0.17817704 0.14993879 0.033979595 9671562
0.18003416 0.15242115 0.032993972 9868679
0.1062873 0.04757781 0.047048271 9013373
0.11291348 0.057874855 0.048061848 8882306
0.11478809 0.060480826 0.046781182 8882563
0.11657053 0.063025169 0.045486331 8882563
0.11795317 0.06493333 0.044613242 9013892
0.11902581 0.066410646 0.043922722 9013892
0.15950629 0.12675858 0.034301758 9342855
0.16216531 0.13197798 0.034002125 9474185
0.16507335 0.13428086 0.033309221 9474184
0.16804659 0.13941991 0.033079505 9539977
0.1710127 0.14129245 0.03298974 9540234
0.1708104 0.14415102 0.032462716 9671303
0.17407641 0.14582211 0.032009721 9737095
0.17394295 0.1491062 0.032521546 9802886
0.17672011 0.15112041 0.032513857 9868679
0.098522708 0.040004283 0.047913551 9013111
0.099693179 0.041725706 0.04763639 8947835
0.10155445 0.044646323 0.047874749 9079164
0.10295424 0.046722211 0.047737122 8947578
0.10324086 0.049583759 0.047020137 8947837
0.1139267 0.065769687 0.044926822 8948098
0.11510646 0.06696111 0.044428229 8948355
0.11658285 0.069278307 0.043460727 9014147
0.11887801 0.071640559 0.042442381 8948357
0.12016159 0.073895738 0.041412055 9013892
0.12191345 0.076251648 0.041469395 9079684
0.12383956 0.079405785 0.041159391 9079685
0.12594493 0.081071176 0.040694058 9079686
0.12678187 0.0831168 0.040643036 9079686
0.12813169 0.086309843 0.040035129 9145478
0.13034613 0.088282958 0.039289713 9145477
0.13267921 0.089642622 0.039023638 9145477
0.13535737 0.095701575 0.037957788 9211014
0.14033945 0.10332419 0.036633134 9277061
0.14724414 0.11283629 0.034705698 9277062
0.14931101 0.11555181 0.035548747 9539971
0.15099463 0.11769091 0.035234094 9408387
0.1530444 0.11974357 0.034855723 9474181
0.15401016 0.12341693 0.034534931 9473924
0.15659504 0.12513131 0.034378827 9605505
0.15722494 0.12844217 0.034113646 9539973
0.15968204 0.13019773 0.033673167 9605508
0.16108112 0.13291755 0.032228172 9605510
0.16203925 0.13516696 0.03243947 9539974
0.16386223 0.13792422 0.032638133 9539975
0.16572848 0.14106432 0.032366753 9605765
0.16803077 0.14264169 0.032060027 9605766
0.16854864 0.14610103 0.031991601 9737094
0.17018005 0.14741588 0.031893909 9737350
0.10260779 0.050445527 0.044774175 9144949
0.10424128 0.052677542 0.04507786 9013627
0.10527366 0.054827992 0.044483185 9079421
0.1069214 0.057861127 0.043318689 9079420
0.1085019 0.060320418 0.042726517 9144960
0.11022212 0.062398389 0.042439401 9144958
0.11154579 0.066546038 0.041209519 9210488
0.11678509 0.074161366 0.04244107 9013894
0.11878771 0.075232841 0.042399168 9014149
0.12035432 0.076303333 0.042025447 9079684
0.12308256 0.082239404 0.041165292 9079685
0.12653202 0.085239708 0.040271223 9145480
0.12735617 0.090248339 0.039248109 9145221
0.12995282 0.092734076 0.038375676 9145477
0.13169953 0.095131233 0.038288951 9211012
0.13237816 0.097830534 0.037841141 9211269
0.13575377 0.10003307 0.037362933 9277062
0.137817 0.10188253 0.036726296 9408385
0.13866951 0.10494961 0.036455572 9342593
0.14060974 0.1071244 0.035994709 9408135
0.14237668 0.10875335 0.035767972 9277063
0.14392705 0.11179759 0.035208583 9277058
0.1452488 0.11431652 0.034715056 9342593
0.14687006 0.11569142 0.034947097 9342856
0.15028393 0.12187369 0.034722984 9342857
0.15526998 0.12942123 0.031433761 9605250
0.15751773 0.13207181 0.031627238 9605507
0.15824075 0.13502768 0.031823695 9605508
0.16012931 0.13642524 0.031809747 9605508
0.16199645 0.13749546 0.031945705 9605765
0.10352339 0.059682108 0.043120086 9079159
0.10504627 0.062611252 0.042360902 9013628
0.10757117 0.064585216 0.041795611 9079163
0.10972489 0.066825032 0.040556312 9079167
0.11181678 0.069900118 0.039697409 9210743
0.1129315 0.071539551 0.03943342 9210737
0.11468725 0.074121639 0.039017677 9210740
0.11644292 0.076703712 0.038601875 9342329
0.1175577 0.078343116 0.038337886 9210745
0.12622473 0.091089562 0.03628546 9342326
0.12798047 0.09367165 0.035869658 9408114
0.1296804 0.096171737 0.035467088 9408383
0.13143608 0.098753877 0.035051286 9407868
0.13313606 0.10125393 0.034648716 9473660
0.13409495 0.10464311 0.035880327 9539454
0.13520972 0.10628252 0.035616338 9539708
0.13696539 0.10886459 0.035200536 9473920
0.13866539 0.11136471 0.034797966 9408131
0.14228621 0.11584297 0.031684399 9473666
0.14491549 0.11771362 0.031675577 9473922
0.14729217 0.11995132 0.031364501 9605506
0.14741503 0.1238092 0.031597853 9474178
0.15040852 0.12547652 0.031864762 9539715
0.15253133 0.12761167 0.031359851 9539715
0.15261781 0.13148981 0.031565607 9605507
0.15468641 0.13256072 0.03179872 9605505
0.10724087 0.066280283 0.041078627 9079166
0.10819948 0.068775848 0.040926695 9210486
0.10917936 0.070682622 0.039859474 9144955
0.11058165 0.072603963 0.039151311 9144956
0.1122634 0.075795725 0.038421214 9145211
0.1140135 0.078184113 0.037915528 9276541
0.1155151 0.080283687 0.036965787 9145214
0.11730963 0.082634851 0.036479592 9145211
0.11882764 0.084711492 0.036277354 9408384
0.12067931 0.087268561 0.03535372 9342589
0.12237928 0.089768611 0.03495115 9408123
0.1227905 0.092099294 0.034493864 9276802
0.12877385 0.10058129 0.034021616 9408127
0.12989132 0.10232314 0.033648133 9408383
0.1322322 0.10386688 0.033295631 9473920
0.13454169 0.10992507 0.031930387 9473666
0.13704465 0.11197919 0.031770468 9539458
0.13987538 0.1138505 0.031858623 9473922
0.14173643 0.12018928 0.031353056 9473922
0.14434867 0.12218253 0.031275868 9539714
0.11364652 0.081982628 0.036848366 9210752
0.11412841 0.084070198 0.035937309 9145212
0.11650611 0.086063065 0.035625458 9276546
0.11791152 0.089041911 0.03505826 9276800
0.11967486 0.09175767 0.034368277 9211005
0.12048022 0.094865747 0.033963561 9342330
0.12335874 0.096106291 0.033493638 9342334
0.12446489 0.098480985 0.03308779 9342336
0.12595528 0.099958301 0.033024192 9342593
0.12965181 0.10606182 0.032368362 9408129
0.13212749 0.10795254 0.032214582 9408130
0.13754846 0.11696328 0.031514943 9473922
0.13897853 0.11827739 0.031319916 9473922
0.12550725 0.10240674 0.032700658 9342336
0.12670049 0.10421031 0.032272816 9473921
0.1006816 0.0020104162 0.071092427 8816255
0.10157418 0.0041829571 0.069792092 8882560
0.10281379 0.0069222413 0.070445895 8750971
0.095879339 0.0015467256 0.068389773 9144951
0.096994065 0.0031861588 0.068125844 9013877
0.10253651 0.0092953406 0.068481386 8948095
0.093515813 0.0013732351 0.067938626 8947578
0.094864711 0.0037503541 0.067183614 8947320
0.096840002 0.0067027695 0.066206992 9078909
0.10255063 0.011505838 0.066737592 8882562
0.10186644 0.013394069 0.066736042 8882305
0.10322978 0.016104624 0.065966427 8948098
0.095680818 0.0070669577 0.065467954 9211260
0.10310209 0.019784145 0.064223409 8882561
0.091623813 0.0094581619 0.064701557 8288866
0.094711795 0.01108836 0.064000249 9013109
0.095588684 0.013306063 0.063418865 9144440
0.096502051 0.01606198 0.062672436 9276028
0.097460821 0.017865274 0.062009871 9210752
0.10349953 0.023423888 0.062935889 8948353
0.10468569 0.026027374 0.06138432 8882561
0.10569318 0.028633699 0.061748147 9013890
0.095100269 0.015079979 0.061261415 9276283
0.09627074 0.016801395 0.060984194 9210493
0.097246006 0.019629788 0.061454296 9210492
0.099001527 0.022016756 0.059952259 9144957
0.10545847 0.029426847 0.059242845 8816770
0.10582856 0.032735087 0.059379399 8882305
0.10643546 0.034906514 0.058002114 8816768
0.10746397 0.035974313 0.057612181 8816769
0.19131677 0.15733862 0.038065553 7961198
0.19341975 0.15967639 0.037978053 6378538
0.096867189 0.02374658 0.060419738 9276029
0.098799616 0.025720861 0.058869541 9144703
0.098447777 0.028088436 0.058449984 9276032
0.10661371 0.038093928 0.057336092 8882563
0.1072559 0.040497418 0.055781305 8816769
0.18402472 0.15167145 0.037234068 9934214
0.18513948 0.15331085 0.036970079 10328972
0.18643045 0.1564883 0.037477314 9539716
0.18770272 0.15915847 0.037894666 6906708
0.096092373 0.027444083 0.056371868 9276026
0.097940817 0.029820044 0.056708932 9013114
0.099209547 0.032407727 0.05591321 8947578
0.10834937 0.044438943 0.054824352 8817025
0.10953062 0.047081791 0.053686082 8882305
0.17860672 0.14813663 0.036345124 9868671
0.1797215 0.14977603 0.036081135 9802372
0.18073228 0.15258196 0.036814153 10197129
0.18266703 0.15579012 0.036623418 10197646
0.18359186 0.15677777 0.03567636 10131852
0.09867686 0.036330268 0.054158747 9013628
0.099708393 0.038018335 0.053466499 9013629
0.10113341 0.039470825 0.052594304 8947837
0.10930933 0.051005799 0.051929832 8882562
0.10979051 0.053238299 0.050401032 8882561
0.1113051 0.055167794 0.049459934 8948099
0.16910009 0.1399678 0.035627425 9605761
0.17027062 0.14168918 0.035350204 9605247
0.17155221 0.14461297 0.035812497 9736833
0.17325222 0.14711308 0.035409927 10000005
0.17465477 0.14952223 0.035333037 10000259
0.17676131 0.15239847 0.034942865 9868681
0.17887396 0.15440935 0.034949124 9868683
0.1811159 0.15560935 0.03551656 10066059
0.099658296 0.040561456 0.05389607 9079423
0.10082026 0.042042982 0.052093327 9013374
0.10086632 0.044129405 0.050850511 9013374
0.10835966 0.054738451 0.051402152 8882562
0.10834806 0.05713284 0.049555719 8882563
0.17189679 0.14711165 0.033844531 9605770
0.172821 0.15091339 0.033703804 9737354
0.17528743 0.15252221 0.034412086 9737355
0.1761774 0.15464443 0.033924282 9934473
0.096738011 0.040842939 0.050888777 9079162
0.098438196 0.042996783 0.05023098 8816252
0.09982831 0.04525606 0.050180972 8882045
0.10110909 0.048503544 0.049492776 9079168
0.10144653 0.050427355 0.048470616 9013374
0.10976639 0.059880424 0.047985077 8882562
0.11120113 0.062627837 0.046483219 8882561
0.11244999 0.064535938 0.045424104 8882306
0.15557745 0.12687796 0.035499454 9408384
0.15726857 0.12847842 0.035533369 9605497
0.15896852 0.13097855 0.035130799 9605243
0.16021867 0.13429503 0.034110725 9474181
0.16197802 0.13644342 0.035183907 9605761
0.16370587 0.13898453 0.034774721 9737345
0.16489382 0.14135993 0.034276605 9540227
0.16645093 0.14486134 0.033365011 9605765
0.16765234 0.14700891 0.033844948 9605770
0.16976885 0.14903921 0.034177661 9671564
0.17007101 0.15076096 0.032508969 9802887
0.17300139 0.15448578 0.033922672 9868680
0.098502249 0.047474965 0.048007309 8947315
0.09967272 0.049196377 0.047730148 9079158
0.10183154 0.051646039 0.046805263 8947831
0.10293391 0.053891655 0.046339512 8882042
0.10370499 0.055591617 0.045758247 9013371
0.10856244 0.065331101 0.046067894 8948355
0.11033486 0.067220703 0.045210302 8948099
0.11138785 0.069679186 0.044090271 8948356
0.11324579 0.071324281 0.043211699 8948354
0.11515239 0.073091514 0.042539716 9079685
0.11910041 0.079441413 0.041824102 9079683
0.12073316 0.080511235 0.041725457 9079684
0.12517235 0.088418707 0.039877355 9145477
0.13554618 0.10362522 0.037202358 9277062
0.14070696 0.1111662 0.0361256 9277064
0.1431556 0.11215621 0.036703467 9145462
0.14488344 0.11469728 0.036294341 9211001
0.14620997 0.1179709 0.036012053 9408387
0.14784931 0.12021129 0.035836875 9408387
0.14950889 0.12295254 0.035725594 9473922
0.15123248 0.12523757 0.035375059 9473920
0.15266684 0.12760748 0.035239637 9539714
0.1542583 0.13088846 0.034758151 9474181
0.156304 0.13299435 0.034756482 9605503
0.15775692 0.13550788 0.034025431 9474182
0.15866762 0.13812806 0.033182383 9474439
0.16103624 0.14047779 0.032964289 9539976
0.16254228 0.1426191 0.032734811 9605767
0.16445722 0.14371011 0.032822967 9605767
0.16502379 0.14767519 0.032186508 9736838
0.16805378 0.14932218 0.032480955 9737094
0.098060623 0.053725943 0.045945346 8947831
0.099760577 0.056226082 0.045542777 8947583
0.10139813 0.058153801 0.045299292 9013374
0.10369094 0.060520396 0.042972505 9013631
0.11077204 0.074048564 0.042865872 9013891
0.11287735 0.075713985 0.042400539 8948099
0.11527973 0.077421673 0.041936755 9014148
0.11588731 0.080092102 0.041893661 9013890
0.11700675 0.082821958 0.041097701 9013891
0.11979255 0.084428728 0.040868819 9079428
0.1231034 0.086732969 0.040370047 9079686
0.12504812 0.092871085 0.038971364 9145478
0.12744425 0.094496362 0.038727045 9145477
0.12936181 0.10010233 0.037697196 9211013
0.13260521 0.10132254 0.037757754 9211270
0.1333867 0.10424714 0.037249267 9211270
0.13521215 0.10740098 0.036890745 9211270
0.13707055 0.10926977 0.036266983 9277064
0.13788143 0.11190673 0.036368906 9277061
0.13993008 0.11485791 0.035883665 9342594
0.14193137 0.11701225 0.035553396 9408390
0.14271852 0.11999637 0.03556478 9474183
0.14572564 0.12205264 0.035526335 9342857
0.1472365 0.12304115 0.035165846 9408393
0.1482197 0.12725101 0.035157204 9342856
0.15006445 0.12911874 0.032827795 9474181
0.15390278 0.13467231 0.034027457 9408649
0.1549671 0.13631548 0.032563686 9474181
0.15691155 0.13869633 0.031568825 9539714
0.15850851 0.14166348 0.031737387 9605765
0.15955678 0.14471063 0.031601489 9671301
0.16198829 0.14582321 0.032111168 9671301
0.10073835 0.061572351 0.043477297 9079418
0.10208079 0.064153597 0.042700291 9013629
0.10395712 0.066831239 0.042376935 9145207
0.11994261 0.088841148 0.040115178 9013892
0.12193869 0.090567484 0.039567173 9079684
0.12325261 0.092005171 0.038891315 9145478
0.12422987 0.096747503 0.038376153 9145478
0.12682056 0.098435953 0.03783083 9211268
0.12986195 0.10379931 0.037766933 9211269
0.13125072 0.10578994 0.03667438 9277058
0.13229921 0.10851334 0.035665154 9408636
0.13426213 0.11112233 0.035660207 9342848
0.14465365 0.12593874 0.031647027 9539714
0.14761078 0.12762639 0.031886339 9539715
0.14644438 0.1310911 0.031810164 9539715
0.14942078 0.13288108 0.032008648 9539714
0.15219584 0.13467029 0.032110095 9539714
0.15634954 0.14216298 0.031783998 9605765
0.10346298 0.067629263 0.041079164 9079167
0.10498759 0.070537046 0.040574133 9144698
0.10583241 0.073034912 0.039576888 9144956
0.10766628 0.074712411 0.039176762 9144956
0.10870387 0.077931277 0.03854686 9145211
0.11097855 0.079631805 0.038004637 9210750
0.1202288 0.096573845 0.035554707 9276795
0.12139923 0.098295212 0.035277486 9342588
0.12432542 0.10259867 0.034584522 9408381
0.12602542 0.10509878 0.034181952 9276536
0.12719586 0.10682014 0.033904791 9211005
0.13567698 0.11544316 0.031597197 9473666
0.13788502 0.12170143 0.031298876 9539715
0.14076288 0.12371599 0.031339765 9539715
0.14067595 0.12763441 0.031441867 9539714
0.14370584 0.12928148 0.031736255 9539715
0.10590741 0.076894514 0.039240003 9145215
0.10713489 0.078452855 0.038948774 9210751
0.10889006 0.08081127 0.038278162 9145215
0.11000681 0.083412893 0.03717953 9144960
0.11201692 0.085629001 0.036701858 9210751
0.11435713 0.087887093 0.036363244 9210752
0.11580446 0.090408236 0.035403311 9211009
0.11731532 0.093418658 0.034719944 9276801
0.1190082 0.095020346 0.034389913 9276802
0.1205686 0.097684182 0.033657432 9276802
0.12302298 0.10057732 0.032820225 9342337
0.12402557 0.10619665 0.032555342 9342336
0.12676121 0.10827252 0.032376051 9342336
0.12911117 0.11022431 0.032070816 9342337
0.13048492 0.11336264 0.031602442 9342337
0.13222601 0.11544708 0.031443655 9473922
0.13348365 0.11855603 0.031439364 9473923
0.13632646 0.12034591 0.031451881 9473922
0.10806274 0.084592722 0.035539806 9473911
0.10981841 0.087174788 0.035124004 9408119
0.11157413 0.089756839 0.034708202 9473914
0.11332984 0.092338964 0.034292459 9277052
0.1150855 0.094921038 0.033876657 9276795
0.11625603 0.096642427 0.033599496 9342588
0.11737317 0.099791393 0.03362906 9276544
0.11954772 0.10180486 0.032966077 9276800
0.121797 0.10410244 0.03286767 9342337
0.12758067 0.11389218 0.03171891 9408130
0.1007653 0.018645078 0.065654337 8619385
0.10311486 0.023679819 0.065174103 8486770
0.1039976 0.024829019 0.064673781 8815993
0.10339788 0.02693006 0.064204216 8684398
0.10471039 0.029304992 0.064039767 8881265
0.10545457 0.031456385 0.062738717 9079165
0.093631379 0.018252481 0.062638879 8946792
0.10418772 0.033424068 0.062537849 8552295
0.10514373 0.035962947 0.060623348 8947837
0.087490194 0.012624897 0.063882291 7302225
0.088941664 0.015003458 0.06281203 7828295
0.091315962 0.017016347 0.06261009 8485975
0.10630576 0.039064027 0.059787512 9079428
0.10668889 0.042664528 0.058006525 9013891
0.092151776 0.023027096 0.061040878 7695431
0.093934856 0.025426406 0.06036371 8419160
0.095240965 0.028110106 0.059437871 9077614
0.095911689 0.030402102 0.058700085 9275768
0.097381309 0.032736853 0.058570564 9210490
0.10517459 0.042775791 0.059121609 9013375
0.107342 0.044650473 0.057187617 9013891
0.10840803 0.047106456 0.056864321 9013635
0.18180516 0.15709014 0.037269354 10000531
0.095943153 0.031752706 0.057750106 9209976
0.097495236 0.034131613 0.056728303 9210493
0.097591884 0.036251474 0.057800412 9209975
0.098629698 0.040140942 0.056032658 9341565
0.10709105 0.050068811 0.05416894 8948099
0.10690824 0.052314851 0.053708613 8948355
0.17549275 0.15342601 0.037103772 10065806
0.1773404 0.15574951 0.036859274 9934222
0.17941123 0.15736564 0.036826372 9276292
0.096494161 0.038578313 0.056250989 9341303
0.098861679 0.042698089 0.054709971 9276286
0.099384829 0.045829941 0.052882373 9276031
0.10491583 0.051853079 0.054549336 9144965
0.10669706 0.054795235 0.052310288 8948098
0.17360269 0.15305577 0.035156906 9803150
0.17624192 0.1558598 0.036820173 9934733
0.099515103 0.047548316 0.051982105 9210496
0.099120215 0.049927942 0.051960766 9210236
0.10665485 0.058591656 0.050328851 8816769
0.10726993 0.060824141 0.048986197 8948354
0.16421854 0.14275637 0.036877751 9604990
0.16594641 0.14529748 0.036468565 9736833
0.16706112 0.14693691 0.036204636 9802626
0.16876715 0.15011883 0.03538996 9671559
0.17046623 0.15274499 0.034945488 9737354
0.17179693 0.15469265 0.035424113 9803146
0.17356059 0.15689263 0.035320818 10131851
0.094981991 0.045365073 0.051101863 9079420
0.096709847 0.047906194 0.050692737 9210746
0.099431977 0.053240612 0.049669147 9144701
0.10481183 0.061011441 0.050376475 8948097
0.10571365 0.062676556 0.048236489 8882561
0.10809398 0.06385579 0.047049701 8948098
0.15701695 0.13659854 0.036411166 9408128
0.15874472 0.13913964 0.03600204 9737350
0.16047257 0.14168075 0.035592854 9737096
0.16064925 0.14474823 0.034175456 9606026
0.16324742 0.14625165 0.034027874 9605770
0.16420607 0.15003201 0.034278572 9671563
0.16637997 0.15086076 0.033831418 9671561
0.1681149 0.15260203 0.034545898 9737353
0.16885664 0.15519834 0.034482539 9934472
0.095468245 0.051991291 0.048090816 9276535
0.097223997 0.054573379 0.047675073 8948086
0.099631362 0.056217361 0.047973335 9079166
0.098785639 0.0589917 0.047237039 9079166
0.10402774 0.064732492 0.047445714 8948098
0.10544168 0.066661604 0.046456099 8882306
0.10722356 0.069328405 0.045161664 8948097
0.10849689 0.071297586 0.044205785 9013892
0.10988244 0.072939515 0.043585956 8948354
0.14278866 0.12158445 0.036884725 9671043
0.14390343 0.12322386 0.036620736 9473664
0.14588267 0.12590349 0.035860598 9408130
0.14735912 0.12830603 0.035802364 9342322
0.14868718 0.13042347 0.035366893 9474178
0.15047885 0.13251573 0.034965694 9540224
0.15177247 0.13506784 0.034685135 9408644
0.15349577 0.13715914 0.034494162 9474434
0.15575953 0.14006986 0.034223735 9474440
0.15795094 0.14234012 0.034090519 9539977
0.16016063 0.14772817 0.033571899 9540231
0.16265333 0.14930633 0.033316433 9671559
0.16285428 0.15366325 0.032938361 9802886
0.16571259 0.15461454 0.033490598 9868423
0.096778437 0.058252662 0.045535624 8816504
0.098071069 0.06064776 0.045412362 8948091
0.10494052 0.071889713 0.044987857 8948097
0.10578907 0.073284119 0.044350922 8948097
0.10802869 0.075195715 0.043708563 8948353
0.11084442 0.077437058 0.043001235 8948099
0.11321034 0.079165041 0.042509854 9013890
0.1130133 0.083658047 0.041548789 8948099
0.11454016 0.084768876 0.041257501 8948099
0.11683257 0.086660035 0.040711343 9013892
0.12170178 0.095100895 0.038688481 9145478
0.12703663 0.10284778 0.037352264 9145221
0.13194089 0.10981504 0.0365538 9145478
0.13504909 0.11470914 0.036509395 9277062
0.13676141 0.11680804 0.036066532 9408384
0.13928407 0.11864465 0.035901308 9342854
0.13967301 0.12215932 0.035379291 9408390
0.14230646 0.12432308 0.035188317 9342857
0.14337617 0.12681857 0.035252094 9342856
0.14560747 0.1292792 0.035206795 9408648
0.14692865 0.13324614 0.035116434 9408648
0.14872967 0.13431701 0.034977257 9408647
0.15244246 0.13957173 0.031770647 9671299
0.15380366 0.1407166 0.033264339 9539974
0.15376902 0.14443585 0.031971812 9605508
0.15632278 0.14624462 0.03201741 9605765
0.097275525 0.063992366 0.043125868 9079162
0.099125586 0.066302367 0.042808115 8947836
0.10040425 0.069101669 0.041852832 9013626
0.10149392 0.070456386 0.041230619 9079167
0.1083543 0.080161422 0.042586684 9013892
0.11025098 0.081273854 0.042352021 9013891
0.11089803 0.082667604 0.04161799 9014147
0.11268646 0.088354737 0.040546656 9079429
0.11583145 0.091497779 0.039253235 9079683
0.11813822 0.093163803 0.038885057 9145476
0.11954209 0.094438195 0.03833276 9145478
0.12126905 0.099838518 0.037493587 9145478
0.12394986 0.10062648 0.037797272 9145476
0.12540391 0.10177793 0.03745085 9145477
0.12516017 0.10635135 0.03679204 9145477
0.12794536 0.10832635 0.036321759 9211265
0.12906131 0.11186561 0.035613179 9211264
0.13086319 0.11356997 0.035245121 9277054
0.13215587 0.11619252 0.034261763 9408636
0.13475199 0.11868834 0.036480188 9211525
0.13642471 0.12067885 0.035828471 9277063
0.14009699 0.12635265 0.035432041 9342857
0.14243513 0.13180482 0.032192171 9539715
0.14421222 0.13303833 0.032204568 9539714
0.14633167 0.13519347 0.031809688 9605251
0.14866966 0.13722663 0.031580269 9605507
0.14970876 0.14045763 0.031410575 9671299
0.15096647 0.14356655 0.031406283 9671300
0.10175847 0.072767109 0.040408611 9013626
0.10355167 0.073776707 0.040234983 9144960
0.10472889 0.075458109 0.03973794 9144960
0.11305928 0.089788422 0.039660394 9079429
0.11663985 0.097345077 0.037690163 9079939
0.11917654 0.098930299 0.037412107 9145222
0.12180568 0.10521343 0.036394715 9079685
0.12740144 0.11191697 0.036120713 9145735
0.13363442 0.1224549 0.03166616 9473922
0.13541156 0.12368837 0.031678557 9473923
0.13789989 0.12646249 0.031887352 9473922
0.13885807 0.12925553 0.032317996 9474179
0.14060219 0.13048933 0.032192886 9605252
0.14607204 0.13962215 0.031699836 9605507
0.14777638 0.14089625 0.031657159 9671299
0.098084182 0.073850207 0.040711045 9144958
0.10073254 0.076582834 0.039317787 9144956
0.1024399 0.078469768 0.039178669 9145214
0.10398942 0.080459662 0.038508117 9144958
0.10561737 0.083001047 0.03786844 9079163
0.10736319 0.085420117 0.037345588 9210492
0.10914514 0.08788009 0.036850512 9276541
0.11045422 0.090481825 0.035996616 9211008
0.11243212 0.093033805 0.03576386 9211263
0.11410552 0.095728472 0.035131633 9276798
0.11569758 0.097996324 0.034851313 9145467
0.11776027 0.1009326 0.03477484 9276795
0.11887504 0.10257199 0.034510851 9145212
0.12032168 0.10568462 0.033685684 9276541
0.12175146 0.10795935 0.033141434 9342076
0.12358247 0.1103312 0.032622218 9276541
0.12638626 0.11233347 0.032147646 9342338
0.12591442 0.11659791 0.032015502 9342338
0.12826438 0.1185497 0.031710267 9473667
0.12982294 0.11990522 0.031557262 9408131
0.13148411 0.12289306 0.031746864 9473922
0.13305092 0.12559435 0.032031178 9473922
0.13499525 0.12707372 0.032003999 9474179
0.10802801 0.092288464 0.035455585 9276541
0.10914635 0.095192492 0.035484374 9210751
0.11086733 0.097796097 0.034677029 9210752
0.1124487 0.099233806 0.034373343 9210752
0.11435397 0.10196076 0.033594728 9276544
0.11658611 0.10403492 0.033172607 9276543
0.11821754 0.1053497 0.033074737 9276800
0.11853705 0.11021045 0.032790482 9342338
0.1210866 0.1125304 0.032583594 9342336
0.12341878 0.11472734 0.03221041 9342082
0.10373794 0.040764421 0.060262024 8749420
0.10607317 0.048091184 0.058044851 8947063
0.1764833 0.15674697 0.038424611 9276039
0.097626701 0.045323692 0.055193722 8946023
0.17448643 0.15651688 0.039169967 9803152
0.098753989 0.04712788 0.054490864 9144177
0.10546608 0.057494029 0.053265989 9013635
0.10433318 0.059618659 0.051070035 8882306
0.16850962 0.15114519 0.037393093 9868936
0.16932139 0.15370625 0.03778553 9934477
0.17109084 0.15593998 0.037789941 9736842
0.15660256 0.14092366 0.036519945 9737352
0.15963587 0.14252818 0.037322521 9671557
0.16075064 0.14416757 0.037058532 9671044
0.16252628 0.14672948 0.036601543 9671301
0.16382788 0.14963309 0.03702265 9737094
0.16516821 0.15206029 0.036542654 9671560
0.16645005 0.15428051 0.036803424 9803150
0.16814935 0.15729418 0.035420418 10000268
0.097115085 0.057504818 0.049889028 9209720
0.10114107 0.063404202 0.049735427 9210498
0.10272668 0.066029027 0.048487961 8948099
0.10337385 0.067422718 0.04775399 8882306
0.15291625 0.13845778 0.035944998 9539713
0.15749197 0.14630742 0.035324335 9605768
0.15877771 0.14940162 0.035725355 9671046
0.16169374 0.1508534 0.03521049 9605771
0.16248102 0.15356928 0.036081851 9671564
0.16440465 0.1559511 0.034752727 9934215
0.094241835 0.056599908 0.047667861 9276022
0.096190542 0.060897306 0.047354996 9341821
0.10030974 0.065283701 0.048048317 9013891
0.10369648 0.068979345 0.046661794 8882561
0.10439934 0.070455045 0.045914531 8882560
0.13991803 0.123775 0.036851108 9671041
0.14061448 0.12583809 0.037451982 9407871
0.14178491 0.12755947 0.037174821 9276800
0.14395894 0.12971789 0.035894156 9605505
0.14529189 0.13231874 0.035325408 9539714
0.14741462 0.13480008 0.035075843 9737086
0.14920659 0.13758513 0.035063803 9474436
0.15068123 0.1403476 0.035212815 9474441
0.15227666 0.14336982 0.0352121 9605512
0.15393442 0.14584154 0.035086334 9605513
0.15553072 0.14802644 0.035192728 9605769
0.15936916 0.15276191 0.032827318 9737094
