# .PCD v0.7 - Point Cloud Data file format
VERSION 0.7
FIELDS x y z rgba
SIZE 4 4 4 4
TYPE F F F U
COUNT 1 1 1 1
WIDTH 1109
HEIGHT 1
VIEWPOINT 0 0 0 1 0 0 0
POINTS 1109
DATA ascii
0.24605516 0.38071796 0.0032366873 9802905
0.24655679 0.38370243 0.0047634188 9605786
0.24838307 0.38677472 0.0035761506 9670547
0.25059322 0.38916105 0.0040017976 9802647
0.25167117 0.39114842 0.003107676 9867669
0.25353643 0.39400277 0.0034538133 9932947
0.25533608 0.39714172 0.0030646066 10130841
0.25710717 0.39916411 0.0044240095 9538963
0.25884351 0.40197042 0.0044197808 9538713
0.25994843 0.40375623 0.0044170981 9999264
0.26168472 0.40656254 0.0044128583 9934482
0.26269311 0.40946424 0.0029724778 10130838
0.26438797 0.41182616 0.0032205735 10723231
0.26563326 0.41434619 0.0018120769 10525339
0.26799828 0.41676739 0.0043974742 10131604
0.26968199 0.41948864 0.0043934081 10262935
0.27040216 0.42280459 0.0034779012 9933716
0.2718927 0.42513421 0.0024230678 10065046
0.27476892 0.42668831 0.0036536062 10262166
0.27611333 0.43114546 0.0018545949 10263199
0.27544156 0.43285787 0.0040331832 10327961
0.27818048 0.43523949 0.0037983512 10525597
0.28023833 0.43682575 0.002462385 10723235
0.28056759 0.44091427 0.0025656871 10854819
0.2837157 0.44227916 0.0028987271 10986662
0.28421596 0.44424158 0.0018349033 11051939
0.28562811 0.44789729 0.0032731704 10591906
0.2881749 0.45090824 0.0036701385 10329249
0.28909573 0.45278865 0.0038171383 10196891
0.29154259 0.4542909 0.002419245 10262168
0.29383448 0.46110588 0.0033937262 10789027
0.29618305 0.46353197 0.0025123132 10657183
0.29711762 0.46636438 0.0028187041 10788768
0.29818496 0.46870384 0.0036063143 11183785
0.30071616 0.47056729 0.003415619 11315370
0.30199403 0.47510815 0.0038848985 11447215
0.30348909 0.47624111 0.0039625638 11381421
0.30488127 0.47843698 0.0037812875 11315113
0.30641058 0.48143041 0.0039998833 11513008
0.30822659 0.48289371 0.0038962807 11578800
0.30995578 0.48464531 0.0034473231 11644594
0.31163022 0.49172187 0.0025370317 11183009
0.314473 0.4945482 0.0018943757 10063495
0.31631789 0.49599355 0.0017540357 9075827
0.17841369 0.27769205 0.001824881 5590076
0.18219885 0.28634408 0.0011923345 5853000
0.18510303 0.28731123 0.0015731741 6050379
0.18644734 0.29075274 0.0019953819 7630428
0.18795335 0.29413339 0.0025290081 9800836
0.19942822 0.31255126 0.0024277307 10262419
0.20058577 0.3144221 0.0024249302 10130833
0.20169073 0.31620795 0.0024222417 10196375
0.20342696 0.31901425 0.0024180184 10261912
0.20549417 0.32185167 0.0028631759 10130327
0.20707715 0.3239674 0.0018719203 10064535
0.20868441 0.3263841 0.0025013578 10065306
0.20996971 0.3287833 0.0023866035 10130843
0.21195574 0.33149377 0.0023189778 10262423
0.21311191 0.33512831 0.0016249451 10262167
0.21447952 0.33679104 0.001752548 10196888
0.21612073 0.33898199 0.0018102806 10131095
0.21868438 0.341528 0.00094183651 10262159
0.22049914 0.34410891 0.00070055434 10262153
0.22169782 0.34678814 0.0012781399 10196619
0.22281413 0.3492724 0.0011706561 10065295
0.22482561 0.35210374 0.00078016729 9933968
0.22774377 0.35888159 0.00017607491 10065560
0.23207958 0.36478385 0.00056873681 9868185
0.23447755 0.36718082 0.00055788411 9933461
0.23572266 0.36970353 0.00093029183 9867925
0.23744006 0.37237462 0.00097717647 9670804
0.23882134 0.3752726 0.00061516883 9407633
0.24062234 0.37625635 0.00121042 9210513
0.24128269 0.38068947 0.0017691833 9539217
0.24284214 0.38262352 0.00059829233 9604749
0.24452004 0.3856872 0.0017850287 9802129
0.24708578 0.38819093 0.0010819536 9801873
0.24838807 0.39085382 0.00080642523 9670287
0.24945721 0.39354461 0.0014239731 9802388
0.25130099 0.39577502 0.0015582258 9867924
0.25282201 0.39787227 0.0018896131 9802389
0.2538273 0.40136492 0.0011802569 9802131
0.25594547 0.40314764 0.0015396085 9670548
0.25813109 0.4055028 0.0010917349 9736083
0.25916758 0.4078407 0.0012199008 9933461
0.26123288 0.41048309 0.0015317295 10131355
0.26169565 0.41442883 0.00071964855 10328475
0.26374379 0.41653353 0.0012575139 10394012
0.26568544 0.417842 0.0020547598 10065817
0.26706067 0.42104861 0.0023888187 9999252
0.26835221 0.4238925 0.00079037854 9999768
0.27141163 0.42593843 0.00042627752 10065044
0.27107358 0.42997053 0.0012585809 10197145
0.2732023 0.43112299 0.0012798936 10262682
0.27475575 0.43304253 0.0010878061 10262167
0.27634782 0.43476313 0.0017043523 10328218
0.27769372 0.43934003 0.0019597879 10591388
0.28341326 0.44897196 0.0021655657 10525339
0.28632495 0.45099226 0.0021065387 10394011
0.28985488 0.45992076 0.0021602644 10788254
0.29182589 0.46081799 0.0021820399 10854303
0.30952621 0.4902015 0.0025784702 11512236
0.31080675 0.49299479 0.0018816348 10920096
0.31299877 0.49369684 0.0021044905 10590354
0.17586757 0.27656084 0.00057953922 5655095
0.23758845 0.37977791 3.6091777e-05 9407114
0.23944782 0.381156 0.00021246448 9472650
0.24424285 0.38889053 0.00041272258 9867409
0.24590914 0.39079893 0.00011049025 9670288
0.25061363 0.39929569 0.00075315521 9867667
0.2521846 0.40091044 0.00051915436 9867924
0.25727257 0.40963989 0.00094120973 9801871
0.25864106 0.41161478 0.00050866324 10065044
0.26531887 0.4221237 0.0006992179 9999769
0.19389832 0.28611958 0.012611723 9539990
0.19604953 0.29113868 0.01267162 9342871
0.20088775 0.29672968 0.012793649 9606042
0.20498556 0.30289587 0.012597952 9738141
0.19009399 0.28200403 0.011492675 8091513
0.19038928 0.28511506 0.012250472 9342353
0.19358355 0.28948972 0.012899762 9408664
0.19660816 0.29478997 0.011874171 9342869
0.19930652 0.30094087 0.012220567 9737884
0.20185198 0.30259913 0.011777779 9737885
0.20428883 0.3076767 0.011829257 9606299
0.20624775 0.30975616 0.011060487 9540251
0.29021552 0.44513077 0.011840107 10459806
0.29192546 0.44789457 0.011835907 11117474
0.2936354 0.45065835 0.011831777 10854297
0.29479295 0.45252922 0.011828925 10656677
0.18379934 0.27872205 0.0092351427 5329234
0.18537968 0.28027377 0.01006113 5986393
0.18688294 0.28199032 0.010609714 7301486
0.18752541 0.28688267 0.0094088949 9670544
0.19086583 0.28816754 0.0095689856 9802390
0.1913314 0.29134968 0.010357847 9539990
0.19463491 0.2930685 0.010209032 9474198
0.19488028 0.2962665 0.0091480371 9735311
0.19551617 0.29951897 0.0095256558 9868440
0.19839014 0.30120975 0.00946155 10065820
0.20013265 0.3034817 0.0086329971 10000283
0.20563963 0.31459999 0.010466892 9606299
0.20856234 0.31596658 0.010394899 9737628
0.21006133 0.31762531 0.0098103434 9671836
0.21027033 0.32313913 0.0089191785 9737628
0.21209659 0.32436067 0.0086689796 9803421
0.21313991 0.32583076 0.0079545788 9737628
0.27679014 0.42991534 0.0096627902 10658207
0.277895 0.43170115 0.0096601173 10789793
0.27963138 0.43450746 0.0096558696 10657442
0.28192088 0.43685275 0.0088810977 10459547
0.2830784 0.43872356 0.0088782487 10525340
0.28480452 0.44110471 0.0086421221 10655900
0.2858347 0.44466302 0.0097140092 10394013
0.28699219 0.44653389 0.0097112134 10394013
0.29383209 0.45758903 0.009694593 11183277
0.29498956 0.45945984 0.0096917432 11249574
0.29672581 0.46226624 0.0096875262 11381415
0.29846209 0.46507251 0.0096832942 11644843
0.30074272 0.46785489 0.009164934 11315883
0.30237785 0.47013509 0.0086113699 11381935
0.30364531 0.47209495 0.0089014471 11381934
0.30514005 0.4750506 0.0088728257 11382189
0.30640158 0.47803432 0.0097372122 11841708
0.30755916 0.47990525 0.0097343642 12039087
0.3092691 0.48266903 0.0097302245 9472655
0.31097913 0.48543274 0.0097260633 7694675
0.31271535 0.48823911 0.0097217988 6904888
0.31508645 0.49065149 0.0089102387 7101750
0.31618872 0.49249777 0.008944124 7429940
0.31789872 0.49526152 0.0089399703 7364405
0.18124856 0.27759346 0.0078485254 5658195
0.18503597 0.28412816 0.0077057974 7827051
0.19253749 0.29577094 0.0060152807 9933460
0.19733284 0.30444601 0.0062337168 10130839
0.19912685 0.30792543 0.0083988598 9803162
0.20173626 0.30995569 0.007961072 9868699
0.20380266 0.31226289 0.0073699942 9868698
0.20406348 0.31698173 0.0074523832 9868698
0.20555761 0.31864321 0.0067265006 9934491
0.20695102 0.32024997 0.0063568349 9868698
0.20863934 0.32173568 0.0077085402 9803419
0.2107868 0.32846296 0.0082262568 9803421
0.21282475 0.33061087 0.0073499577 9737885
0.21506 0.33251959 0.0067454968 9803677
0.21657601 0.33605143 0.0075765401 9737628
0.2185373 0.33812952 0.0068783062 9803421
0.22206245 0.34382713 0.0068697287 10000798
0.22284119 0.34569567 0.0058890269 9935006
0.26012695 0.40529406 0.0057144817 9671577
0.27138633 0.42349258 0.0056870645 10066335
0.27585787 0.43307447 0.0065709408 10395299
0.2773765 0.43448606 0.0061225048 10526885
0.2812323 0.44044951 0.0061078332 10658215
0.28538543 0.44646475 0.0064381631 10197922
0.28629369 0.4482536 0.0057344604 10461093
0.29070216 0.4538756 0.0060484074 10395045
0.29049397 0.45671013 0.0068178293 10854047
0.29255199 0.45843512 0.0066404035 10723236
0.29449135 0.46052855 0.0070755496 10919841
0.29625687 0.46308228 0.0074901478 11117992
0.29817638 0.46436417 0.0075562466 11184042
0.29882562 0.46813723 0.0077017839 11315886
0.29953796 0.47157744 0.0079683606 11446442
0.30128101 0.47461432 0.0077206008 11447214
0.30323923 0.47575474 0.0078181718 11447215
0.30487207 0.47874239 0.0076441593 11577774
0.30622631 0.48182401 0.0073868679 11578546
0.3086614 0.48327667 0.007320995 11643825
0.31027544 0.48609948 0.0071444563 10589848
0.31220031 0.48937646 0.0067182858 8747123
0.31324032 0.49088868 0.0065709902 8417644
0.31586608 0.493341 0.0068484712 7429443
0.17665745 0.27478468 0.0045876084 5590333
0.17856799 0.27666274 0.0063994601 5920592
0.17916285 0.28134927 0.0051254733 5657171
0.18223901 0.28156373 0.0058044633 5525327
0.18552986 0.28928545 0.0042152824 8943986
0.18571453 0.29246539 0.0052611819 10064528
0.1877258 0.29339704 0.0057068067 10130067
0.19023795 0.29547673 0.0059312652 9932946
0.19052377 0.29913297 0.0056526791 9736081
0.19287734 0.30114594 0.0057716547 9670287
0.19529581 0.30311862 0.0057341354 9933202
0.19680582 0.30518284 0.0056642457 9999255
0.19735545 0.30842924 0.0056022452 10130839
0.19895028 0.31120509 0.0053427494 10065047
0.20028654 0.31484583 0.0047077527 10065303
0.20174979 0.31611776 0.0058506653 9933976
0.20577569 0.32426974 0.0063325148 9868698
0.20885074 0.32630602 0.0059853652 9934491
0.21109492 0.32850307 0.0053153569 9934491
0.21323505 0.33552665 0.0043883496 10065821
0.21485892 0.33710828 0.0039396705 10000027
0.21802504 0.34185696 0.0071091787 9803421
0.21967383 0.34307057 0.0067232931 9869213
0.22285667 0.34944987 0.0063855425 9935263
0.22416951 0.3518694 0.0050790021 9869213
0.22652 0.35376555 0.0044349767 9869211
0.22790137 0.35855529 0.004410252 9934751
0.22992021 0.35954034 0.0042905835 9935006
0.23268849 0.36453074 0.0045769433 9737628
0.24067758 0.3767567 0.0047564143 9276821
0.24204923 0.38166991 0.0046636472 9803161
0.24449059 0.38251144 0.0048100264 9737371
0.24431832 0.38649935 0.005317457 9474201
0.24621695 0.38755876 0.0052032275 9408665
0.24847092 0.38851595 0.0051458739 9540250
0.24884567 0.39275262 0.0051443968 9605785
0.25179026 0.39536104 0.0057325196 9868185
0.25328857 0.3979224 0.0056607304 9867928
0.25535893 0.40054184 0.0057833511 9407634
0.25612745 0.40353531 0.0057444344 9277078
0.25841743 0.40447044 0.0058623115 9737112
0.25988358 0.40826678 0.0056621679 10066071
0.2604163 0.41134596 0.0047602425 10329505
0.26321819 0.41184789 0.0055601662 10263199
0.2644726 0.41548169 0.0056588864 9868699
0.26599112 0.42124459 0.0054714098 9934494
0.26905534 0.42270014 0.0054672314 9934494
0.2700972 0.42576036 0.0059513077 9802904
0.2723214 0.42753971 0.0059461659 10066077
0.27385995 0.4315455 0.0054056128 10328733
0.27819434 0.4390955 0.006219361 10592422
0.27935559 0.44278404 0.0044470788 10722716
0.28094792 0.44426993 0.0055189305 10394271
0.28307447 0.44606957 0.0049161809 10394525
0.28542227 0.4496142 0.0046578064 10394011
0.28672594 0.45145482 0.0055340687 10263198
0.2872023 0.45415902 0.0057471585 10328991
0.28843316 0.45692497 0.0055469181 10591907
0.29073381 0.45814699 0.0053515937 10789544
0.2927222 0.46285754 0.0069324896 10789801
0.29537162 0.46668205 0.0040158215 11118250
0.29984555 0.47420287 0.0037274957 11447215
0.3040497 0.48112684 0.0037905297 11513008
0.30911705 0.49022478 0.0060601402 9471881
0.17247802 0.27101851 0.0032757162 6050623
0.17419636 0.27419022 0.0043051569 5524539
0.17506403 0.27671272 0.005527637 5985868
0.17728728 0.27980351 0.0041326098 6051668
0.18113272 0.28741717 0.0024873549 5655617
0.18358332 0.28937185 0.0036986556 8023137
0.18465011 0.29200569 0.0045805136 9865866
0.18668377 0.29492134 0.0041437489 10261654
0.19584364 0.30959743 0.0040481859 9933971
0.19758005 0.31240368 0.0040439554 10131350
0.19829021 0.31455284 0.0050523337 9998997
0.20026678 0.31724894 0.0045187999 9933203
0.20262975 0.319792 0.0039459681 10064790
0.20333688 0.32265878 0.0039068353 10130326
0.20403059 0.32599127 0.0030986983 10065046
0.20621148 0.32852224 0.0028971648 10065046
0.2078127 0.33058864 0.0026709994 10130840
0.21010253 0.33364126 0.0032542781 10065818
0.21152896 0.33423078 0.0046329917 9868698
0.21340428 0.34165293 0.0034395645 10000027
0.21564788 0.34285194 0.0035286241 9934235
0.21817514 0.34516791 0.0028868399 10000027
0.22359912 0.35698372 0.0043832003 10000799
0.22562765 0.35784522 0.0043315794 9934751
0.22769669 0.36209273 0.0048393062 9934749
0.22971538 0.36307788 0.0047196066 9803421
0.2316151 0.37025017 0.003803602 9737371
0.23333611 0.37130168 0.0035536136 9737371
0.23541738 0.37224817 0.0035018781 9737628
0.23686105 0.37594208 0.0041968874 9474456
0.23816678 0.37924886 0.0034739049 9473941
0.23937619 0.38144106 0.0039000553 9802649
0.24193768 0.38355914 0.0030410278 9868698
0.24509569 0.38907358 0.0038550205 9538702
0.24625324 0.39094445 0.0038521625 9735816
0.24798943 0.39375082 0.0038479615 9933460
0.24943194 0.3960906 0.0028185281 9867669
0.25074148 0.39980656 0.0021032165 9868697
0.2525678 0.40102807 0.0018530218 9868440
0.25305855 0.4047237 0.002615591 9538446
0.25538528 0.4064298 0.0026586177 9539217
0.25753528 0.40995011 0.0024950788 10196374
0.25887069 0.41171074 0.0024134309 10393497
0.26065877 0.41422206 0.0034454244 10328220
0.26461542 0.4206233 0.0038074316 10263188
0.26577294 0.42249423 0.0038046367 10263188
0.26683024 0.42524949 0.0032915077 10065303
0.26821148 0.42686459 0.0034530747 10065302
0.27037784 0.42920768 0.0027414756 10262424
0.27297407 0.43526497 0.0030305109 10459805
0.27443337 0.43741947 0.0030584661 10591132
0.27667284 0.44000331 0.0034221965 10723233
0.27928334 0.44529581 0.0028467679 10723234
0.28075013 0.44844535 0.0029173114 10394268
0.28216168 0.45033655 0.0036493265 10394527
0.28454533 0.45121399 0.0038690469 10394784
0.28437182 0.45590743 0.0038948725 10394528
0.28691411 0.45758623 0.0028037815 10394012
0.29005024 0.46362385 0.0036405772 10657440
0.29179657 0.4651888 0.003364299 10722978
0.2939297 0.46657324 0.003071551 10788768
0.29377648 0.47055021 0.0041441959 11381678
0.29632619 0.47299924 0.0035573184 11315371
0.29954588 0.47521123 0.0035447937 11380907
0.29895648 0.4791036 0.0034982718 11381678
0.30034587 0.48098779 0.0035350306 11315627
0.30232111 0.4836069 0.0034012641 11380905
0.30338895 0.48588571 0.0031970921 11512749
0.30611408 0.4881973 0.0028492599 11578543
0.30849436 0.49013472 0.0027534834 11446702
0.16872399 0.27016541 0.0027840189 6247744
0.17068765 0.27424294 0.0032920984 5721660
0.17304002 0.27792034 0.0019394011 5919042
0.1781366 0.28638759 0.00094065373 5655616
0.17905462 0.2879082 0.0018060714 5852479
0.18088585 0.29074302 0.0012154097 6577230
0.19693489 0.31797364 0.001908898 9933971
0.20157854 0.32333463 0.0036252353 10065046
0.20345353 0.32652414 0.0026802476 10130839
0.20382741 0.32911384 0.0018921582 10130582
0.20551099 0.33183509 0.0018879991 10130329
0.20810394 0.33360192 0.0019292313 10262167
0.2095304 0.3364335 0.0020891959 10262168
0.21071143 0.33896521 0.0015440257 10130583
0.21263313 0.34185266 0.0014643334 10065303
0.21426488 0.34425265 0.0010311473 10065301
0.21649814 0.34661409 0.00093088765 10196630
0.21790428 0.34964442 0.00098925736 10262420
0.21918267 0.35187101 0.000635467 10262417
0.22083749 0.35468841 0.0005162973 10131092
0.22285408 0.35702688 0.00023408071 10393217
0.22456402 0.35979068 0.00022988883 10524827
0.22494128 0.36206666 0.00073293597 9999256
0.22686103 0.36440673 0.00073711621 9998743
0.22915986 0.36745286 0.0006949103 9933976
0.23165551 0.3720428 0.00044024736 9867924
0.23366553 0.37423891 0.00057418644 9933460
0.23505221 0.37705702 0.0014134282 9736597
0.23656854 0.38008741 0.0012971972 9341585
0.23777184 0.38242915 0.00093034981 9473418
0.23946176 0.38559714 0.00078131678 9868175
0.24113742 0.38795134 0.0010181267 9802129
0.24231984 0.38993567 0.0020013908 9539217
0.24491976 0.39223629 0.0014923533 9670546
0.24694559 0.39404052 0.0016596582 9802131
0.24680308 0.39838463 0.0010902616 9867924
0.24752781 0.40097094 0.0015970757 9998995
0.25037435 0.40301287 0.0022482602 9736339
0.25187111 0.40569231 0.0017543026 9473685
0.25416285 0.40821186 0.00048746285 9538445
0.25591463 0.4102467 0.002166148 9999510
0.25799504 0.41260478 0.0021062705 10394527
0.25893459 0.41554961 0.0009993061 10460062
0.25884533 0.41901541 0.0012816656 10131614
0.26126039 0.4209314 0.0012373436 9999511
0.26341471 0.42336312 0.0023439927 9998996
0.26460126 0.42627323 0.0016526759 9999511
0.26657769 0.42804781 0.00084201642 10065304
0.26762336 0.43051764 0.0012083197 10196889
0.26904222 0.43359911 0.0014560171 10328476
0.27090192 0.43601516 0.0012397286 10262680
0.2731255 0.43852153 0.0023099799 10592161
0.27354032 0.44202763 0.0021514837 10591390
0.27536502 0.44389734 0.0021970025 10657440
0.277758 0.44494492 0.0021366533 10657437
0.28198573 0.45420587 0.0020317526 10394266
0.28409448 0.45572361 0.0021316237 10394267
0.28724143 0.46306694 0.0025214008 10722718
0.29307476 0.47110048 0.003187808 11249062
0.30714607 0.49649441 0.0018602593 8878449
0.16976245 0.27633935 0.0001793527 5852731
0.21690564 0.35300601 0.00099347206 10262166
0.21880756 0.35582712 0.00077169598 10327960
0.22191723 0.36022863 0.00011517084 10131095
0.22542042 0.36537635 0.00069822744 10065304
0.2328648 0.37876147 0.00026982022 9736081
0.23615271 0.38319534 0.00064585661 9735564
0.23723572 0.38511163 0.00022181799 9867664
0.24274769 0.39428386 0.00028427155 9736081
0.24461643 0.39583215 0.00018053898 9801874
0.24714485 0.40285254 0.00051409216 9867922
0.24887365 0.40472239 0.00027970807 9867667
0.25104991 0.40608072 0.00037425011 9670033
0.25465837 0.41425523 0.00051685073 10196629
0.25941306 0.41854474 5.0355447e-05 10394013
0.2606487 0.42413113 0.00061216624 9999253
0.26299742 0.4263624 0.00055258512 9999255
0.18879586 0.28704309 0.013190543 9211282
0.18992643 0.28904867 0.013509624 9343126
0.19112486 0.29201102 0.013278835 9342614
0.19504686 0.29293653 0.013730833 9277077
0.19448704 0.2964581 0.013888482 9474712
0.19602324 0.29868108 0.01285365 9671834
0.2007338 0.30446869 0.012983747 9606556
0.18658483 0.28417566 0.011829622 9013384
0.18658964 0.28617364 0.013106406 9277074
0.19637419 0.30281481 0.012815557 9606299
0.19748013 0.30424628 0.012169102 9672093
0.19968531 0.30776167 0.011915095 9540763
0.20040983 0.31007683 0.011900065 9540506
0.20364414 0.31160349 0.011926848 9540506
0.20753542 0.32024688 0.010087598 9671835
0.28693789 0.44915685 0.011249725 10394263
0.28809533 0.45102772 0.011246925 10723227
0.28920037 0.45281351 0.011244275 10919074
0.2908788 0.45565569 0.011313396 10854050
0.29261512 0.45846197 0.011309218 11183527
0.29603502 0.46398953 0.011300828 10987683
0.29719251 0.46586046 0.011298031 11185062
0.29829738 0.46764627 0.011295348 10921377
0.30345359 0.4759801 0.011282794 11446702
0.30518979 0.4787865 0.011278564 10853268
0.30634728 0.48065737 0.011275716 9076857
0.3080284 0.483439 0.011308301 7298647
0.30970964 0.48622066 0.01134084 7100464
0.31144589 0.48902708 0.01133658 7363890
0.31318218 0.49183333 0.011332417 7430192
0.31433973 0.4937042 0.01132955 7364927
0.31602326 0.49642551 0.011325454 6970424
0.18109541 0.28033751 0.01013587 5657426
0.18276088 0.28348333 0.011272697 8486270
0.18374032 0.28598982 0.0087760752 9209733
0.18483318 0.28866699 0.01010017 9539475
0.18805602 0.28996578 0.010229073 9671063
0.18766348 0.29373708 0.010668943 9539734
0.19001859 0.29568958 0.010273587 9539733
0.19192483 0.2986261 0.010407654 9736855
0.1923501 0.30177233 0.0098880595 9868698
0.19448233 0.30362767 0.0095691513 10000027
0.19700266 0.30571309 0.009170698 9934747
0.19933997 0.31249747 0.0085154818 9802907
0.20115644 0.31384262 0.0081972089 9802905
0.20122454 0.31744859 0.010033684 9606299
0.20395747 0.31899115 0.0097946413 9671835
0.2047497 0.32314622 0.010025132 9671835
0.20719585 0.32398504 0.010312758 9737629
0.20883761 0.32631895 0.0091703944 9737883
0.29361907 0.46301013 0.0081081949 11117476
0.29460207 0.46569398 0.0078439694 11314854
0.29757014 0.46926722 0.0080252849 11380906
0.29983193 0.47316018 0.0084489975 11316403
0.17722535 0.27890775 0.0085401377 5526613
0.18034376 0.28415015 0.0076164817 7300965
0.18615882 0.29536751 0.0066468772 9867667
0.18908319 0.296969 0.0070746588 9801362
0.19000386 0.29922512 0.0094224699 9735824
0.19235611 0.30208069 0.0088794492 9932944
0.19414477 0.30694795 0.0063894158 10065051
0.19538498 0.31012347 0.0087442733 9868698
0.19678362 0.31160933 0.0083013289 9802905
0.19914372 0.31779236 0.008093724 9737368
0.20144033 0.32013351 0.0075308196 9737368
0.20379792 0.32202554 0.0070988233 9802905
0.20842856 0.33121601 0.0085711619 9672092
0.2098947 0.33254251 0.0081229266 9803677
0.21248752 0.33434772 0.0076457667 9737884
0.21543877 0.34028244 0.0073427083 9803165
0.21953355 0.3479192 0.0062909331 9935007
0.26710472 0.42555422 0.0060833804 9868701
0.27145949 0.43156213 0.0063713184 10460834
0.27538842 0.43701059 0.0067335581 10658214
0.27853209 0.44218352 0.0091336127 10261650
0.28024203 0.44494733 0.0091294255 10065298
0.28200549 0.44644213 0.0083559547 10525337
0.28313586 0.44962448 0.0091223996 10460826
0.2837956 0.45132816 0.0059487233 10329507
0.28601244 0.45595443 0.0063880142 10329252
0.28873029 0.46046731 0.0071856938 10657440
0.29144278 0.46231821 0.0080972863 10920871
0.29213035 0.46540192 0.0086999126 11118763
0.29434368 0.46753901 0.0075580217 11315630
0.29510257 0.4715001 0.008469848 11250093
0.29688799 0.47306103 0.0084989928 11381420
0.29848367 0.47575864 0.0087097138 11446956
0.29965714 0.47850034 0.0078857802 11446958
0.30189598 0.48093632 0.0075036646 11578545
0.30243456 0.48377767 0.00722198 11643566
0.3061997 0.48889434 0.0063684997 9932689
0.30764985 0.4916032 0.00627774 8088674
0.30910012 0.49341044 0.0062637301 7232583
0.31120434 0.49593049 0.0063477759 7429434
0.17241547 0.27623391 0.005041495 5722692
0.17383575 0.27841488 0.0065925969 6052698
0.17677377 0.28265262 0.0062217368 5262408
0.18106319 0.29040274 0.0042457124 9076084
0.18269962 0.29339072 0.0057909805 9998229
0.18473177 0.29534796 0.0060340445 9998739
0.18640618 0.29756528 0.0059733493 9801361
0.18791988 0.30070576 0.0062896321 9735824
0.18949509 0.30294523 0.006185594 9867409
0.19145915 0.3051008 0.0060195029 9999252
0.19336955 0.30819038 0.0053780749 10130837
0.19439344 0.31108499 0.0055882083 10065302
0.19564338 0.31321192 0.0053514033 9999509
0.19801718 0.31871918 0.0045759366 9999254
0.20267749 0.32747987 0.0061450806 9934490
0.20569932 0.3284331 0.0065571368 9934748
0.20732105 0.33107328 0.005385885 9934490
0.21185008 0.33973643 0.005400802 9803163
0.21448439 0.34545779 0.0065195598 9803421
0.21626796 0.34647071 0.0063375412 9869213
0.21864322 0.35346648 0.0054728519 10001056
0.22035944 0.35452071 0.0050815693 10000799
0.2220082 0.35573426 0.0046956949 9935262
0.22300532 0.3595278 0.0051954482 9868958
0.22572578 0.36119547 0.0048175752 9869214
0.22855839 0.36755607 0.004349804 9868957
0.23032698 0.36881346 0.0041730301 9803165
0.23359212 0.37490696 0.0040393374 9737629
0.2357333 0.37899241 0.0046830447 9671578
0.23929137 0.38502228 0.0045383088 9671832
0.24101721 0.38607097 0.0044296724 9539992
0.24316142 0.39097744 0.0049476284 9539993
0.24473126 0.39300561 0.0054647196 9605785
0.24557087 0.39536723 0.0055174474 9671578
0.24821766 0.39661086 0.0056292936 9605275
0.24916492 0.40022871 0.0055965306 9473687
0.25163016 0.40226063 0.0056235297 9408142
0.25303349 0.40474346 0.0054473281 9539207
0.25410855 0.40788868 0.0056842999 10130842
0.25600052 0.41027737 0.0057610404 10262681
0.25761095 0.41214192 0.0054361448 10328470
0.25868505 0.4148871 0.0051227743 10131100
0.26064312 0.41832101 0.005418119 9802901
0.26262507 0.42028934 0.0054483418 10000276
0.26251492 0.42380741 0.0057795299 9605786
0.26477361 0.42476186 0.005863511 9737372
0.26715651 0.42922583 0.005763296 10066074
0.26901621 0.43054479 0.0058324123 10394781
0.27135742 0.43600488 0.0058944798 10592162
0.27238873 0.43886685 0.0070118997 10197145
0.2745004 0.44238096 0.0065487553 10328735
0.27563348 0.44355968 0.0053656949 10394528
0.27744472 0.44508466 0.0052281674 10328734
0.27875763 0.44874108 0.0053960639 9999769
0.28110546 0.45128611 0.005012353 10131355
0.28303951 0.45391181 0.005410702 10328733
0.28346461 0.45623714 0.0062905867 10328477
0.28561634 0.45937401 0.0060429079 10591388
0.28689387 0.46132606 0.0051412228 10592164
0.29010597 0.46753046 0.0047755176 11118250
0.29152259 0.4695929 0.0042016949 11315885
0.2972025 0.4777199 0.0038844135 11447216
0.3018316 0.4850913 0.0071968809 11184559
0.30315071 0.48674348 0.0064059906 11117480
0.3045612 0.48822251 0.0063163904 10524310
0.30657625 0.49532327 0.0052535357 7825503
0.16626287 0.26957104 0.0025016265 6248002
0.16847168 0.27349707 0.0031399811 5918781
0.16890679 0.27628657 0.0040283585 5722175
0.17405838 0.28015518 0.0042835572 6183256
0.17831515 0.2893191 0.0037039355 7562843
0.17896828 0.29205132 0.0040649986 9010810
0.19411616 0.31572458 0.005286281 9999252
0.19520377 0.31677526 0.0045387005 9999253
0.19630013 0.31962377 0.0039199251 9933460
0.19843395 0.32239968 0.0039253151 9999253
0.19954816 0.32553139 0.0035001538 10064791
0.20140031 0.32803091 0.003509698 10064787
0.20260005 0.33034566 0.0032781528 10130581
0.20434281 0.33284199 0.003121458 10065303
0.20609103 0.33577031 0.0031828752 10131096
0.20765537 0.33750811 0.003871385 10131353
0.20929024 0.34008211 0.0031514836 10130840
0.21043754 0.34272513 0.0041263467 9999771
0.2118693 0.34548384 0.0035652884 9934235
0.21695197 0.35192615 0.0057122298 9935008
0.22525179 0.36619145 0.0041870642 9935005
0.22961499 0.3739568 0.0036241142 9868957
0.23343992 0.37852955 0.0044682426 9737372
0.23572221 0.38411391 0.0042870482 9803163
0.23962258 0.3883445 0.0041313358 9474199
0.24070254 0.39055744 0.004173148 9539218
0.24218138 0.39381576 0.0033371642 9933449
0.24391755 0.39662206 0.0033328966 10328457
0.24507505 0.39849296 0.0033300996 9867423
0.24807569 0.4027496 0.0022498546 9736855
0.25046247 0.40609905 0.0054893671 9474201
0.25166568 0.40946603 0.0026126022 9801616
0.25329846 0.41194493 0.0029593017 10131610
0.25555536 0.41372415 0.0033659097 10394269
0.25779513 0.41613954 0.0026767217 10327962
0.25814223 0.41857225 0.0037380836 9999770
0.26291123 0.42732137 0.0032866567 10131348
0.26418474 0.42994314 0.0029405863 10196632
0.2666035 0.43126944 0.0033094219 10327959
0.26901284 0.4335418 0.0034137042 10459545
0.26933199 0.43798861 0.0029935779 10591648
0.27117896 0.44015923 0.0037045018 10591133
0.27315643 0.44285515 0.0034895728 10591392
0.2776823 0.44863889 0.0032720673 10263198
0.2783027 0.45256564 0.0025250139 9999510
0.28056151 0.45432544 0.0038510258 10328734
0.28205118 0.45899004 0.0042448216 10394529
0.28366905 0.46004573 0.0035031612 10394012
0.28501725 0.46162093 0.0025682508 10525339
0.28840891 0.46781468 0.0038475492 10854819
0.29136878 0.46980456 0.0034325491 11117477
0.29108009 0.47433504 0.0040605115 11249833
0.29303107 0.47553855 0.0040533911 11249834
0.29502094 0.47654155 0.0039704009 11249836
0.29599261 0.47999725 0.0039337813 11315628
0.29738557 0.48321196 0.0039371816 11381421
0.29940528 0.48592073 0.003567667 11446955
0.30079678 0.48925284 0.0028540564 11578027
0.30219826 0.49155983 0.0022852898 11511977
0.30408663 0.49286103 0.002317562 11051168
0.3053523 0.49472341 0.0020633978 9866378
0.16447251 0.27279538 0.0025180494 5984574
0.16883683 0.2779724 0.0015158053 6049859
0.17013697 0.28022772 0.0030724464 6511707
0.17395392 0.28768221 0.0011418894 5195068
0.17566854 0.28921044 0.0024936416 6312778
0.19988273 0.32843989 0.0030025714 10130582
0.20114152 0.33007172 0.0029917199 10065046
0.20605388 0.33914325 0.0022232996 10065302
0.20732374 0.34118009 0.0024320977 10065302
0.21003325 0.34389311 0.0019215666 10065045
0.2116946 0.34664679 0.0012937519 10065046
0.21288384 0.34863517 0.0013039635 10065304
0.21479769 0.34996018 0.0015717746 10131097
0.21495278 0.35351089 0.0024134929 10197405
0.21677296 0.35693011 0.0014041094 10197147
0.21898411 0.35853994 0.00067673647 10131356
0.2218952 0.36403 0.00096785417 10000284
0.22538701 0.3695136 0.0013100369 10000284
0.22764574 0.37046811 0.0013939556 9934234
0.2282439 0.37499732 0.0011075472 9933719
0.23069823 0.37616378 0.0010828223 9933974
0.23007566 0.37966645 0.001949769 9868698
0.23325235 0.38122895 0.0020499562 9671319
0.23551941 0.38717592 0.002088652 9736854
0.23628247 0.38958278 0.00076484354 9801873
0.23901823 0.39263272 0.00051939907 9735823
0.24081586 0.39504999 0.0016614349 9736597
0.24356219 0.39699584 0.0014178692 9801874
0.24337246 0.40103304 0.0014787328 9802132
0.24521261 0.40244237 0.0014203226 9802132
0.24651474 0.40536115 0.0019282792 9736081
0.24864803 0.40794542 0.0019630266 9604754
0.25060073 0.41047549 0.0011465458 9670545
0.25146139 0.41305953 0.0013798155 10065560
0.25272331 0.4153958 0.0019131792 10460577
0.25507426 0.41738999 0.0014715334 10394527
0.25656515 0.42019063 0.0010273488 9999511
0.25779843 0.42366102 0.0010528684 9736597
0.2598832 0.42562568 0.0018696759 9867924
0.26106507 0.42881417 0.0018561899 9868183
0.2633374 0.43025938 0.001506927 9999511
0.26500493 0.43372566 0.0015353963 10131097
0.2658605 0.43643054 0.0018419522 10394525
0.26774421 0.43773434 0.0017330066 10525854
0.26886117 0.44045392 0.0021017017 10723233
0.27054489 0.44199994 0.0025348796 10657956
0.27237144 0.44739574 0.0022238041 10262940
0.27424589 0.44852936 0.0023948983 10459805
0.2762779 0.45009381 0.0020029126 10262682
0.27701667 0.45680967 0.001895548 10065044
0.28005132 0.45846042 0.0022497918 10393754
0.28419015 0.46660122 0.0026215815 10656924
0.28658715 0.4680579 0.0025691001 10722719
0.30080381 0.49265802 0.0024242776 10788513
0.30316293 0.49378541 0.0023665484 10261909
0.16509777 0.27793214 0.00036720862 5983803
0.17175813 0.28636992 0.00017848052 5984332
0.17330521 0.2884165 0.00097755739 5523778
0.2093839 0.34754738 0.0013536406 10065053
0.2105414 0.34941825 0.0013508361 10130582
0.21278846 0.35226044 0.00074982364 10130581
0.21424079 0.35456553 0.00031730602 10262167
0.21564087 0.35741353 0.00043721939 10262421
0.21740867 0.36080766 0.0003206823 10196886
0.21887353 0.36253524 0.00024803891 10196886
0.22044674 0.36504263 0.0001751266 10130840
0.22241522 0.36837268 0.0008926983 10065559
0.22394553 0.36958098 0.00041633123 9999252
0.22577688 0.37247518 0.00023961114 9999250
0.22906992 0.37781698 0.00042660767 9867667
0.23254281 0.38592875 0.00073174969 9933201
0.23420453 0.38867283 0.00039271847 9998996
0.23548369 0.39054659 0.00027969247 9933711
0.23756351 0.39208227 0.00041623786 9670540
0.23747268 0.39625391 0.00021682447 9801874
0.24006431 0.39870709 3.5443809e-05 9736081
0.24418427 0.40668321 0.00040472019 9801874
0.24648213 0.4072614 0.00097538857 9867410
0.25140575 0.41656235 0.00098936982 10394010
0.25536168 0.42281678 0.00104781 9933979
0.25809279 0.42724153 0.00089980243 9867667
0.25990891 0.4287048 0.00079623773 9867410
0.18418112 0.28566435 0.012823807 9211024
0.18639003 0.28959033 0.013462245 9277075
0.18797866 0.29401717 0.013777426 9211541
0.19034627 0.29572654 0.013306122 9408661
0.19177358 0.29919538 0.013961956 9606298
0.19383378 0.30109474 0.013292443 9606299
0.19642428 0.30607736 0.013442984 9606300
0.17942923 0.28142953 0.01169903 7170410
0.17987567 0.28356388 0.011689929 8486783
0.18156761 0.28669319 0.012719411 9145232
0.18400128 0.28883377 0.013315801 9211538
0.18472679 0.29214403 0.010772448 9539733
0.18595006 0.29315564 0.013829013 9211284
0.18884215 0.29883087 0.012107529 9671575
0.19270895 0.3050828 0.012982767 9540507
0.19636242 0.30823022 0.012071427 9540763
0.19696087 0.31221119 0.012234289 9408920
0.20027947 0.31480172 0.011535827 9540250
0.1755753 0.28134266 0.010482675 6183771
0.17891906 0.28668079 0.0095532853 9407627
0.18100503 0.2876246 0.0096427929 9407631
0.18179528 0.29043001 0.010802623 9539474
0.18526714 0.29627889 0.011223355 9473683
0.18667558 0.29764116 0.010848457 9671062
0.188164 0.30406862 0.01010873 9868955
0.19108284 0.30620137 0.0095916484 9868955
0.19272956 0.30829787 0.0090460237 9868699
0.19881365 0.32011658 0.010378694 9606299
0.20059721 0.32112953 0.010196747 9606299
0.20249099 0.32219172 0.0099411998 9672091
0.20362419 0.32619518 0.010581862 9672092
0.2045933 0.32888588 0.0090090279 9672091
0.20733723 0.3296583 0.0094269589 9737628
0.28186634 0.45041236 0.010737194 10723479
0.28360257 0.45321864 0.010732919 10788245
0.28470743 0.45500451 0.010730245 10854038
0.28817996 0.46061715 0.010721801 11053476
0.28927982 0.46252379 0.010792421 11382441
0.29113892 0.46642819 0.0095314411 11184039
0.29247645 0.46824658 0.009627711 11315877
0.29376832 0.47071037 0.0095433723 11250345
0.29617235 0.47366399 0.010775632 11645099
0.29759362 0.47646794 0.0099799447 11775662
0.29959229 0.47919154 0.010767295 11906226
0.30074972 0.48106235 0.010764485 11050917
0.30248594 0.48386872 0.010760225 8287333
0.30422232 0.48667502 0.010756054 7102251
0.30537984 0.48854584 0.010753198 6707493
0.30700567 0.49130297 0.010822516 7166775
0.30874193 0.4941093 0.010818258 7298356
0.30989945 0.4959802 0.010815457 7364149
0.17261712 0.28011167 0.0079401312 5461082
0.17463003 0.28380442 0.0074484381 6249041
0.17670959 0.28534156 0.008469603 8156789
0.18304494 0.29459047 0.0073026828 9866131
0.18420246 0.29646128 0.0072998861 9538708
0.18530726 0.29824716 0.0072972034 9538707
0.18646482 0.30011803 0.0072943582 9472652
0.19145089 0.30949703 0.0067062248 9933721
0.19241162 0.31325653 0.0086925849 9671319
0.19455531 0.31416449 0.0087088086 9605526
0.19617411 0.31586707 0.0083333049 9737112
0.19586711 0.32005557 0.0086369012 9737368
0.19772233 0.32237545 0.0078054713 9802905
0.19969772 0.32462099 0.0069685043 9868698
0.20084123 0.32638192 0.0063272221 9802905
0.20437884 0.33254686 0.009370083 9672092
0.20617665 0.33478445 0.0083975084 9671835
0.20856988 0.33688924 0.0076853554 9737627
0.20901547 0.33943558 0.0075425282 9671836
0.21053798 0.342374 0.0074420269 9671836
0.21264832 0.34435979 0.0067016771 9672092
0.21432748 0.34908307 0.0068071741 9869213
0.2643615 0.42878029 0.0061673261 9671581
0.2683371 0.43478748 0.0063618142 10526629
0.27192807 0.44114959 0.0060808174 10460836
0.27459177 0.44526735 0.008618217 10131098
0.2760205 0.44732156 0.0075129927 10000028
0.27748552 0.44994456 0.0086111501 10394260
0.2791073 0.45270136 0.0067699505 9934750
0.28200388 0.4583177 0.0068517905 10329251
0.28375456 0.45988154 0.007601385 10526116
0.28500658 0.46289945 0.0077945231 10986664
0.28795579 0.46478847 0.0076019107 10986663
0.28848833 0.46806657 0.0085555315 11250093
0.29025856 0.46967548 0.0082085589 11250353
0.29304713 0.47555488 0.0084405672 11184044
0.29328898 0.47767797 0.0080489013 11183014
0.29788631 0.48271188 0.0077083618 11316146
0.2988919 0.48491114 0.0072215991 11315118
0.30419531 0.49303454 0.0059970599 8483440
0.16762094 0.27802452 0.0051667262 6446676
0.16993168 0.27918375 0.0063497387 6184286
0.17206945 0.28279939 0.0059937676 5460299
0.17653379 0.29050136 0.0048601143 9207922
0.17759183 0.29308155 0.005522938 9800843
0.17903982 0.295616 0.0059242127 9866641
0.18122122 0.29748154 0.0065472703 9801616
0.18369614 0.2997914 0.0063669719 9670287
0.18466806 0.30311027 0.0066696946 9867410
0.186606 0.30516425 0.0063964119 9933459
0.18816981 0.30752811 0.0061772875 10065302
0.18901236 0.31033835 0.005990833 10065046
0.19043346 0.31335914 0.0058952528 9933717
0.19217879 0.31559071 0.0053724097 9933460
0.19338843 0.318174 0.0053581558 9933461
0.19486706 0.32062972 0.0050727036 9933717
0.19689171 0.32329637 0.004773045 9999509
0.19839446 0.32601246 0.0051287031 9933977
0.20013078 0.32881883 0.0051244739 9999509
0.20119765 0.33098206 0.0058615166 9934233
0.20277762 0.33368772 0.0050114561 9999769
0.20480594 0.33545086 0.0048829666 9934490
0.21156868 0.34855509 0.006394458 9803420
0.21536113 0.3506766 0.0060248482 9869470
0.21477132 0.35468715 0.006192904 9869214
0.21730419 0.3565295 0.0057185451 9935006
0.22002974 0.35813528 0.0053748023 9869214
0.22151685 0.36409318 0.0045907442 9869215
0.23346071 0.38216269 0.0048916554 9803164
0.23644774 0.38807553 0.0047637848 9474457
0.23883696 0.39283058 0.0054120626 9540250
0.2410384 0.39370278 0.0053548007 9540248
0.24259737 0.39850044 0.0054658055 9605785
0.24446324 0.39916858 0.0053805318 9474201
0.24478193 0.40262899 0.0057409415 9408150
0.24706894 0.40493578 0.0057050465 9408407
0.24832688 0.40800866 0.0057396945 9999247
0.24994671 0.41073003 0.0055490481 10327963
0.25091401 0.41246396 0.0056679379 10262685
0.25303727 0.4160893 0.0057726344 10196378
0.25499639 0.41799307 0.0055664885 9867930
0.25559878 0.42048195 0.0056886692 9802137
0.25790501 0.42279842 0.0056676292 9801875
0.25949857 0.42610478 0.0057840515 9736339
0.26120204 0.42838258 0.005784811 9999509
0.26274318 0.43130958 0.0057045976 10328213
0.26481801 0.43355292 0.0052535348 10262681
0.26615477 0.43537039 0.0044298852 10919579
0.26737651 0.43737867 0.0048874468 10854048
0.26856378 0.44082046 0.0061169174 10460320
0.27017647 0.4438403 0.0059794672 9998999
0.27130982 0.44611847 0.0063038631 10394275
0.27377287 0.44694632 0.0062014693 10132131
0.275482 0.45129725 0.0056265988 9868440
0.27788338 0.45292702 0.0051526092 10065298
0.28020021 0.4557859 0.0053066728 10394012
0.27924418 0.45814312 0.0064931014 10328477
0.28265095 0.46091589 0.0067739715 10656924
0.28349757 0.46479848 0.0045914729 10789541
0.28595856 0.46539286 0.0048739123 10789541
0.28928757 0.47309273 0.0044153514 11315886
0.29297832 0.47986385 0.0044218944 11315886
0.29486126 0.4816713 0.0065871682 11315115
0.29675579 0.48388091 0.0072028846 11577517
0.29972503 0.48927456 0.0064287502 9800586
0.30095756 0.49201956 0.0059448746 8945017
0.3030661 0.49361587 0.006187873 7429963
0.30466917 0.49579915 0.0062467959 7232058
0.16507341 0.27614954 0.0039425297 5853761
0.16763873 0.28099027 0.0036429784 6249306
0.17151651 0.29007605 0.0037116229 8220526
0.17423443 0.29068783 0.0039150263 8549743
0.17478761 0.29322863 0.0052900324 9866634
0.18867093 0.31427324 0.0059368722 9998997
0.18968889 0.31634754 0.0055888221 9998996
0.1919865 0.31933537 0.0053923624 9999251
0.19364582 0.32224753 0.0050035277 9999251
0.19484644 0.32420892 0.0047179144 10064788
0.19715089 0.32636869 0.0040452587 10064789
0.19717924 0.32987818 0.003581448 10065045
0.19888884 0.33287674 0.003121811 10065044
0.20018297 0.33483931 0.0030453794 10130838
0.20270936 0.33739164 0.002832735 10065302
0.20455791 0.34018978 0.0044874763 9868697
0.20733611 0.34188062 0.0041436492 9934235
0.20635623 0.3464849 0.0041240039 9868697
0.20775004 0.34797356 0.0035397757 10000026
0.21025562 0.35024437 0.0030392751 10000027
0.21240623 0.35249919 0.002267492 10131612
0.21679674 0.36154607 0.0049834633 9935005
0.21901257 0.36229205 0.0051355585 9935006
0.22059534 0.36965966 0.0037386196 9935005
0.22261405 0.37064481 0.0036189179 9869214
0.22577678 0.37198082 0.0037505499 9803165
0.22577873 0.37656552 0.0036267794 9934749
0.22874667 0.37808037 0.0034499937 9868957
0.2289409 0.38137138 0.0041085747 9868957
0.23228522 0.38618252 0.0048673018 9606043
0.23436649 0.38712898 0.0048155407 9474457
0.23589882 0.39217642 0.0036937636 9539992
0.2401889 0.39799109 0.0051831976 9474457
0.24539502 0.40593711 0.0024017394 9605270
0.2474069 0.40951788 0.005233679 9408408
0.2514132 0.41603282 0.0037740322 10262941
0.25487012 0.42141715 0.0019572699 9933460
0.25986549 0.43061656 0.0030990897 9867667
0.26167616 0.43231878 0.0032832921 9933460
0.26335377 0.43339792 0.0035307319 10196374
0.26529992 0.44023088 0.0045878505 10591905
0.26667365 0.44275126 0.0041657747 10460060
0.2689468 0.44369757 0.0046736076 10262682
0.27066049 0.44671246 0.0037778709 10262427
0.27342644 0.44974503 0.0044273576 10131095
0.27373701 0.45166796 0.0033926358 10131870
0.27450171 0.45636949 0.003811565 10065562
0.27669802 0.45736253 0.0038275793 10394526
0.2792215 0.45791847 0.0041778795 10460320
0.2793124 0.4623315 0.004684702 10525857
0.28212327 0.46447113 0.0035345552 10525598
0.28474692 0.47072801 0.0044516986 11249579
0.28663102 0.47185469 0.0040208469 11117992
0.28862047 0.47315139 0.0035897507 11183526
0.28931716 0.47813049 0.0042285575 11315370
0.29216549 0.48060122 0.0039681038 11183783
0.29360035 0.48735699 0.0039796238 11446439
0.29503998 0.48864099 0.0035313258 11512492
0.29799786 0.49051428 0.0028311051 11315372
0.29790384 0.49292409 0.0027393349 11051422
0.30132836 0.49633157 0.0024067904 9273203
0.1598554 0.27141798 0.0020807111 6116417
0.16121599 0.27469337 0.0029828055 5787197
0.16399941 0.27955446 0.0017092776 6445389
0.16908021 0.28722939 0.0016865025 5326402
0.17196564 0.28956151 0.0027489841 6246727
0.19594894 0.33052158 0.0034582806 10065046
0.19830289 0.33300415 0.00314401 10065046
0.20237933 0.339066 0.0029823817 10261914
0.20381278 0.34100085 0.002688386 10064790
0.20418075 0.34338942 0.0025275815 9999253
0.2061474 0.34570026 0.0024352206 10065047
0.20771049 0.34791759 0.0022190078 10130583
0.20878802 0.35110843 0.0017558123 10130582
0.2104848 0.35380614 0.0026168469 10261910
0.21211438 0.35640383 0.0024942444 10130840
0.21377587 0.35902074 0.0022058529 10065562
0.21494864 0.36144996 0.0018063678 10065561
0.21829478 0.36625805 0.0012735651 10065819
0.21998972 0.36881649 0.0019028636 10065562
0.22117594 0.37112075 0.002119788 10065305
0.22347543 0.37328336 0.0013056231 10065819
0.22462584 0.37586722 0.0033336431 9933974
0.22657675 0.37891454 0.0016638781 9999252
0.22859244 0.38193592 0.0015836454 9998740
0.22942017 0.38418779 0.0019531627 9868698
0.23229475 0.38658434 0.0023626492 9670804
0.23241492 0.38980266 0.002385498 9670804
0.23456304 0.39082599 0.0027575048 9670802
0.23658192 0.39404425 0.0019910235 9670545
0.23681256 0.39722899 0.0017015543 9736339
0.23915532 0.39921343 0.0018213326 9736593
0.24095409 0.40049183 0.0020213858 9802130
0.24200383 0.40481985 0.00159785 9736597
0.24273884 0.40787357 0.0018209842 9670031
0.24500868 0.41023284 0.0022500027 9604754
0.24621485 0.41224906 0.0016468951 9736081
0.24879006 0.41411301 0.0016811609 10130838
0.24929234 0.41922307 0.0015718263 10262683
0.25159299 0.42009276 0.0015938495 10131354
0.25263873 0.42254245 0.0016294353 9933719
0.25387836 0.4254702 0.0018566813 9801876
0.255835 0.42722824 0.0014472755 9802132
0.25799498 0.42900902 0.0021402985 9736597
0.25914636 0.43254918 0.0018632133 9867926
0.26161972 0.43423271 0.0016237877 9867925
0.26241046 0.43697754 0.0017918241 10130839
0.26481846 0.43983909 0.0020844203 10657956
0.2649653 0.44372585 0.0015295441 10657441
0.26791015 0.4450995 0.0021527593 10460319
0.26983464 0.44643614 0.0015830356 10394012
0.27017134 0.4502283 0.0031310474 10262942
0.27198422 0.45333767 0.0016085885 10196631
0.27457091 0.45585275 0.0013933028 9801616
0.27539179 0.46228284 0.0014898678 10327962
0.27741504 0.46338335 0.0017260811 10393497
0.28016844 0.46415028 0.0024266178 10327704
0.2827653 0.47059941 0.0028883624 10920097
0.29312566 0.48717922 0.0032845421 11447215
0.29607275 0.49170521 0.0028482256 11446184
0.29841071 0.49607846 0.0020755921 9800065
0.16184509 0.27823985 0.00058883661 5984320
0.16698463 0.28824124 3.5742996e-05 5391937
0.16843152 0.28986397 0.00098090083 4997689
0.21133487 0.36080244 0.00023487117 9999512
0.21499495 0.36517072 0.0005994786 10065561
0.21634243 0.36726817 0.00010866974 10130840
0.21768263 0.36969313 0.00054682489 10130585
0.22273265 0.37726912 0.00027553854 9999512
0.22686674 0.38591173 0.0001263055 9999251
0.23056497 0.39100286 0.00027722749 9867409
0.23231176 0.39297935 0.00020942814 9801617
0.23461458 0.39496544 0.00064201839 9735822
0.23428683 0.39998874 0.00011318317 9736336
0.23833978 0.40353799 0.00068218587 9867411
0.24012172 0.40519914 0.00079583493 9801874
0.24157076 0.40982938 0.00076581212 9670031
0.24334414 0.41108397 0.00073036994 9604495
0.24757156 0.41811255 0.0017145317 10263198
0.25595152 0.43185875 0.00077811419 9801617
0.26217636 0.4409433 0.0012394318 10591131
0.26690739 0.45048079 0.0011229167 10130839
0.2687479 0.45169416 0.0012966577 10196630
0.17724033 0.28349039 0.012378689 8881798
0.17981912 0.28718787 0.013283292 9145490
0.18132868 0.29037094 0.014143163 8948112
0.18345878 0.29305166 0.014441684 9079698
0.18487097 0.29588184 0.014307275 9343125
0.1873562 0.29757735 0.013867076 9606039
0.18977182 0.30249161 0.013845295 9672091
0.19040404 0.30639282 0.014005622 9474970
0.17422189 0.28324014 0.011626316 8224125
0.17637251 0.28614485 0.012989886 9079439
0.17860481 0.28946638 0.012306675 9145232
0.18011971 0.2926437 0.011538696 9276305
0.18141738 0.29407495 0.011451928 9342098
0.18331607 0.29513431 0.011337757 9473683
0.18291394 0.29891112 0.011494955 9671318
0.18609743 0.30164632 0.012254424 9803161
0.19164649 0.3090913 0.012848347 9474714
0.19400918 0.31086251 0.012343023 9409177
0.19560011 0.31663883 0.011728941 9474714
0.19722268 0.31886718 0.010691202 9474714
0.20242666 0.32940617 0.011002736 9737885
0.2931664 0.47164559 0.012394592 10459544
0.17207466 0.28186241 0.010610492 6579556
0.17408139 0.28838095 0.009961294 9473169
0.17659515 0.28906038 0.010243572 9473425
0.17762056 0.29183802 0.011465721 9144718
0.18108784 0.2976895 0.011745188 9605269
0.18424998 0.30043554 0.010984102 9868440
0.1844485 0.30630922 0.010454043 9803161
0.18679793 0.3086763 0.0097837523 9802905
0.18953709 0.31056774 0.0095157893 9737369
0.19051816 0.31207621 0.0087335762 9737113
0.19232951 0.31519327 0.011634095 9474713
0.19446863 0.31856963 0.0090798959 9737113
0.1941967 0.32191521 0.010639683 9474714
0.19732608 0.32321274 0.010559486 9606298
0.19893219 0.32621703 0.010492639 9540507
0.19987026 0.32851812 0.010788541 9606300
0.20370544 0.33084837 0.010350654 9672092
0.2065867 0.33929297 0.0082231034 9671836
0.27789956 0.45345381 0.010221783 10195857
0.27905709 0.45532465 0.010218981 10985373
0.28079343 0.45813093 0.010214748 10789272
0.28362948 0.46284392 0.010281099 11184297
0.28536576 0.4656502 0.010276925 10988455
0.28662163 0.46808556 0.0090314839 10987177
0.2886996 0.47117093 0.0093868393 11118247
0.29050282 0.47422826 0.0083590737 11249321
0.2934157 0.47866127 0.010257293 11577257
0.29462028 0.48108935 0.0092021907 10591394
0.29630944 0.48333851 0.010250236 9536389
0.29804572 0.48614475 0.010245999 7101005
0.29978198 0.48895106 0.01024179 7231805
0.30148947 0.49177524 0.010274276 7495476
0.30319676 0.49459958 0.010306682 7168052
0.30435431 0.49647051 0.01030389 7102259
0.16924018 0.28102672 0.0090621896 5724509
0.17208514 0.28608665 0.0088755041 8815234
0.17702632 0.29431525 0.0067924755 9734799
0.17754903 0.29658011 0.0075969901 9603469
0.1786264 0.29891172 0.0073403972 9669518
0.18040292 0.30138242 0.0073612547 9669775
0.18211778 0.30363062 0.0072492016 9866898
0.18375565 0.30640942 0.0071356506 10064532
0.18623377 0.30919716 0.0067700362 10262165
0.18755057 0.31173375 0.0067038964 9933462
0.18908687 0.31472462 0.0080191204 9802390
0.19085367 0.31664985 0.0081736576 9736854
0.19242331 0.3232443 0.0084607126 9737369
0.19599131 0.32709083 0.0071410714 9737369
0.19836791 0.32908851 0.0066043241 9737112
0.20078555 0.33606267 0.0087806229 9671834
0.20237637 0.33731219 0.0084680561 9606043
0.20440501 0.33817366 0.0084164133 9606299
0.20747577 0.34550312 0.0073225312 9672092
0.20967484 0.34749287 0.0066500073 9737627
0.21171936 0.35199031 0.0068804566 9803421
0.24815889 0.41199687 0.0081576053 9866899
0.24931636 0.41386777 0.0081548151 9866899
0.25047386 0.41573864 0.0081520164 9734797
