# .PCD v0.7 - Point Cloud Data file format
VERSION 0.7
FIELDS x y z rgba
SIZE 4 4 4 4
TYPE F F F U
COUNT 1 1 1 1
WIDTH 1132
HEIGHT 1
VIEWPOINT 0 0 0 1 0 0 0
POINTS 1132
DATA ascii
0.28593493 0.27341768 0.039983913 10131607
0.2875672 0.27597323 0.039339826 9934482
0.2891469 0.27844629 0.038716421 9934736
0.29025266 0.28017741 0.038280174 10065302
0.29381379 0.28772247 0.038255967 10196877
0.29491955 0.28945369 0.037819602 10262670
0.29652554 0.29196796 0.037185885 10197395
0.29830813 0.29486313 0.035141744 10000276
0.29968894 0.29634908 0.035151459 10065551
0.30126345 0.29878438 0.034605958 10262930
0.30239016 0.30066639 0.033858515 10526879
0.3049908 0.30529845 0.031393625 10658213
0.30764431 0.30986598 0.030250825 10592932
0.31036228 0.31489944 0.029916741 10461864
0.31206441 0.31617647 0.030393101 10198951
0.31305563 0.32005176 0.029509939 10659234
0.31545916 0.32133317 0.028171636 10921124
0.31754637 0.3224155 0.028129615 10986916
0.31823573 0.32767907 0.027899243 10790054
0.32001203 0.32859933 0.027629115 10789798
0.32124537 0.33164614 0.026960585 10986917
0.32363129 0.33418703 0.026724432 11118502
0.32542977 0.33586058 0.026371036 10986917
0.27913755 0.26750141 0.040193841 10328469
0.28129649 0.27088127 0.039342031 10329242
0.28292882 0.27343681 0.038697943 10066074
0.28543675 0.27933311 0.039089307 10066316
0.2864899 0.28098184 0.038673803 10329488
0.28759572 0.282713 0.038237438 9934226
0.28920168 0.28522733 0.037603721 9605001
0.29221699 0.29195535 0.034158029 10000015
0.29424432 0.29319981 0.034126438 10065807
0.29623485 0.29447514 0.034364261 10000278
0.29604912 0.29798827 0.033954777 9935001
0.29878265 0.2997669 0.033179678 9869207
0.30232349 0.30419421 0.031803764 10593184
0.30410174 0.30839619 0.03084252 10658213
0.30592933 0.30909124 0.030531205 10461346
0.3059189 0.31257984 0.029907443 10593192
0.30876049 0.31404853 0.028817929 10724261
0.31190732 0.31979617 0.028794445 10724258
0.31256285 0.32422233 0.027962901 10921124
0.3142496 0.32499263 0.027914144 10724261
0.31626621 0.32655466 0.027350105 10986917
0.274331 0.26627645 0.038794622 10327953
0.27523294 0.26965851 0.039819643 10657429
0.27633876 0.27138969 0.039383397 10526353
0.27797106 0.27394515 0.038739249 10263188
0.28010362 0.27728382 0.03789781 9802903
0.28170964 0.27979812 0.037264094 9473941
0.28823894 0.29002017 0.034687683 10262672
0.29059696 0.29112229 0.033966526 9934745
0.29218 0.29376781 0.033073522 9869467
0.29361865 0.29671016 0.034435846 10131600
0.2970424 0.30445197 0.030512553 10264232
0.29876536 0.3060264 0.028852742 10789537
0.30063173 0.30833828 0.029038291 10723747
0.30194521 0.31156641 0.028570212 10723745
0.3049024 0.31297669 0.02842436 10789795
0.30534554 0.31631958 0.028853096 10527141
0.30784899 0.31802332 0.028240599 10789537
0.25660762 0.24325471 0.043315992 10130312
0.25771332 0.24498585 0.042879626 9670526
0.25931939 0.24750017 0.04224585 9341826
0.26060846 0.25055242 0.042462274 9276554
0.26221442 0.25306675 0.041828558 9670547
0.26419008 0.25512546 0.040324077 10065554
0.2658487 0.25772226 0.039669558 9604483
0.26708511 0.26069203 0.039906725 9933181
0.26871747 0.26324755 0.039262637 9867910
0.27034977 0.2658031 0.03861855 10196360
0.27108598 0.26798978 0.039053127 10722956
0.27213907 0.26963848 0.038637564 10723222
0.27855381 0.27843967 0.034465 10000018
0.28059551 0.2794899 0.034661576 9933965
0.28172088 0.28269935 0.034364447 10000015
0.28484455 0.28456718 0.033808812 10132637
0.28450021 0.28792697 0.033271477 9671574
0.28697389 0.28941721 0.033260509 9737106
0.28647891 0.29218644 0.032083973 9869476
0.28990805 0.29462162 0.033109531 9935258
0.2908465 0.29841444 0.032247111 9803677
0.294375 0.30334783 0.030922692 9869472
0.29590312 0.30455813 0.029008847 10591901
0.29746705 0.30870059 0.029193621 10526881
0.29901284 0.31003731 0.028788667 10723745
0.30068704 0.31289488 0.028486706 10593190
0.27201858 0.2742627 0.034539506 10328982
0.27380896 0.27691808 0.03372936 10328982
0.27562904 0.2781527 0.033614799 10263446
0.27674007 0.28155699 0.034536108 9605255
0.27959329 0.28325742 0.034556136 9999756
0.2810286 0.28696865 0.03366594 9803161
0.28929237 0.29850021 0.028648715 10065558
0.29124966 0.29953641 0.0285757 10065814
0.29230055 0.30339742 0.028750222 10197143
0.29496092 0.30816343 0.028893273 10723745
0.2500897 0.2393506 0.042591922 10260051
0.25172201 0.24190615 0.041947834 10457962
0.25301111 0.2449584 0.042164132 10064523
0.25424758 0.2479282 0.042401418 9736074
0.25535327 0.24965939 0.041964993 9538695
0.25645909 0.25139052 0.041528687 9342346
0.26077682 0.25815031 0.039825007 9999501
0.2618826 0.25988147 0.039388761 9604743
0.26298839 0.26161256 0.038952395 9735800
0.26663607 0.27037472 0.034831509 10328980
0.26945734 0.27229106 0.034664735 10328983
0.27173266 0.27888608 0.034350619 10197653
0.27388692 0.2798565 0.034516141 10000017
0.27933347 0.28999662 0.028870448 9802387
0.28180769 0.29089719 0.029087763 9802388
0.28205317 0.29504287 0.028831761 9999766
0.28513524 0.29646146 0.028794866 10065558
0.28628528 0.29960141 0.028765719 10065558
0.28858551 0.30231652 0.028522592 10131608
0.21724361 0.19422868 0.052256219 9734744
0.21834941 0.19595982 0.051819913 9668951
0.23809539 0.22687325 0.044028573 9339988
0.23914853 0.22852194 0.043613069 9274421
0.24080715 0.23111871 0.04295855 9340222
0.24246584 0.23371543 0.042304091 9011267
0.24357164 0.23544659 0.041867726 9338937
0.24517763 0.23796089 0.041234009 9536056
0.24825606 0.24484858 0.041469447 10459022
0.24936174 0.24657975 0.041033141 10130577
0.25888583 0.26115429 0.03491883 9868428
0.26091266 0.26655307 0.035004482 9933964
0.26316729 0.26913753 0.034127042 10131601
0.26902246 0.27836427 0.033593819 10263446
0.2711719 0.28078264 0.030347213 10197659
0.27295679 0.28176585 0.030108079 10197403
0.27388343 0.28695798 0.02947329 9933972
0.27698138 0.28819486 0.029477879 9934229
0.276694 0.29265797 0.02888988 9802387
0.27940759 0.29320478 0.029273257 9867924
0.20855074 0.18534462 0.053214252 9736590
0.20965652 0.18707573 0.052778006 9736590
0.21131516 0.18967253 0.052123427 9802117
0.2129212 0.1921868 0.05148977 9735258
0.21402699 0.19391796 0.051053464 9801051
0.21549937 0.19829138 0.051922493 9472094
0.21746641 0.19999222 0.050179593 9734729
0.21955581 0.20257369 0.048871987 9800768
0.23050824 0.21972041 0.044550292 10062925
0.23382564 0.22491382 0.043241315 9799765
0.23493132 0.22664501 0.042804949 9668953
0.23579821 0.23007043 0.043913059 9208394
0.23745689 0.23266713 0.0432586 9274174
0.23911552 0.23526385 0.042604022 9273916
0.2407742 0.23786059 0.041949622 9603144
0.24240656 0.24041615 0.041305535 9866571
0.24403885 0.24297166 0.040661387 10393169
0.24514462 0.24470279 0.040225081 10261643
0.25471136 0.25869477 0.034795329 9868428
0.25592607 0.26225078 0.03441529 9736844
0.25821787 0.26465762 0.035093471 9605000
0.26247993 0.27264854 0.031154498 10328730
0.26503965 0.2743125 0.030526444 10328988
0.26545852 0.2773318 0.031053886 10328988
0.26750666 0.2800135 0.030520245 10263196
0.26871908 0.28300792 0.030553505 9868695
0.27126098 0.28484112 0.030070469 9605521
0.2749936 0.29139388 0.029191241 9868436
0.20184855 0.18115199 0.052563012 9670540
0.20313764 0.18420428 0.052779377 9736592
0.20448878 0.18666436 0.052487969 9670800
0.20603271 0.18977086 0.052362084 9670800
0.2076914 0.19236755 0.051707625 9670272
0.20935 0.19496432 0.051053107 9604448
0.21045579 0.19669549 0.05061686 9604448
0.21156159 0.19842659 0.050180495 9603680
0.21543179 0.20448567 0.048653416 9669184
0.21746004 0.2066268 0.047128074 9800765
0.21905766 0.20878313 0.046256058 9866061
0.22077736 0.21182027 0.045819037 9536847
0.22188315 0.21355145 0.04538279 9734226
0.2235418 0.21614823 0.044728272 9931860
0.22520046 0.2187449 0.044073813 9866569
0.22649896 0.22112256 0.043803088 9866312
0.22973922 0.22427547 0.043106906 9800268
0.2303071 0.22777379 0.042783909 9734990
0.23141289 0.22950494 0.042347662 9668701
0.24959689 0.25584641 0.034838133 9342341
0.25235304 0.25803447 0.034381017 9473669
0.25165713 0.26133659 0.034649059 9868171
0.25374481 0.26390538 0.033045813 9605262
0.25608629 0.26563141 0.031629428 9539215
0.25611836 0.26883245 0.031897709 9999509
0.25883973 0.27047411 0.031591043 10131351
0.26170281 0.27625668 0.030986831 10263451
0.24076866 0.24702547 0.034499995 10261847
0.24442986 0.25291565 0.034901671 9802635
0.24561603 0.25522503 0.033594184 9539468
0.24636309 0.25704414 0.032597892 9342093
0.24909429 0.25935173 0.033514433 9539212
0.24935186 0.26209784 0.032548837 9868437
0.25247055 0.26363319 0.032345876 9802389
0.25346109 0.2680985 0.031877205 9802386
0.25882667 0.27468765 0.031189788 10263451
0.19398788 0.17514582 0.052368701 9669511
0.19558434 0.17833483 0.052222013 9604231
0.19693565 0.18079481 0.051930606 9801609
0.19822465 0.18384716 0.052147031 9933452
0.21652257 0.21249363 0.044926934 9734219
0.23515397 0.24339396 0.034740202 9735225
0.23783807 0.24536136 0.034428231 10064196
0.23743062 0.24866197 0.034940116 10196593
0.23983817 0.25061604 0.03371381 10065290
0.24198821 0.25284368 0.033963315 9868431
0.243855 0.25471282 0.033355884 9671057
0.2434213 0.25960627 0.032420449 9605265
0.24650031 0.26041019 0.032824449 9670801
0.18778582 0.17173637 0.05151993 8485995
0.18944453 0.1743331 0.050865471 9076079
0.19036394 0.17784095 0.05195272 9801872
0.19146974 0.17957208 0.051516414 9801872
0.22786772 0.23781496 0.035530917 9208651
0.23127088 0.24154761 0.034098201 9208653
0.23251124 0.24573535 0.034925632 10195531
0.23443365 0.2466177 0.033833198 10064234
0.23650518 0.24927047 0.033083431 10065029
0.23756135 0.25153431 0.033191435 9999761
0.18384883 0.17098744 0.051084816 8551539
0.18483037 0.17390308 0.051664174 8946044
0.18654171 0.17658223 0.050988972 9800809
0.20672773 0.20873468 0.040324628 9800789
0.2082134 0.21023367 0.039929807 9866326
0.20933902 0.21329533 0.039047122 9669752
0.21622728 0.22313438 0.036823444 9801076
0.21731311 0.22546458 0.036547594 9997650
0.21991463 0.22743063 0.036261491 9997907
0.22161695 0.23034178 0.035521321 9669474
0.2222289 0.23371202 0.034801714 9735003
0.22401586 0.23634255 0.034847192 9471833
0.22592363 0.23761636 0.034628861 9274712
0.2282453 0.23994151 0.033855252 9143129
0.22890227 0.2440812 0.03317409 9537383
0.23068567 0.24490473 0.033982567 9866325
0.23271884 0.24930856 0.033265166 10064770
0.17783959 0.16822447 0.050401628 8221545
0.17894538 0.16995558 0.049965441 8025198
0.17973426 0.17222473 0.050379217 8551028
0.19335517 0.19285934 0.043556809 9736853
0.19552098 0.19465484 0.042933941 9736852
0.19607079 0.19846998 0.042859435 9605266
0.19815813 0.19955228 0.042817473 9605261
0.20073532 0.20178854 0.042017996 9538680
0.20208269 0.2040714 0.041094244 9603947
0.20325126 0.20714663 0.040734887 9603943
0.2039983 0.20985688 0.039784849 9538421
0.20626758 0.21185414 0.039662957 9669482
0.20687267 0.21512485 0.039092958 9866579
0.2091908 0.21727763 0.038588822 9866068
0.21089602 0.21966487 0.037782431 9800541
0.21360256 0.22144744 0.037436001 9735016
0.21440655 0.2244193 0.037066571 9800805
0.21535541 0.22665298 0.036541812 9735285
0.21747068 0.2290262 0.036077492 9801064
0.21915881 0.23089486 0.036539905 9800783
0.21971005 0.23407444 0.034989946 9603683
0.2226204 0.23593986 0.034525745 9537900
0.22540632 0.24175864 0.033869915 9142887
0.22689199 0.24325758 0.033475213 9208679
0.18179473 0.1790525 0.045149684 9012875
0.18457417 0.18423125 0.044825971 9539474
0.18652439 0.1852171 0.044534981 9605010
0.18755364 0.18788214 0.044240832 9605009
0.18938437 0.19067957 0.044097006 9736596
0.19107465 0.19335543 0.043836594 9671060
0.19202682 0.19576162 0.043042243 9671057
0.19433007 0.19770695 0.042479515 9671055
0.19651881 0.20050995 0.041500092 9604992
0.19758143 0.20321754 0.041619778 9538948
0.19933985 0.2062856 0.041243434 9604475
0.19996002 0.20837896 0.040532112 9669732
0.20230824 0.21059799 0.040126681 9669464
0.20365241 0.21478942 0.038745582 9603958
0.20563771 0.2160268 0.038579226 9603959
0.2079421 0.21793142 0.038018286 9669495
0.21117729 0.22446343 0.036999047 9735287
0.21403535 0.22827849 0.036276631 9932114
0.17777339 0.17828958 0.044444799 8946823
0.17893411 0.18130867 0.045407891 9407376
0.18039216 0.18231142 0.044899285 9473424
0.18222687 0.18461746 0.0437783 9670799
0.1844565 0.18704674 0.044147015 9605263
0.18687406 0.192489 0.042748094 9802640
0.18965153 0.19438574 0.042633295 9802642
0.17496487 0.17765328 0.043947458 8683651
0.17661802 0.18036014 0.043956459 9209734
0.17878115 0.18317546 0.043763459 9604745
0.17985843 0.18529566 0.044317365 9736590
0.18380876 0.19029863 0.042894423 9736848
0.17183276 0.17720935 0.043392904 8420219
0.17353106 0.17890364 0.044071376 8946306
0.1658493 0.17314723 0.041471191 8616818
0.16747493 0.17535859 0.043295272 8157052
0.16897671 0.17652838 0.042838402 8223098
0.16292508 0.17227063 0.041170962 8024163
0.16349947 0.17433283 0.042466111 8419961
0.16597702 0.1755531 0.042196043 8288371
0.15948564 0.17312826 0.040990718 8221543
0.15388423 0.1703831 0.039647408 6509887
0.15610193 0.17121619 0.038947113 6706740
0.15780389 0.17264068 0.039527126 7957054
0.15190104 0.1705468 0.038800426 6772268
0.154304 0.17251734 0.039553113 7891008
0.14840509 0.16832198 0.038279541 6706483
0.14929651 0.16999322 0.038024791 6705942
0.38435742 0.36519304 0.038448535 10920303
0.38541055 0.3668417 0.038033091 11051889
0.38693756 0.36923233 0.037430428 11050093
0.38804081 0.37183538 0.036356114 11050585
0.38992998 0.37416333 0.036583208 10787938
0.3909598 0.37742648 0.036016427 10327647
0.39214501 0.37943283 0.035268985 11116375
0.37889263 0.36293766 0.037308894 11775113
0.38044587 0.3653695 0.036696039 11512690
0.38133043 0.36862573 0.037658893 11445875
0.38321769 0.37064141 0.036641739 11182438
0.38507122 0.37226659 0.036075793 11247974
0.38581705 0.37531495 0.03578236 11116122
0.38875461 0.37698019 0.03571602 10722125
0.37399086 0.35998899 0.036771022 11774869
0.37504402 0.36163774 0.036355518 11709076
0.37609708 0.36328647 0.035939895 11840906
0.37792197 0.36663598 0.035565041 11971688
0.38075054 0.36845517 0.03551241 11510864
0.38318148 0.37394539 0.035540961 11379027
0.36961594 0.35786462 0.036025614 10986404
0.37123445 0.36012268 0.034807764 11380897
0.3721942 0.36367384 0.035286509 11314839
0.37488025 0.36550638 0.035166405 11643273
0.38521454 0.38384083 0.02941855 10197893
0.38791707 0.38490161 0.028925441 10855042
0.38823336 0.3886655 0.028296314 11643803
0.39006084 0.38936064 0.027984999 11775389
0.36593261 0.35656717 0.03453806 10591634
0.36877891 0.35806996 0.034718841 10920599
0.36843789 0.36155367 0.035163075 11052184
0.37020516 0.36270604 0.035069138 11249305
0.37943515 0.3760525 0.030075278 11249035
0.38122746 0.37679106 0.02984681 10788484
0.38168481 0.38186878 0.029253446 10788751
0.38347369 0.38258201 0.028916202 10855056
0.38463113 0.38706237 0.027726732 11051131
0.38650259 0.38792443 0.027467154 11643271
0.39094406 0.39572451 0.025151037 9867123
0.36237627 0.35479975 0.034395307 10526362
0.36376891 0.35805342 0.034469992 10657434
0.36509699 0.36064503 0.034401327 10789017
0.37420332 0.37280348 0.029433813 11644541
0.3772026 0.37956733 0.029218163 11116939
0.37990519 0.3806282 0.028725054 10854035
0.3800554 0.38527331 0.026358746 10787950
0.38243163 0.38576424 0.026628159 10722154
0.38345966 0.39139092 0.025567852 12103048
0.38525173 0.3924244 0.025546633 12168585
0.38738504 0.39324316 0.024094485 12038813
0.39042801 0.39972737 0.023521267 8680797
0.35340452 0.34351036 0.036654085 9933714
0.35445762 0.34515905 0.036238641 10065300
0.35603726 0.34763211 0.035615295 10526110
0.3571713 0.35105151 0.034488648 10460825
0.35896555 0.35279402 0.034157723 10329755
0.36072364 0.35496894 0.033766121 10330273
0.36083364 0.357544 0.03463605 10328721
0.37193212 0.37633646 0.028550889 11446929
0.37398392 0.37775642 0.027191725 11314040
0.37670723 0.37926307 0.026755657 11445366
0.37586233 0.38386762 0.026037898 11314036
0.37823859 0.38435858 0.026307251 11116658
0.37917948 0.38935649 0.025900684 11181940
0.38141444 0.39031574 0.02574452 11576700
0.38538605 0.3951745 0.023803316 11708029
0.34358665 0.33453864 0.037301153 10855326
0.34516639 0.33701164 0.036677986 10855334
0.34674606 0.33948475 0.036054641 10855340
0.34795213 0.34201264 0.034822017 10591648
0.34988266 0.34426722 0.034341365 10460062
0.35064346 0.34648219 0.03398779 10131597
0.35222438 0.34941053 0.033970922 10197131
0.35494411 0.35103968 0.033850998 10591892
0.36852235 0.37478337 0.027584519 11710103
0.36967379 0.37758455 0.025854196 11840130
0.37299177 0.38204151 0.026437964 11510903
0.33805317 0.33060077 0.037012607 10066333
0.33963281 0.33307385 0.036389321 10527139
0.3406859 0.33472255 0.035973817 10855326
0.34196505 0.33889073 0.034094959 10789531
0.34483591 0.34056947 0.034073502 10723485
0.34435064 0.34420133 0.034258455 9933963
0.34699112 0.34585443 0.034273237 10328461
0.36034727 0.36948103 0.027340677 11053484
0.36309889 0.37069714 0.026144233 11118500
0.36419487 0.37359422 0.025736835 11512738
0.36555487 0.37582251 0.025751259 11972251
0.36986741 0.38076338 0.026443746 11576964
0.33088726 0.32410738 0.037368216 11314856
0.33246693 0.32658046 0.036744803 11315113
0.33404657 0.32905352 0.036121517 10986921
0.33690104 0.33492011 0.03462562 10460051
0.33953395 0.33711264 0.034355134 10789274
0.3415449 0.34254566 0.034295529 10394774
0.35871845 0.37051365 0.024903387 11249572
0.36128518 0.37029895 0.02574357 11446951
0.36179221 0.3742505 0.026021626 11249569
0.32468534 0.32069784 0.036519505 11249063
0.32611731 0.32319561 0.035619654 11117729
0.3285535 0.32525703 0.034811594 10921118
0.33111659 0.32694638 0.034774579 11052703
0.33045179 0.33076975 0.034783103 11118496
0.33315334 0.33286297 0.034533173 10723484
0.34762198 0.35678336 0.026050359 10724257
0.35171786 0.36402291 0.025207192 10591900
0.35438928 0.36456272 0.025455743 10591900
0.35487729 0.3676829 0.024472684 10591904
0.35643438 0.36920255 0.025463909 10986658
0.31641364 0.31247339 0.037311353 10855075
0.31746674 0.31412208 0.03689573 10921123
0.31909904 0.31667766 0.036251642 10920611
0.32136607 0.3192029 0.035892822 10986657
0.32299504 0.32158566 0.035036184 10921373
0.32352716 0.32571739 0.035210587 10986910
0.32526249 0.32723314 0.03503368 10921371
0.32792583 0.32890213 0.034929134 11052701
0.33644965 0.34517992 0.029187296 10461606
0.33915573 0.34626588 0.028803144 10395815
0.34111339 0.3505711 0.027743548 9935518
0.34219524 0.35510099 0.027762085 10000281
0.34509629 0.35640314 0.026563913 10197655
0.34652692 0.35958511 0.026048988 10657693
0.34722456 0.36164212 0.025550336 10328986
0.34998775 0.36313888 0.024854988 10460574
0.35149372 0.36671442 0.024969906 10328476
0.31084576 0.30769375 0.036483921 10657945
0.31220153 0.30914661 0.036058165 10723481
0.31515506 0.3158783 0.035598733 10789788
0.3176704 0.31796527 0.035333432 10855325
0.32110867 0.32521939 0.034806289 10921117
0.3290107 0.33404475 0.030167256 10987432
0.32918277 0.33766198 0.029553685 10329250
0.33149356 0.34035411 0.028764341 10066337
0.33293277 0.3427057 0.028265569 10263972
0.33476031 0.34340078 0.027954135 10329767
0.34059781 0.35279578 0.025637418 9935262
0.34075546 0.35512018 0.025392562 10196886
0.34335712 0.3605032 0.025187939 10526107
0.30373499 0.29892427 0.039018191 10855067
0.30536732 0.30147979 0.038374104 10921119
0.30694699 0.30395287 0.037750758 10658719
0.30848068 0.30668852 0.036608793 10657944
0.31015897 0.30898148 0.036483385 10657945
0.31173867 0.31145453 0.035860099 10855069
0.31237465 0.31405872 0.035450913 10789534
0.32195115 0.33010074 0.029837105 10855845
0.32383144 0.33087817 0.029504929 10855845
0.32478738 0.33479682 0.028704677 10790053
0.32647675 0.33657596 0.029937837 11118764
0.32939026 0.34123576 0.028857265 10066335
0.33231696 0.34688011 0.025940929 10855329
0.33514199 0.34852669 0.025675688 10723744
0.33526385 0.3521769 0.026028309 9934742
0.33770692 0.35364562 0.025533292 10394522
0.34103036 0.35977459 0.025063902 10394520
0.29633921 0.29374471 0.03870938 10196626
0.29739234 0.29539335 0.038293816 10130833
0.2989983 0.29790771 0.0376601 9801866
0.3023679 0.30540749 0.034805097 10723740
0.30546039 0.30690175 0.035094835 10723739
0.3068724 0.31173199 0.035216965 10657945
0.30865714 0.31301016 0.035185255 10657946
0.31669471 0.32697037 0.029123105 10592679
0.32124484 0.33332697 0.029296312 10658464
0.32295981 0.33410171 0.029016111 10921639
0.32220092 0.33724546 0.02849618 10987436
0.32580575 0.33961004 0.026317511 10460830
0.32814866 0.34535566 0.025692735 10920866
0.33022228 0.34604251 0.02597234 10855328
0.33209905 0.35035956 0.02619854 10329243
0.29222736 0.2920326 0.037859775 10328211
0.29328045 0.29368135 0.037444212 10065040
0.2979835 0.3020286 0.035314716 10328721
0.3001273 0.30292359 0.035635866 10657946
0.30260611 0.30979809 0.035020806 10657947
0.30410239 0.31137234 0.034470536 10657945
0.30947796 0.31862521 0.030184664 10264230
0.31132871 0.32424036 0.02923844 10724518
0.3139571 0.3258054 0.029595412 10527141
0.31410816 0.32941911 0.028914548 10724519
0.31666383 0.33060896 0.027718879 10789797
0.31689158 0.33403286 0.027802743 10724257
0.31981754 0.33670357 0.026562367 11118246
0.3228749 0.33824095 0.026452873 10987173
0.32176363 0.34211323 0.026005242 10921124
0.32513574 0.34354284 0.026025329 10789280
0.2826027 0.28326479 0.038361713 10197400
0.28423506 0.28582031 0.037717506 9737362
0.28534088 0.28755146 0.03728126 9803155
0.28855285 0.29258004 0.036013827 10328211
0.29036987 0.29512849 0.034125492 10065807
0.2936286 0.30079219 0.033811785 9934742
0.29513606 0.30170521 0.034516491 10131084
0.30329359 0.31504676 0.029672898 10330792
0.30601922 0.32132262 0.028752364 10658211
0.30850378 0.32249507 0.02863095 10658465
0.31040508 0.32322687 0.028170682 10921124
0.31057817 0.32774138 0.027510263 10986660
0.31329235 0.32948023 0.027089454 10986916
0.31401113 0.33332315 0.027072169 10921123
0.31683776 0.33512968 0.026723899 10986917
0.27198789 0.27137184 0.040078029 10263191
0.27359387 0.2738862 0.039444312 10394773
0.27522627 0.27644166 0.038800284 9803150
0.27685857 0.27899715 0.038156256 9474698
0.27849093 0.28155267 0.037512109 9737104
0.28486651 0.29163241 0.034583256 9999757
0.28728384 0.29412708 0.033882126 10066071
0.28685743 0.29699442 0.03431122 10065807
0.28968754 0.29946941 0.034137294 9868944
0.29118097 0.30142015 0.033469178 9869722
0.2943258 0.3068547 0.030272942 10592932
0.2961534 0.30754972 0.029961567 10724776
0.29710931 0.31146836 0.029161315 10592933
0.29885957 0.31219974 0.028798085 10856105
0.30127707 0.31521702 0.028366305 10658209
0.30174178 0.3188132 0.028490819 10592933
0.30430317 0.31994498 0.028322674 10658470
0.30541825 0.32471368 0.028170146 10855330
0.30749452 0.32631022 0.0277339 10921124
0.28016108 0.28853804 0.034325406 9933967
0.28228006 0.289552 0.034573838 9736843
0.28245676 0.29230878 0.032483146 9671322
0.28377557 0.29528055 0.033658609 10000018
0.28587183 0.2982074 0.032776043 9869726
0.28762195 0.29893887 0.032412693 9474968
0.29209813 0.30664194 0.029398542 10328987
0.29536879 0.31169695 0.02902637 10526622
0.29709965 0.31526032 0.028298836 10527138
0.29908803 0.31755957 0.028743725 10658208
0.25464919 0.2505272 0.043623611 9933959
0.25628158 0.25308266 0.042979643 9802123
0.25791389 0.25563818 0.042335615 9538695
0.25954619 0.25819373 0.041691467 9604750
0.26117855 0.26074922 0.04104732 9868185
0.26281086 0.26330474 0.040403232 9999761
0.26444322 0.26586026 0.039759144 10130572
0.26607552 0.26841581 0.039115116 10262160
0.26770779 0.2709713 0.038471028 10459797
0.27485099 0.28621018 0.033771798 10197134
0.27770561 0.28821829 0.03381227 10066072
0.27978927 0.29120469 0.032893226 9671585
0.28918484 0.30589467 0.030039947 9868695
0.29094094 0.30949071 0.029265802 10657694
0.29191506 0.31116325 0.028985184 10789795
0.29542178 0.31504843 0.028019052 10593188
0.25028118 0.25008762 0.04212027 9933705
0.2631326 0.27215585 0.034944758 10328981
0.26618788 0.27382836 0.035125419 10328982
0.26764941 0.27678558 0.033957586 10263447
0.26882905 0.28023809 0.03500329 9868172
0.27145159 0.28220761 0.0347846 9868431
0.27219847 0.28432173 0.033995613 9868428
0.27658951 0.29161024 0.033131585 9934759
0.27967966 0.29724485 0.030349895 9934488
0.28239363 0.29927796 0.028689843 10131351
0.28215823 0.30263156 0.028885346 9933972
0.28499565 0.30421868 0.028656524 9934228
0.28767523 0.30912298 0.028675061 10394265
0.24606407 0.24821064 0.041312329 9670278
0.25812909 0.26906782 0.035039529 10262929
0.26026767 0.27170676 0.034084365 10263188
0.26422501 0.27854308 0.034418151 10065812
0.27070013 0.2885218 0.030016884 10000023
0.27349004 0.29006428 0.029730961 10131608
0.27555743 0.29545707 0.029173896 9933973
0.27833843 0.29708415 0.028960392 9999510
0.27988416 0.30198547 0.028740447 10000022
0.22956786 0.22868493 0.044525497 9406027
0.23067367 0.2304161 0.044089191 9405782
0.23233229 0.23301286 0.043434672 9274438
0.23399097 0.23560958 0.042780273 9274681
0.23509671 0.23734067 0.042343967 9339447
0.23675534 0.23993747 0.041689448 10063698
0.23836136 0.24245176 0.041055731 10261350
0.24002007 0.24504846 0.040401332 10262397
0.2416787 0.24764521 0.039746813 9999242
0.25396264 0.26577398 0.03547655 9868172
0.25531831 0.26722682 0.035050794 10065293
0.25666726 0.27189913 0.035349295 10197394
0.25835878 0.27502969 0.034248635 10263189
0.2613315 0.27670085 0.034455284 10328982
0.2627489 0.27978492 0.031031951 10263196
0.26443183 0.28092313 0.030668542 10263196
0.26454526 0.28530508 0.030293211 9802644
0.26741776 0.28699636 0.030085012 9868181
0.26972085 0.29215783 0.029688582 10131607
0.27248099 0.29378131 0.029407904 9868180
0.27513978 0.29987416 0.028554603 9933970
0.27681559 0.30125695 0.028180823 10131349
0.24261054 0.25465572 0.035751276 9605257
0.24642935 0.25752333 0.035148554 9671051
0.24727346 0.26063743 0.035364799 9671051
0.24980572 0.26344019 0.035415404 9605000
0.25119972 0.26516971 0.034740552 9736588
0.25117654 0.26737696 0.031887874 9736339
0.25617391 0.27309424 0.031620964 10197402
0.25627193 0.27706799 0.031271681 10263451
0.25825405 0.27798542 0.031271324 10328987
0.25966257 0.28100792 0.030709911 10131609
0.26209867 0.28311902 0.031061456 9868437
0.19748545 0.18475828 0.053888619 9736329
0.19914411 0.18735501 0.05323416 9801867
0.20080273 0.18995175 0.052579641 9670541
0.20246141 0.19254848 0.051925302 9605007
0.20356721 0.1942796 0.051488936 9736326
0.20522587 0.19687633 0.050834477 9736322
0.2068845 0.19947308 0.050179958 9736318
0.20854317 0.2020698 0.049525499 9538419
0.21020189 0.20466653 0.0488711 9800552
0.21186051 0.20726325 0.048216522 9734997
0.21351917 0.20986001 0.047562055 9801029
0.21462499 0.21159112 0.047125749 9865805
0.21633624 0.21427031 0.046450488 9668167
0.21799493 0.21686706 0.04579597 9865543
0.21965358 0.21946377 0.045141511 9734741
0.22131222 0.22206053 0.044486992 9734732
0.22241803 0.22379164 0.044050746 9997904
0.2235238 0.2255228 0.04361444 9867351
0.22515611 0.22807834 0.042970352 9208906
0.2397487 0.25452673 0.034724705 9736586
0.24276215 0.25767958 0.035138063 9802637
0.2443074 0.25945935 0.036008291 9934225
0.24690676 0.26541796 0.032065086 9605263
0.24905401 0.26633799 0.032012932 9670800
0.24868859 0.26964557 0.032177262 10000022
0.25161576 0.27128413 0.031658098 10131352
0.25206175 0.27524191 0.0316457 10131609
0.2540752 0.27638549 0.031178702 10197658
0.19183628 0.18221441 0.052821755 9605005
0.19294208 0.18394552 0.052385449 9670798
0.23482138 0.25094745 0.035229377 10065286
0.23756351 0.25303489 0.03481888 9934220
0.23749016 0.25592282 0.033096008 9605521
0.2396754 0.25756252 0.034070008 9802383
0.24137269 0.26028809 0.032580845 9736595
0.24392076 0.26290932 0.032833628 9671059
0.24499162 0.2643888 0.032272927 9605264
0.24554151 0.26820391 0.032198481 9736591
0.18576728 0.17753679 0.05281347 9867658
0.1874259 0.18013355 0.052158952 9605263
0.18853168 0.18186469 0.051722646 9671056
0.2248555 0.24046391 0.035519175 9208388
0.22624959 0.24219345 0.034844331 9339716
0.22802016 0.24366574 0.034584574 9602881
0.22940423 0.24829482 0.034800105 10195817
0.23108703 0.24972796 0.034644 10130807
0.23301412 0.25292185 0.033429317 9934227
0.23371224 0.25438899 0.032837503 9868436
0.23660715 0.26010308 0.032523803 10000024
0.23882131 0.26091143 0.032679014 10065561
0.17669559 0.16963458 0.053097069 7762801
0.17780137 0.17136569 0.052660763 8616804
0.17951269 0.17404488 0.051985681 9143157
0.1811713 0.17664158 0.051331043 9800841
0.21965986 0.23628719 0.03610193 9603401
0.22114551 0.23778616 0.035707109 9471817
0.22292031 0.24018067 0.03454452 9274456
0.22198074 0.24291432 0.035549276 9471298
0.22519228 0.24605799 0.033861034 9735265
0.22751525 0.24760117 0.033758394 9998440
0.22879632 0.24985275 0.032943301 9933700
0.22956231 0.25210568 0.032994084 9933968
0.2343051 0.25925574 0.032472245 9868437
0.19408248 0.20047699 0.043377042 9671059
0.19478208 0.20225142 0.042323649 9671053
0.19714662 0.20562829 0.041259229 9736318
0.20096874 0.21237996 0.039711118 9472888
0.20261642 0.21356161 0.039430559 9472631
0.20585178 0.21994613 0.038307786 9800787
0.20690738 0.22141495 0.037826598 9669739
0.20960426 0.22352377 0.037466109 9866335
0.21104828 0.2269495 0.036909759 9800802
0.21154861 0.22936742 0.036701195 9735265
0.21387409 0.2313492 0.036259644 9603680
0.21628234 0.23333231 0.035792165 9471836
0.2167895 0.23649266 0.034936897 9471840
0.21917924 0.23876347 0.034120195 9472107
0.22034797 0.24080043 0.034575455 9340245
0.22179531 0.24434964 0.033875696 9406044
0.22502545 0.25000411 0.032891385 9933448
0.17212571 0.1687807 0.051604219 7631464
0.18178397 0.18640067 0.044918239 9539474
0.1844708 0.19091296 0.044843495 9605524
0.18670681 0.19276924 0.04415828 9605268
0.18782994 0.19591254 0.043593407 9671058
0.189152 0.19821203 0.043072104 9605521
0.1917437 0.19995932 0.042775869 9671055
0.19209918 0.20430341 0.042462707 9671059
0.19450341 0.20499516 0.041674316 9671054
0.19520961 0.20815365 0.041195869 9670796
0.19769244 0.21055271 0.040361643 9538947
0.19938082 0.21296597 0.040177405 9604205
0.20141937 0.21533047 0.03956461 9735515
0.20229267 0.2175639 0.038927674 9603953
0.20374195 0.22018768 0.03841126 9735264
0.20479298 0.22404835 0.037942886 9669477
0.2069771 0.22567908 0.037755549 9800541
0.20862529 0.22745894 0.037122071 9800544
0.2113706 0.23343049 0.035766236 9406319
0.21409187 0.2350722 0.035459392 9209195
0.21661393 0.24106844 0.03435766 9340522
0.21837422 0.24217032 0.034045927 9340264
0.16750337 0.16784431 0.050132163 8618095
0.1756722 0.18230657 0.046154022 9539218
0.17766124 0.18505642 0.045981705 9539218
0.17873162 0.18697825 0.045249641 9539472
0.18164055 0.18922867 0.04518646 9605266
0.18386446 0.1943399 0.043908596 9671057
0.18510017 0.19633833 0.043658912 9605268
0.18870308 0.20255007 0.042541385 9671314
0.18974179 0.20439306 0.041897535 9802640
0.19224118 0.20651419 0.041486919 9802638
0.19710843 0.21411458 0.039938331 9473673
0.1988872 0.21609189 0.039056063 9538949
0.2028318 0.2234292 0.037735879 9538426
0.1634603 0.16781472 0.048431583 9208157
0.17027742 0.17852652 0.045319267 8946570
0.17231773 0.18085518 0.046092398 9473425
0.17387311 0.18307805 0.044655204 9670539
0.17516033 0.18619139 0.044627786 9670798
0.17886046 0.18998563 0.043791413 9605263
0.18097292 0.19243605 0.043225229 9671312
0.16661935 0.17661908 0.04468412 8222845
0.16794911 0.17929709 0.04472179 9143680
0.17043631 0.18140398 0.044464178 9473161
0.1638146 0.17571327 0.044570453 7959670
0.16445982 0.17739251 0.043242402 8222572
0.16499169 0.18003742 0.044495948 9406590
0.15820803 0.17451613 0.043420024 8288895
0.16048737 0.17569551 0.042966612 8025203
0.15551993 0.17311269 0.04210896 8222068
0.15604922 0.17469943 0.041563816 8616820
0.15239313 0.17310376 0.041208453 8156009
0.14657463 0.1705768 0.039699085 6838850
0.1484623 0.17200352 0.040517636 7628626
0.14992563 0.17363806 0.040122814 8549721
0.1447349 0.17028904 0.039028592 6772518
0.14140083 0.16908224 0.038224764 6706215
0.13825008 0.16969253 0.038195975 6640153
0.39225206 0.38139385 0.038026236 11314301
0.39330515 0.38304251 0.037610792 10129511
0.38683981 0.37922093 0.036865912 11446138
0.38841942 0.38169402 0.036242567 11643520
0.39168796 0.38653451 0.033409499 11379039
0.39387226 0.38905823 0.032594346 10128706
0.37639356 0.36572051 0.03720393 11577499
0.37744668 0.36736917 0.036788426 11709556
0.37849984 0.3690179 0.036372863 11446384
0.38128427 0.37274691 0.035603903 11445322
0.38199073 0.37635475 0.036307119 11115885
0.38304389 0.37800348 0.035891615 11182704
0.38431099 0.38000697 0.035019599 11511138
0.38706556 0.38203496 0.03464558 11313505
0.38833275 0.38403845 0.033773623 11379045
0.38946277 0.38624039 0.032860123 11576168
0.39400214 0.39637977 0.03068807 8086303
0.36943847 0.35955676 0.03747651 11248565
0.37049159 0.36120546 0.037061006 11314359
0.37204498 0.36363739 0.036447965 11644330
0.37359831 0.36606917 0.03583511 11906464
0.37471041 0.36953089 0.036344908 12038301
0.3765271 0.37128505 0.035796426 11905929
0.37812382 0.37353593 0.035537682 11445357
0.37934077 0.37666208 0.035142265 10984791
0.38194308 0.37838662 0.035103463 11182160
0.38841996 0.39194274 0.03166493 8614187
0.39100918 0.39382064 0.031238936 8086824
0.39264652 0.39492688 0.031114005 7954978
0.37028491 0.36743876 0.034797341 11117716
0.37337422 0.36861309 0.03525313 11775127
0.37351212 0.37317121 0.035157762 12170144
0.37666205 0.37508056 0.03507378 11774831
0.37980926 0.38171923 0.030404534 10460039
0.38334411 0.38739166 0.030263685 10985354
0.38586584 0.39002147 0.032008015 9338433
0.36286774 0.35557032 0.036773056 10460578
0.36444744 0.35804337 0.03614977 10657442
0.36602712 0.36051643 0.035526544 10986148
0.36647478 0.3640404 0.036043316 10394269
0.36792195 0.36600411 0.035389096 10526357
0.37000942 0.36872104 0.035335988 11250341
0.36948806 0.3714985 0.034686655 11710114
0.37740546 0.38429654 0.030206289 10854028
0.38011152 0.38538253 0.029822133 10788231
0.35843992 0.35336363 0.036048144 10460833
0.35918406 0.35649717 0.034724742 10460573
0.3603687 0.3583532 0.036667973 10328218
0.3611857 0.36186329 0.035017759 10591637
0.36374775 0.36339694 0.03516224 10657171
0.37329814 0.37979513 0.02961221 10920847
0.37480232 0.38216978 0.029128816 10788478
0.37867403 0.38838977 0.029447284 11972000
0.38186634 0.39208695 0.026697777 11380112
0.35230803 0.35016239 0.035240918 10526360
0.35353237 0.35294542 0.034465343 10460569
0.35542136 0.35537142 0.033957809 10526100
0.35595939 0.35895115 0.034604281 10460311
0.35829943 0.36037031 0.034613997 10525844
0.36857939 0.37860948 0.028591301 11250086
0.3704069 0.37930456 0.028279927 11381129
0.37331221 0.38509458 0.028774943 10591360
0.37510279 0.38760149 0.025932577 11445107
0.37686315 0.38870338 0.025620963 11313524
0.34419435 0.34218517 0.03597036 10460843
0.34524754 0.34383386 0.035554856 10131878
0.34682718 0.34630698 0.03493157 10394524
0.34775734 0.34959459 0.034209222 10263183
0.34979442 0.35179934 0.034402758 10394513
0.35050452 0.35543197 0.034491867 10460055
0.35250288 0.35701168 0.034352809 10329239
0.35402152 0.35954008 0.033473641 10592160
0.36509758 0.37609193 0.027586546 11579821
0.3678855 0.37984595 0.026444223 11972246
0.36800301 0.38188192 0.028081622 12170926
0.3688789 0.38492635 0.026016619 11445883
0.37184122 0.38637438 0.025792923 11116398
0.37224486 0.39076734 0.025474813 12102788
0.37371305 0.39214045 0.025017884 11839366
0.3759383 0.39421615 0.024213281 11181688
0.33655456 0.33494991 0.036512882 10724007
0.33813426 0.33742297 0.035889536 10986903
0.3392444 0.34043324 0.035726517 10789280
0.34094158 0.34280294 0.035472304 10460578
0.34214553 0.34603357 0.03529796 10131866
0.34375089 0.34804791 0.034764737 10394261
0.34533271 0.35018963 0.034355968 10394262
0.3469083 0.35312915 0.03380844 10591129
0.34845689 0.35508147 0.034408957 10526099
0.35882199 0.37244916 0.027069777 10724003
0.36087435 0.37684396 0.026124086 11119270
0.36214802 0.37830001 0.026465621 11710378
0.364797 0.37956935 0.02642348 11973548
0.36583567 0.38348952 0.026079502 12104612
0.37023807 0.38996875 0.025402512 11839615
0.32398134 0.32156563 0.038178302 10986657
0.32556093 0.32403868 0.037554957 11052184
0.32719329 0.32659423 0.03691081 11052195
0.32877293 0.32906732 0.036287524 11117989
0.3303526 0.33154041 0.035664178 11183527
0.33193234 0.33401349 0.035040885 10592679
0.33304879 0.33730775 0.035298616 11447208
0.33503914 0.33969504 0.034773856 11184037
0.33652177 0.34332606 0.034528404 10855326
0.33815175 0.34467688 0.034392983 10526361
0.34017596 0.34560132 0.034527332 10131601
0.35686222 0.37454402 0.026179045 10789535
0.35892522 0.37646052 0.026160505 10986913
0.35847056 0.37942114 0.025925905 11316394
0.36281303 0.38249853 0.026038494 12302258
0.31888643 0.31841308 0.037785567 10986653
0.32046604 0.32088619 0.037162282 10986655
0.32777664 0.33391705 0.035196401 11118247
0.32991007 0.33577701 0.034666695 11118242
0.33022758 0.33880794 0.034582287 11315366
0.33221653 0.34170508 0.034031481 11250083
0.33454704 0.34216401 0.034539312 11118497
0.34906465 0.36628887 0.025548249 10263457
0.35137612 0.37057111 0.025293857 10723488
0.35394028 0.37246561 0.025592059 10657953
0.35451931 0.3753024 0.026041895 10789019
0.317673 0.32243961 0.035284676 10920861
0.31967971 0.32323825 0.035356857 10920860
0.3206307 0.32860664 0.035001732 10986910
0.322007 0.3305054 0.034472086 10987166
0.32515782 0.33167747 0.034834601 10986910
0.32897079 0.33880916 0.034530498 11249825
0.33343256 0.34571406 0.029435966 10658727
0.33877054 0.35537067 0.026890907 10329503
0.34065109 0.35941803 0.027500838 10328474
0.34244335 0.36015654 0.027272373 10525853
0.34470278 0.36411214 0.026192099 10328732
0.34729668 0.36572647 0.025574416 10394781
0.34748906 0.36919144 0.025370747 10394785
0.35020331 0.37033603 0.02475825 10921128
0.30778742 0.30733714 0.03886912 10723217
0.30941972 0.30989265 0.038224973 10789272
0.3106474 0.31279957 0.038431145 10657950
0.31175321 0.3145307 0.037994839 10789025
0.31324106 0.31733227 0.036196031 10920607
0.31488463 0.3192752 0.035877146 10855325
0.31588823 0.32116157 0.035316326 10855325
0.31638503 0.32711852 0.034701742 10855324
0.31918213 0.32757267 0.035410143 10921378
0.32098454 0.32996792 0.03504274 10790044
0.3226169 0.33252344 0.034398593 11052454
0.32419658 0.33499649 0.033775307 11183790
0.32946712 0.34535375 0.029026542 10790313
0.33284408 0.35067981 0.027432237 10330283
0.33467153 0.35137501 0.027120862 9672352
0.33534595 0.35564023 0.026019786 10263712
0.33794168 0.35801139 0.026604567 10197404
0.33899575 0.35877475 0.025085066 10262679
0.34060431 0.36274475 0.025981814 10460573
0.34407395 0.3680456 0.025485069 10328986
0.2988472 0.29964107 0.039100684 9932949
0.29990029 0.30128971 0.03868518 10854307
0.3014442 0.30439627 0.038559414 10788769
0.30274272 0.30677384 0.038288631 10591902
0.30407634 0.30920649 0.038004078 10789024
0.30558509 0.31225806 0.037892021 10854816
0.3067151 0.31431258 0.036874928 10789278
0.30776724 0.316993 0.035256006 10723739
0.31000876 0.31859261 0.035732247 10723485
0.31137079 0.32197222 0.035426594 10723485
0.31296003 0.32426658 0.034920909 10789531
0.31468454 0.32600173 0.034624495 10921120
0.32589868 0.34339991 0.028835509 10921644
0.33046827 0.34974632 0.026852045 10526881
0.33171144 0.35469639 0.027502988 9737624
0.33375639 0.35596764 0.025857124 10197402
0.33452573 0.36012596 0.025374684 10460315
0.33638412 0.36163735 0.025011096 10526107
0.29420877 0.29710463 0.038458921 10130579
0.2958411 0.29966006 0.037814893 9867661
0.29670784 0.30308554 0.038922764 10919837
0.29831389 0.30559984 0.038289107 10920098
0.30215988 0.31311694 0.035506584 10723482
0.30414888 0.31408465 0.035724021 10723481
0.31910628 0.33781609 0.028692879 10921645
0.32110608 0.3421284 0.02776799 10855335
0.32498795 0.34708309 0.026220653 11249831
0.32703653 0.35011321 0.026348982 10921382
0.32773653 0.35322759 0.025559459 10592159
0.33075881 0.3546609 0.025429223 10065814
0.33227634 0.35936108 0.025302444 10526108
0.28962058 0.29730487 0.037733063 9801350
0.29037431 0.29946992 0.038126096 10722185
0.2919803 0.30198425 0.037492312 10525838
0.29485494 0.30502683 0.034950413 10526098
0.29748783 0.305585 0.035655357 10789017
0.29735452 0.30878294 0.035010852 10657947
0.29936343 0.31088474 0.034964956 10657947
0.30637476 0.32447958 0.030627765 10658470
0.3081775 0.32529348 0.030243672 10658726
0.30921084 0.32917574 0.029495336 10592934
0.31096101 0.32990721 0.029132046 10790054
0.31289583 0.33419636 0.028191723 10724006
0.31497213 0.33742738 0.027262069 10986916
0.31640762 0.33811954 0.02762983 10921383
0.31886438 0.34062696 0.027039267 10986919
0.31920475 0.34505817 0.02591053 11184295
0.32153144 0.34578675 0.026034627 11250088
0.32342783 0.35158157 0.025435779 11118503
0.27448711 0.27735275 0.040541992 9736840
0.27611947 0.2799083 0.039897904 9999498
0.27775177 0.28246382 0.039253756 10065809
0.27938408 0.28501934 0.038609728 10131867
0.28099012 0.28753358 0.037976071 9802900
0.28264871 0.29013038 0.037321553 10197400
0.2842043 0.29322246 0.037168071 9999246
0.28550869 0.29559287 0.036883399 10262418
0.28661445 0.297324 0.036447152 9933454
0.28873384 0.30160645 0.034744605 9999755
0.29051861 0.30288449 0.034712948 10065549
0.29188064 0.30497748 0.033955015 10328463
0.2931042 0.30844954 0.034948863 10723481
0.30106547 0.32126686 0.029934503 10395556
0.30407852 0.32129785 0.030473627 10789800
0.30425173 0.32388258 0.029617049 10657955
0.30649626 0.3295134 0.02828715 10789797
0.31020546 0.33188766 0.027855672 10855589
0.31064269 0.3353357 0.027242221 10986916
0.31290513 0.33708605 0.027407385 10921383
0.31329447 0.34167299 0.026378669 11052708
0.31533229 0.3429929 0.02619151 11118502
0.31687796 0.34432966 0.025786437 11184294
0.28432003 0.29950061 0.034455225 9868427
0.28626275 0.30102611 0.034361169 9867911
0.288899 0.30517235 0.031984672 9934750
0.29168263 0.30978602 0.030873042 10658982
0.29519159 0.31665865 0.030455094 10527652
0.29730147 0.31805146 0.029536705 10396068
0.29886082 0.32156587 0.028902631 10592676
0.30122164 0.32328311 0.028222479 10723745
0.30323434 0.32872838 0.02749411 10723744
0.30685472 0.33328426 0.027792789 10855074
0.30847073 0.33453432 0.027221896 10921123
0.256069 0.25481817 0.044513509 9604734
0.25717473 0.25654927 0.044077262 9407607
0.25880706 0.25910482 0.043433174 9670537
0.26586297 0.27015123 0.040649101 10196626
0.26696867 0.27188241 0.040212616 10525591
0.26823142 0.27489349 0.040439472 9868433
0.26986375 0.27744901 0.039795324 9539716
0.27112648 0.28046006 0.040022179 10197392
0.27275881 0.28301558 0.039378032 10065556
0.2738646 0.28474674 0.038941726 10131086
0.27547058 0.28726107 0.03830795 9933971
0.27663359 0.28970158 0.036258802 9868179
0.27866432 0.2920095 0.035762653 9933968
0.28034118 0.29488635 0.036386177 9933452
0.28063914 0.29812211 0.034096405 9934747
0.28299215 0.29936087 0.034024999 9869212
0.28353775 0.30307028 0.032918856 9475226
0.28619239 0.30467659 0.033265635 9803669
0.28891286 0.30898476 0.031744406 10395810
0.2898255 0.3139286 0.03057031 10461606
0.29230142 0.31444341 0.029101115 10527138
0.29369164 0.31535298 0.028692823 10657951
0.29484713 0.32011598 0.028379481 10723744
0.29698402 0.32096064 0.028482895 10657952
0.29760727 0.32530397 0.028283816 10723745
0.29961091 0.32741684 0.027546622 10723744
0.25013009 0.25182095 0.043560855 9999490
0.25118318 0.25346965 0.043145351 9933697
0.25216475 0.25638533 0.043724641 9670534
0.25376129 0.25957426 0.043578014 9801865
0.25481442 0.26122296 0.04316251 9999243
0.25690374 0.26380455 0.041854724 9999508
0.25850132 0.26596087 0.040982649 10131101
0.26010734 0.2684752 0.040348992 10131096
0.26176596 0.27107194 0.039694473 10131090
0.26302868 0.27408299 0.039921209 10065039
0.27012217 0.28628981 0.034616873 10263186
0.27311751 0.28797704 0.034704074 10197137
0.27392018 0.29160625 0.034653351 9803416
0.27572846 0.29362348 0.033963665 9802652
0.27728984 0.29566747 0.03351675 10000018
0.2791822 0.29722559 0.033585176 9474199
0.28539068 0.30840144 0.02868567 9999764
0.28869984 0.31294283 0.028859776 10723488
0.28930223 0.31698784 0.028868299 10723489
0.29180387 0.31867915 0.028442483 10657952
0.24587776 0.24998733 0.042835765 9933704
0.24693079 0.25163612 0.042420201 9933704
0.24785021 0.255144 0.04350739 9933193
0.26667792 0.28508139 0.034088597 10131343
0.2679964 0.28849545 0.035092756 10000016
0.26940471 0.29003072 0.034646258 9736584
0.27152377 0.29104462 0.034894511 9868429
0.27382377 0.29751974 0.032242164 9606043
0.28132132 0.30640173 0.028728109 9933971
0.28302532 0.30932578 0.02852444 10262937
0.28529575 0.31187657 0.0287566 10657695
0.28713757 0.3159419 0.028858464 10657952
0.23325171 0.23652072 0.044521861 9406267
0.23435751 0.23825186 0.044085614 9537352
0.23601612 0.24084863 0.043431096 10063965
0.23762217 0.24336287 0.042797379 10261612
0.2392808 0.24595961 0.04214292 10065294
0.24093945 0.24855638 0.041488402 9802120
0.24192098 0.251472 0.042067759 9868166
0.24351759 0.25466102 0.041921191 10130824
0.25523418 0.27048272 0.035723194 10262930
0.25780484 0.27712643 0.035388395 10263188
0.25982159 0.27829558 0.035512254 10263189
0.26162979 0.28092915 0.034660801 9736846
0.2635152 0.28352636 0.033861145 9670791
0.26718253 0.29034984 0.030280575 10197401
0.2728132 0.29914552 0.028430745 9868180
0.27755523 0.30525094 0.028334543 9802641
0.27812961 0.30924222 0.02854006 10263192
0.28058642 0.31001687 0.028695267 10460573
0.25179535 0.26966062 0.035778865 10065551
0.25256678 0.27294284 0.035836145 10131602
0.26132169 0.28672707 0.030894026 9933971
0.2641252 0.28881243 0.030390009 10131609
0.2646699 0.29273722 0.030497178 9999766
0.26699007 0.29475486 0.029703006 9868436
0.26982403 0.29631686 0.029365167 9933972
0.27123231 0.29785219 0.028918549 10000021
0.27128071 0.30221108 0.028527662 9933972
0.27437302 0.30385265 0.028438851 10065558
0.2044867 0.19778745 0.052576065 9868432
0.20614527 0.20038424 0.051921546 9736593
0.20780395 0.20298094 0.051267087 9670281
0.20946264 0.20557767 0.050612628 9669508
0.21056837 0.20730884 0.050176322 9472129
0.2161499 0.21604706 0.047973983 9800262
0.21725568 0.21777821 0.047537677 9997640
0.21854475 0.22083049 0.047754101 9734989
0.2202034 0.22342719 0.047099523 9406796
0.22130919 0.22515839 0.046663217 9406796
0.22241494 0.22688951 0.046226911 9143373
0.22335237 0.22993234 0.045032971 9077064
0.22659257 0.2330853 0.044336729 9406025
0.22794384 0.23554528 0.044045381 9406277
0.22924228 0.23792292 0.043774597 9735243
0.23083884 0.24111193 0.04362797 9933677
0.23249754 0.24370861 0.042973451 10130810
0.23415615 0.24630538 0.042318933 9604221
0.23526195 0.24803655 0.041882686 9472908
0.2369206 0.25063324 0.041228227 9078656
0.24738477 0.26559702 0.035912208 9736586
0.24849716 0.26767316 0.034936421 10000015
0.24914154 0.2702384 0.036158912 10131343
0.25272247 0.27554902 0.034538791 10197396
0.25398961 0.27755252 0.033666775 10263188
0.25487584 0.28096691 0.030689228 10263195
0.25629771 0.28289819 0.030885268 9934231
0.25826946 0.28537488 0.031029332 9605007
0.26154745 0.29117686 0.030591056 10131352
0.26844537 0.30034152 0.028844878 9934228
0.19216761 0.18490008 0.054209948 9736597
0.19327332 0.18663128 0.053773642 9736584
0.19498467 0.18931043 0.05309844 9736582
0.19627377 0.19236271 0.053314805 9736585
0.19787131 0.19451904 0.052442789 9605007
0.19996063 0.19710064 0.051135004 9736843
0.20088011 0.20060849 0.052222192 9670797
0.20253873 0.20320529 0.051567674 9670798
0.20364451 0.2049364 0.051131368 9670793
0.20590872 0.20848113 0.050238073 9604739
0.20701453 0.21021228 0.049801648 9538946
0.20941237 0.21189789 0.047405481 9603915
0.21107109 0.21449463 0.046751082 9603408
0.21205263 0.21741024 0.047330439 9735006
0.21364909 0.2205992 0.047183745 9603428
0.22254796 0.23453088 0.043672375 9405763
0.24048242 0.2627849 0.035177223 9802640
0.24285838 0.26357085 0.035653882 9539466
0.24409762 0.26537314 0.034875266 9473413
0.24613939 0.26998782 0.035256855 10197136
0.2458664 0.27217841 0.032186441 10131607
0.24859998 0.2739079 0.031537525 10131608
0.2486075 0.27693304 0.032007925 10131609
0.25200146 0.27941066 0.031187642 10197402
0.25258479 0.2831699 0.031217027 9868436
0.18779244 0.18277584 0.053464293 9670797
0.18908153 0.18582813 0.053680718 9670802
