# .PCD v0.7 - Point Cloud Data file format
VERSION 0.7
FIELDS x y z rgba
SIZE 4 4 4 4
TYPE F F F U
COUNT 1 1 1 1
WIDTH 1159
HEIGHT 1
VIEWPOINT 0 0 0 1 0 0 0
POINTS 1159
DATA ascii
1.9667674 0.5335288 0.08586213 12765167
1.9688313 0.53550756 0.085360497 11844333
1.985733 0.55582428 0.084168255 7769280
1.9890686 0.56069052 0.081680626 7703236
2.0027995 0.57823408 0.078850508 10859511
2.0050924 0.57994139 0.079559237 9937389
2.007473 0.58331817 0.079063684 8095702
2.0100415 0.58680654 0.078615904 5992363
2.0122042 0.58959818 0.079256088 4740717
2.0126622 0.59233177 0.07895726 4543082
1.9442406 0.50897264 0.086272448 7505099
1.9497025 0.5162158 0.084890902 13883641
1.9518114 0.51844388 0.085472763 13620727
1.9544387 0.52045971 0.085248858 13883119
1.9556998 0.52347457 0.085600406 13686259
1.956907 0.52577722 0.084898472 14146027
1.9599267 0.5276261 0.084761113 13225449
1.9601039 0.52951747 0.083698124 11646694
1.9630486 0.53157336 0.084136575 11778537
1.9637306 0.53472924 0.08385402 11844331
1.9654362 0.53699911 0.084197879 11647210
1.9912953 0.56569707 0.081018001 7046324
1.9945986 0.56968737 0.079339385 10268127
1.9948994 0.57151949 0.079876304 9215176
1.9965699 0.57557636 0.079396605 10596070
1.9983352 0.57667053 0.079426467 10859244
2.0003974 0.57802975 0.079347551 10991345
2.0018339 0.58134806 0.079034239 10990578
2.0041208 0.58460832 0.078550875 10661879
2.0072517 0.58759212 0.078221202 9148395
2.0097497 0.59094119 0.077747911 7438033
2.0111287 0.5931145 0.078344524 5794206
2.0140483 0.5948348 0.075419843 10594542
1.9414672 0.50810498 0.083456337 1850209
1.941633 0.50916779 0.085026771 8163535
1.9463687 0.51449394 0.083129376 13488625
1.9475592 0.51673287 0.0833202 14145772
1.9496329 0.51933193 0.083385557 13488358
1.9521389 0.52247274 0.084355414 14014441
1.9534745 0.52395618 0.082971632 12764899
1.9547957 0.5259738 0.081654578 11252703
1.9570086 0.52880859 0.083285123 12896487
1.9593349 0.53159785 0.082909524 11844072
1.9610399 0.53411055 0.083108157 11844586
1.9969682 0.57613766 0.077990741 7374245
1.9989033 0.57993066 0.077435672 9543869
1.9993399 0.583781 0.076983958 8688816
2.002269 0.58450931 0.075707138 11449036
2.0045333 0.58767092 0.07533446 11778279
2.0064225 0.58961636 0.076443613 11055859
2.0083742 0.59163952 0.07754463 9411308
2.0095561 0.59301114 0.075147808 11713267
2.0112934 0.59558803 0.075591058 11515636
2.014442 0.59865922 0.075614214 10330851
1.9368744 0.50835001 0.081890643 2440811
1.9382811 0.50866193 0.082956493 3821966
1.9421012 0.51444137 0.082077146 13028078
1.9444118 0.5160079 0.081549168 13882858
1.9463156 0.5179534 0.081344187 13355743
1.9474705 0.52050704 0.081400156 13027036
1.9493729 0.52238971 0.081404895 11844064
1.9511241 0.52491796 0.081491113 11712479
1.9529761 0.52780616 0.081490308 11580896
1.9554069 0.52986282 0.081680447 11778533
1.9568316 0.53121215 0.082138926 12041448
2.0025294 0.58868837 0.075806379 10266306
2.0047853 0.59133852 0.075404853 11581158
1.9354008 0.50797689 0.080951899 2899038
1.9386708 0.51287675 0.079302281 10921938
1.9405813 0.51509523 0.080280274 13881571
1.9420855 0.51751572 0.08016789 13223901
1.9439052 0.52010655 0.080024183 12369629
1.9464004 0.52268571 0.080467731 11975394
1.9482132 0.52547359 0.080436945 11975139
1.9308158 0.50748116 0.078124136 3486531
1.9329875 0.50781918 0.079574913 2765126
1.9349302 0.51209527 0.077553689 10854588
1.9364736 0.51366621 0.078373045 10987980
1.938395 0.51605862 0.07867378 13026265
1.9399242 0.51830149 0.079045296 12303578
1.9254678 0.5041405 0.075869471 4669233
1.9274255 0.5062927 0.077324212 4077630
1.9291567 0.50955117 0.075944781 7236247
1.9313998 0.51121974 0.076795757 8618400
1.93274 0.51254904 0.077159971 8751015
1.9342288 0.51503801 0.077518612 12237784
1.9361032 0.51686549 0.07739687 11317723
1.9216282 0.5034523 0.075472295 5326394
1.9240035 0.50518674 0.076455861 4471862
1.9258034 0.50870931 0.074139714 3157053
1.9274647 0.51011074 0.075010031 5920873
1.9294096 0.51147264 0.075643718 5987708
1.9109085 0.49345201 0.073496014 7235158
1.9128642 0.49527928 0.073993534 7103829
1.9150686 0.49722171 0.074223429 7103826
1.9166791 0.49967054 0.074315101 6905931
1.9181283 0.50203395 0.074403018 6247744
1.9188424 0.50349307 0.07537055 5523259
1.9216343 0.50756466 0.073003173 4273188
1.923676 0.5091334 0.073466033 3946297
1.925478 0.51040602 0.073823512 4012351
1.9066676 0.49178225 0.073548704 7300950
1.9081993 0.49422067 0.073554873 7103831
1.9107535 0.49640772 0.073479861 7103831
1.9116645 0.49832705 0.074205428 7103826
1.9136003 0.50097728 0.073805898 6839880
1.917115 0.5035212 0.071015686 8154960
1.9182134 0.50599766 0.071129054 6573602
1.9200218 0.50790644 0.071763992 5259306
1.9216787 0.50935096 0.072425634 4930849
1.904191 0.4926526 0.073294401 7366487
1.9061867 0.49409515 0.069840401 9337170
1.9077958 0.49652699 0.069766283 9074775
1.9104781 0.5002265 0.070050418 9008976
1.9128979 0.50194031 0.070018023 8941119
1.9143515 0.50433934 0.070275873 8087100
1.9160621 0.5064199 0.070529789 6179365
1.9175217 0.50811541 0.071285158 5654832
1.901121 0.49151081 0.069584817 9403218
1.9028585 0.49365047 0.069634736 9271892
1.9045117 0.49635285 0.069590926 9468756
1.9066105 0.49836779 0.069567233 9599823
1.9086701 0.50065017 0.069299161 9073742
1.9106905 0.50323039 0.068718135 8021312
1.9123211 0.50527787 0.06943047 6903347
1.8990598 0.49251229 0.068651557 9337687
1.9009101 0.49436447 0.067974538 8812125
1.9028429 0.496905 0.067529142 8483424
1.9045384 0.49923545 0.067250341 7760737
1.9062934 0.50201464 0.067813724 7890512
1.908541 0.50454891 0.067574948 6773058
1.9098527 0.50736707 0.067976236 5457208
1.8953147 0.49178711 0.066997707 8484195
1.8970506 0.49435791 0.066764861 7695973
1.8991669 0.4953334 0.067123115 7761252
1.9004244 0.49826932 0.066906303 7629922
1.9025271 0.50092548 0.067021161 7694941
2.0137656 0.55230802 0.10584825 988212
2.0131505 0.55396068 0.10461959 1054004
2.0116386 0.55430281 0.10244292 1316921
2.0120108 0.55652177 0.10312125 1317178
2.0120964 0.56011951 0.1000438 1580340
2.0114691 0.56367803 0.099292725 1382965
2.0102675 0.56165141 0.096964777 1186347
1.9603629 0.51970792 0.091541737 10925822
1.9616673 0.52256656 0.091356069 10794750
1.9643923 0.52504569 0.091079682 10663165
1.9492328 0.51181149 0.090514749 11451903
1.9515402 0.5136776 0.091006428 11255295
1.9540797 0.51607847 0.09101361 11189503
1.9557936 0.51851857 0.090998441 11058175
1.9575281 0.52102482 0.09095633 11057663
1.9586976 0.52393413 0.090833277 11057662
1.9618471 0.52574134 0.091084659 10728957
1.9640803 0.52868199 0.090824872 10662397
1.9660401 0.53151667 0.090527236 10597118
1.9669086 0.53358543 0.089298159 11517182
1.9686377 0.53495926 0.088854343 12042744
1.9703529 0.53737527 0.089029312 11845369
1.9725946 0.54004544 0.088914037 10530548
1.9755322 0.54320657 0.087572515 11516414
1.9763632 0.54496074 0.087953418 9807340
1.9793419 0.54773659 0.086932033 7506120
1.9819779 0.5511924 0.086085171 7045820
1.9470546 0.51098728 0.089283973 11911935
1.9476407 0.51334524 0.090469569 11452159
1.951281 0.51748687 0.09035188 11320831
1.9529692 0.51999807 0.090409875 11320831
1.9604051 0.52658319 0.087470174 12898046
1.9615448 0.52974916 0.087110341 13422834
1.9642041 0.53254318 0.086671919 13685485
1.9646736 0.5344944 0.087591141 12766206
1.9667263 0.53692245 0.087198287 13291768
1.9688075 0.53969955 0.086975962 12765432
1.9705791 0.54092276 0.087359756 12370681
1.9728158 0.54481357 0.087586999 12897018
1.9749571 0.54709166 0.087665975 12042748
1.978719 0.54941702 0.087127835 11253501
1.9814658 0.55331969 0.086476445 8492250
1.9826771 0.55587959 0.086411893 10858733
1.9867516 0.56030416 0.084353298 6650299
2.0129383 0.59345198 0.080691963 4541789
2.0143173 0.59562498 0.081288636 3554112
1.9441106 0.51057887 0.087995648 12240382
1.9446718 0.5119741 0.089017332 11911935
1.9530528 0.52239966 0.08574453 13226746
1.9548037 0.52498853 0.085794449 13292283
1.9568071 0.52640629 0.086433649 13160956
1.9585189 0.52877337 0.086526364 13029628
1.9598705 0.53101307 0.085511655 13882604
1.9617863 0.53326881 0.086003095 13554416
1.9633733 0.53525394 0.085491747 14144995
1.9649851 0.53740752 0.085847855 14144995
1.9666268 0.53978443 0.085497618 13356006
1.9682949 0.54233754 0.085189939 12961250
1.9697869 0.54485798 0.085057378 12041200
1.9867465 0.563025 0.083254278 5929137
1.9900169 0.56740463 0.082571805 6651828
1.9903839 0.57132292 0.082234263 6651052
1.9933913 0.57441604 0.080778629 9544660
1.9941324 0.57676113 0.081803918 5467034
2.0095334 0.59429777 0.079229414 6253737
2.0126638 0.59593153 0.078915507 4741227
2.013391 0.59742546 0.080308169 4212810
1.9407347 0.5113669 0.086815059 12043004
1.9482031 0.52028704 0.084485203 13489138
1.9504464 0.52302688 0.084636152 13423347
1.9519721 0.52635324 0.084875822 13160953
1.9536852 0.52839553 0.084746718 13423347
1.9567411 0.53111696 0.085425764 13160699
1.9576375 0.53199482 0.083696783 13750241
1.9594821 0.53468043 0.084127903 13684964
1.9618064 0.53708518 0.084194392 13158627
1.9638184 0.53950411 0.084215701 12501739
1.9657327 0.54231036 0.083710015 11581161
1.9676429 0.54349029 0.084434062 11712492
1.9674039 0.54614484 0.083363295 11581161
1.9955896 0.57808167 0.079802662 8294588
1.9964342 0.58176911 0.079696655 10464225
1.9995515 0.58248782 0.078540534 10859243
2.0004139 0.58572137 0.0779275 9543633
2.0019264 0.58916008 0.078114241 10465259
2.0043061 0.59073681 0.07763952 10727920
2.006038 0.59264183 0.077165544 11581413
2.0076296 0.59423625 0.078171194 9213670
2.0143521 0.60198569 0.075942218 10199272
1.9377815 0.51056635 0.084583014 11450868
1.9382741 0.51177466 0.085959077 12371966
1.9430401 0.51730752 0.083201528 13489400
1.9450991 0.51877737 0.083536863 13554673
1.9464558 0.52186966 0.082915187 13751014
1.9485538 0.52410603 0.083246589 13882340
1.9502693 0.52653575 0.082984567 13816290
1.9520444 0.52889848 0.082701951 14078686
1.9540738 0.53086942 0.082764596 13553377
1.9552476 0.53373694 0.082603455 13290210
1.9570705 0.53582835 0.08255595 12567783
1.9590684 0.53765631 0.082158446 11317988
1.9608362 0.54000401 0.08249411 11120869
1.9626197 0.54271734 0.082752436 11055075
1.9960548 0.58288133 0.078802675 5993887
1.9997104 0.5881387 0.077174872 7570590
2.0004873 0.59026623 0.07762903 10596069
2.00318 0.59199703 0.075917304 10987698
2.0053461 0.59482741 0.075726151 11580377
2.0077147 0.59799695 0.075412303 11844071
2.009783 0.60105562 0.075419664 11712490
2.0119383 0.60338354 0.075674534 11252464
2.0130234 0.60672379 0.075330853 11318002
1.9335982 0.51000106 0.082326114 8425680
1.935383 0.51006502 0.083113372 8557026
1.939214 0.51677072 0.081495762 13620210
1.9410267 0.51873338 0.081978709 13488621
1.9425874 0.52076316 0.081588805 13619171
1.9444344 0.52314907 0.081831634 13619171
1.9460186 0.52482951 0.081092775 13289694
1.948462 0.52791679 0.081077337 12960992
1.9501374 0.53035367 0.081066698 12566755
1.9521055 0.53298533 0.081223607 12303585
1.9543526 0.5359962 0.081127673 11383782
1.956659 0.53771567 0.081443012 11317988
1.9581922 0.54023993 0.081661522 11186404
1.9293704 0.50909346 0.080552906 3032701
1.9308743 0.50976014 0.08124736 6977966
1.9354534 0.51540041 0.079910606 13488109
1.9371935 0.51732206 0.080877364 13422832
1.9391268 0.52017903 0.07989341 13421017
1.9411029 0.52243525 0.079937041 13223898
1.9427878 0.52519894 0.079921573 13157593
1.9449992 0.52706194 0.079940259 12960219
1.9462564 0.52982408 0.079903662 12039383
1.9481817 0.5312342 0.079875678 10725856
1.9498854 0.53411108 0.079856545 10463455
1.9261471 0.50836104 0.079550177 2700122
1.9280951 0.50859475 0.080138326 3555952
1.9302498 0.51316673 0.078266889 13025750
1.9316232 0.51467133 0.078587264 12829146
1.9336971 0.51629519 0.07907337 13289694
1.9356227 0.51856619 0.078866243 12829146
1.9371334 0.52102774 0.078566641 12434647
1.9388518 0.52368784 0.078598201 12237528
1.9411509 0.52584463 0.078933209 12106205
1.9433967 0.52804953 0.079119623 11580128
1.9218168 0.50706804 0.07761547 3486525
1.9240152 0.50743043 0.078279674 3092798
1.9266193 0.51201165 0.076260716 7040649
1.9279181 0.51343608 0.077447325 10066622
1.9293399 0.51483881 0.077416629 11644882
1.9315064 0.51760793 0.077765852 11908562
1.9327694 0.52000332 0.077655584 11645655
1.9351679 0.52236414 0.077229023 11251421
1.9368724 0.52499837 0.077355117 11317469
1.91728 0.50395846 0.075192034 5391926
1.9189252 0.5053618 0.076015592 4668468
1.9199297 0.50700831 0.076697797 3880248
1.9224514 0.51059085 0.074961066 6712722
1.924184 0.51231062 0.075645804 7631760
1.9257143 0.5139783 0.07620129 10659538
1.9277271 0.51783586 0.076443315 10988249
1.9088351 0.4965803 0.073915958 7169621
1.9096665 0.49866304 0.074364096 7103825
1.9123065 0.502437 0.074118346 6379328
1.9147269 0.50425118 0.074775219 5523764
1.9167374 0.50637543 0.075654626 4405550
1.9185007 0.50948453 0.073956728 4669252
1.9205103 0.51114076 0.074361861 4605784
1.9221224 0.51269108 0.075271904 7170445
1.9008013 0.49074292 0.073285937 7432022
1.9027534 0.49339482 0.073026776 7366487
1.9047867 0.49527609 0.073407918 7235415
1.9069649 0.49857911 0.073720008 7169362
1.9099933 0.5018239 0.073862165 6708298
1.9109049 0.5036217 0.074660242 5984061
1.91459 0.50826252 0.072181791 4799526
1.9164605 0.50987637 0.07270968 4208942
1.9179511 0.51213908 0.073025197 3682594
1.8977089 0.49167669 0.073209852 7432275
1.8995433 0.49294561 0.072980434 7366484
1.9016774 0.49485859 0.073207021 7300694
1.9038829 0.49819985 0.073479861 7301205
1.9061908 0.50048041 0.069979489 8287320
1.9073162 0.50202477 0.07000795 8482374
1.908852 0.50446159 0.070148945 8349487
1.9111329 0.50682402 0.070630819 6311211
1.9129193 0.50860131 0.071162969 5523241
1.8962182 0.49188182 0.069287926 9928785
1.8980802 0.49428532 0.069647431 9075028
1.9005264 0.49673659 0.069831222 9337426
1.9018232 0.49926215 0.069685906 9271635
1.9035555 0.5009973 0.069313675 9336912
1.905115 0.50376415 0.069469303 8546875
1.9072742 0.50583982 0.069844157 7297321
1.9087999 0.50750738 0.070062786 5916974
1.8937269 0.49314731 0.068881243 9600343
1.8959782 0.49548399 0.068768799 9469272
1.897907 0.49792033 0.068459839 9140569
1.8998338 0.5003767 0.068137616 9074264
1.9011368 0.50197929 0.06823951 8547407
1.9031069 0.50428665 0.067495883 7167305
1.9052799 0.50646055 0.067240149 6181695
1.9087601 0.51054323 0.067782432 4209192
1.890231 0.49271268 0.06691733 8681064
1.8918608 0.49473006 0.066852778 8484455
1.893569 0.49725631 0.06647414 8024168
1.8956014 0.4990519 0.066642821 7958372
1.8981633 0.50148714 0.066742063 7760990
1.9002718 0.50436294 0.066948473 7365458
1.9028826 0.50734955 0.067154408 5984571
1.8881269 0.492856 0.066271842 7762283
1.8897521 0.49553239 0.066193223 7762283
1.8957833 0.50226247 0.066121489 7498850
2.0126963 0.55420083 0.1070905 922675
2.0122318 0.55693996 0.1075404 988465
2.0123765 0.55636156 0.10560793 1119538
2.0120699 0.5588665 0.10504511 1054263
2.0117278 0.56074667 0.10378194 1185596
2.0113685 0.56326032 0.10351005 1185587
2.0123224 0.56670558 0.10072425 1186103
2.0107465 0.56643426 0.098348737 1383224
2.0104957 0.5684517 0.098876774 1316925
2.012212 0.57478696 0.097154856 1316920
2.0129962 0.57763666 0.094751775 1251631
1.9596902 0.52685428 0.090683341 10926334
1.9618919 0.52981681 0.090391457 10926079
1.9652061 0.53476155 0.090515971 10794495
1.9676369 0.5368185 0.09070617 10597118
1.9691229 0.5390594 0.090933561 10399740
1.9708657 0.54164743 0.090913326 10004728
1.9721152 0.54467183 0.09066093 9938934
1.9742919 0.54622126 0.090210348 8755173
1.97692 0.54814446 0.089417756 7308238
1.9478126 0.51537657 0.090283632 11452415
1.9497802 0.51827276 0.090019912 11321087
1.9523907 0.52191162 0.090099514 11255039
1.9548125 0.52261764 0.090235174 11189247
1.9560701 0.52570361 0.090016723 11320575
1.9576104 0.52808225 0.090129375 11189247
1.9596101 0.53071392 0.09004283 11123455
1.9619601 0.53291857 0.090205193 10926335
1.9628155 0.53562629 0.090251744 10991871
1.9651605 0.53762811 0.090488315 10992126
1.9695374 0.54202574 0.088038445 13094650
1.9712994 0.54535496 0.087259769 12503038
1.9734529 0.54725897 0.088160604 12963066
1.9759312 0.55012214 0.088424802 11253487
1.9778063 0.55301356 0.087406546 12436475
1.978724 0.55600977 0.087406963 11910654
1.9805235 0.55657685 0.087278724 10464489
1.981879 0.5588578 0.087194651 9477854
1.9855608 0.56184906 0.086254627 7110087
2.0145147 0.59666598 0.082891017 1909293
2.0146224 0.59886563 0.083814144 1054251
1.9442461 0.51442409 0.089466065 11583487
1.9458184 0.51659858 0.089719623 11517951
1.9476378 0.51948375 0.089437664 11452415
1.949335 0.52175295 0.089711368 11452159
1.9511698 0.52443236 0.089429975 11386367
1.9523877 0.52753937 0.089109093 11517951
1.9540132 0.52703035 0.089351892 11386623
1.9548347 0.52971917 0.08936727 11452159
1.9572822 0.53165627 0.089770436 11320575
1.9625791 0.53625655 0.087103754 13094909
1.9637867 0.53888762 0.086469293 13488107
1.9661825 0.5412302 0.086861998 13554675
1.9680572 0.54403841 0.086681187 13488884
1.9691318 0.54662418 0.086430728 13291510
1.9712875 0.54852134 0.086975306 13488885
1.973186 0.55162621 0.087037623 13291252
1.9751278 0.55459332 0.086847246 12962546
1.9757508 0.55699831 0.086319327 13028070
1.9787372 0.55812502 0.086811304 13422581
1.9805969 0.56074619 0.086776882 13488117
1.9828458 0.56297046 0.086559206 11647477
1.9853263 0.56451809 0.085966378 10003424
1.9854841 0.56638741 0.084751427 5665451
1.9868532 0.57069874 0.084790558 8030938
2.0118444 0.59801376 0.080197603 4280163
2.0139737 0.59991527 0.080887675 3685967
2.0141673 0.60210931 0.08180064 3225159
1.9417729 0.51495206 0.088432193 11649022
1.943715 0.5180313 0.089094669 11452158
1.9451731 0.5214231 0.088422179 11451903
1.9472926 0.52323806 0.088829458 11451903
1.9491984 0.52593541 0.088646472 11386367
1.9550389 0.5319612 0.085330278 13160698
1.9572532 0.53340709 0.086015552 13160698
1.9587554 0.53589261 0.086238295 12963323
1.9605739 0.53829896 0.08589074 13291766
1.9620911 0.54061925 0.086089849 13225975
1.9642935 0.54283416 0.085937113 13422575
1.9658517 0.54543376 0.085534811 13816036
1.9682626 0.54773259 0.085831255 13619435
1.9692279 0.54999673 0.085158139 12961511
1.9902202 0.57533246 0.082373112 6322863
1.9929422 0.57752079 0.081151277 9084108
1.9935973 0.58119309 0.080676079 8755653
1.9956419 0.58273286 0.080347925 5729432
2.0051181 0.5941211 0.078680038 10464500
2.0073731 0.59587443 0.079535186 8095448
2.0093582 0.59897959 0.079551786 6187948
2.0106134 0.60108298 0.080377191 4806781
1.9367745 0.51219636 0.085844874 12306174
1.9382416 0.51351398 0.086939543 11780606
1.9394088 0.51539099 0.08738631 11648766
1.9402701 0.51793742 0.087576568 11517695
1.9506435 0.52870834 0.084458232 13094903
1.9527137 0.53282183 0.084714174 13029368
1.9546332 0.53599155 0.085046411 13029111
1.9572002 0.53769076 0.084109187 13553640
1.9582573 0.53984445 0.084203839 13553384
1.9597222 0.54235649 0.084092468 13685225
1.9613653 0.54454881 0.084444374 13750761
1.9636604 0.54594612 0.082842469 11186661
1.9659212 0.54746807 0.08337909 11712491
1.967522 0.55147266 0.083501577 12500964
1.9698174 0.55349207 0.084135145 11515627
1.9945027 0.58505446 0.080240637 6914474
1.9960718 0.58558619 0.080157697 7833790
1.9983991 0.58984333 0.078447759 7965866
1.9989243 0.59097427 0.077305317 9938385
2.0014958 0.59324884 0.077583253 10595813
2.0027497 0.595388 0.078123868 10464489
2.0041904 0.5977602 0.078639656 10398700
2.0066245 0.59980643 0.079363465 9411300
2.0151036 0.60958129 0.075552821 10199531
1.9323468 0.51188284 0.084515512 12174846
1.9339283 0.51261199 0.085176289 11977726
1.935192 0.5152272 0.086030573 11780606
1.937343 0.51695967 0.086506397 11714558
1.9416656 0.52184844 0.082811356 13094643
1.9435718 0.5244242 0.082700849 13094899
1.9455681 0.52623761 0.082968533 13291760
1.9473234 0.52881038 0.082899362 13291761
1.9489093 0.53149772 0.082724273 12764644
1.951292 0.53354424 0.082759947 13488364
1.9529967 0.53617674 0.082263082 13684444
1.9547868 0.5387342 0.082191348 13223902
1.95621 0.54169726 0.082318068 13223384
1.959057 0.54318535 0.082404435 12106207
1.9608647 0.54585141 0.082399309 12106207
1.9623839 0.54938608 0.081919551 11251942
1.9655249 0.55062103 0.082178533 11120611
1.9643223 0.55220789 0.081944913 11383527
1.9966464 0.59104663 0.07771337 8098228
1.9992448 0.59349644 0.077618331 7900597
2.0023108 0.59550869 0.076536179 9805744
2.0038137 0.59934199 0.076120168 10593977
2.0059474 0.60200685 0.075537026 11383260
2.0071094 0.60462272 0.075014859 11908037
2.0083137 0.60522497 0.075258583 11252709
2.0106099 0.60812074 0.074647725 11580902
2.0127506 0.61128181 0.074550688 11515110
2.015029 0.61315203 0.075876206 10528238
1.9304582 0.51173711 0.083385259 12042745
1.9320832 0.51480615 0.08458358 11780350
1.9359403 0.51973414 0.081369787 12831730
1.9377371 0.52239895 0.081271112 12831473
1.9397777 0.52359366 0.081605911 13225450
1.9414111 0.52627683 0.081593752 13357034
1.9435012 0.5288015 0.081341296 13290725
1.9452981 0.53095752 0.081383795 12764124
1.9471962 0.53278989 0.081156462 11776721
1.9490178 0.53528416 0.08094126 10921918
1.9506745 0.53763223 0.080919623 10790587
1.9524603 0.54017639 0.080998003 11645137
1.9545864 0.54220343 0.08092162 10594015
1.9562553 0.54522455 0.081189781 10593760
1.959414 0.54826105 0.081568211 10988773
2.0086772 0.60870397 0.074392617 12302286
2.0113282 0.61276823 0.073323399 12302039
2.013701 0.61608362 0.072793841 12237019
1.926899 0.51110506 0.081691027 10201057
1.9323814 0.51782405 0.0800758 12962284
1.9340663 0.52099335 0.079936922 12961762
1.9361448 0.5224883 0.08005026 13158880
1.9374244 0.52535576 0.080063045 13158880
1.9395866 0.5270226 0.080004454 13355483
1.9413264 0.52959651 0.079394758 12763095
1.9431721 0.53232861 0.079604834 12236751
1.9451977 0.53484714 0.07989794 9737392
1.94704 0.53730989 0.079938889 5266561
1.9490767 0.53927982 0.079962552 5992329
1.9508272 0.54199004 0.079939902 7240091
1.9228948 0.50971621 0.080110729 6253985
1.9249417 0.51197207 0.081393659 11779826
1.9264364 0.51553094 0.078519583 12631768
1.9285896 0.51695967 0.079068184 12829663
1.9303924 0.51937211 0.07923609 12829401
1.9325132 0.52164322 0.078957736 12894675
1.9343418 0.52392995 0.078446686 12500179
1.9355575 0.52598828 0.078907222 12566491
1.9379163 0.52832466 0.078130215 12565972
1.9391799 0.53082997 0.078210175 12105944
1.9405826 0.53291798 0.078182131 11317471
1.9423496 0.53562987 0.078300089 10790877
1.9168558 0.50733697 0.077124834 3354674
1.9188708 0.50860447 0.078867972 3555425
1.9228317 0.5141598 0.076898426 11776461
1.9245347 0.51592374 0.077509463 12565715
1.9264175 0.51819181 0.078170657 12303061
1.9283662 0.52057439 0.077369153 11776721
1.9304836 0.52300823 0.077318698 11448533
1.9322891 0.52539772 0.077687293 12105680
1.934294 0.52853149 0.07745564 11974355
1.9360169 0.53027314 0.07750091 11711445
1.9379073 0.53254378 0.07743153 11054555
1.9144269 0.50760633 0.076622784 3551800
1.9167678 0.51029217 0.075178593 8025488
1.918626 0.5127458 0.076091349 10328755
1.9207845 0.5146144 0.076338857 10527174
1.9224216 0.51749456 0.076697826 11645394
1.9253227 0.52040255 0.076339036 10791128
1.9273076 0.5230577 0.076360703 10659544
1.9079959 0.50203866 0.074093401 6642765
1.9094392 0.50534433 0.0749304 5194805
1.9118139 0.50640982 0.075874358 4471606
1.9140835 0.50974047 0.074199617 5327442
1.9151285 0.51181817 0.074368864 6645376
1.9171166 0.51351833 0.074730128 6515080
1.9181169 0.51557636 0.075742751 11054295
1.8961159 0.49231049 0.073175281 7432276
1.9008818 0.49646455 0.07321021 7300950
1.9022279 0.49863443 0.073526084 7366995
1.9042525 0.50063634 0.073764354 7169108
1.9058205 0.50352836 0.074069619 6181957
1.9080595 0.50481617 0.074053705 5721147
1.9098557 0.50837106 0.072136432 5060627
1.9112825 0.51033759 0.072849929 4801862
1.9134154 0.51229608 0.073255002 4736079
1.8937087 0.49323428 0.072734118 7432280
1.8970129 0.49521053 0.072716236 7366486
1.89785 0.49782351 0.072742373 7301207
1.8998101 0.49978599 0.072110653 7760728
1.9020106 0.50151247 0.073518187 7103314
1.904034 0.50509477 0.071335405 7429681
1.9057788 0.50753891 0.071052909 5719076
1.9077263 0.50942695 0.071555376 4339495
1.9091653 0.51120633 0.072266221 2764866
1.890344 0.49180335 0.070747435 8811862
1.8916607 0.49437973 0.072248548 7432281
1.8948789 0.49668384 0.070051253 9206100
1.8968018 0.49957615 0.069569588 9468756
1.8986946 0.50189316 0.06943047 9533774
1.9003119 0.50422227 0.069714338 8481596
1.9022272 0.50599813 0.069892913 7363630
1.9039617 0.50803077 0.070034325 4471341
1.9059851 0.51083004 0.071307778 1716835
1.8887539 0.49337041 0.069294691 9666391
1.8907182 0.49576235 0.069174558 9666648
1.8926134 0.49791604 0.069232494 9666135
1.8945043 0.50031602 0.068883568 9665622
1.8965632 0.50316507 0.068867743 8876102
1.8981546 0.50534475 0.068076491 7890758
1.9001461 0.50746536 0.067935973 5588782
1.901817 0.51024979 0.067601562 4077620
1.8850367 0.49254549 0.067989796 9140833
1.8872015 0.49470875 0.067773759 9075298
1.8889167 0.49734145 0.067409039 9075300
1.8910787 0.49957424 0.066774368 8418150
1.8923388 0.50161493 0.06667456 7957860
1.8941562 0.50398093 0.066339523 7628892
1.8958393 0.50655913 0.066748768 6707786
1.8985255 0.50942844 0.067070574 5063465
1.8820503 0.4935275 0.065978408 7762540
1.8853226 0.49588749 0.066303879 7958891
1.8869371 0.49844131 0.066203982 7893097
1.8880434 0.50036466 0.066016793 7630952
1.8900213 0.50214422 0.066227555 7761508
1.8917087 0.50489813 0.066140652 7431771
2.0119417 0.5609175 0.10703 922672
2.0123143 0.5630759 0.10774454 922160
2.0114136 0.56492412 0.10578755 1054001
2.0119092 0.56821048 0.10207233 1251121
2.012274 0.5701859 0.10282546 1185332
2.0118151 0.57202935 0.10033026 1316665
2.0113971 0.57613373 0.099228144 1251127
2.0117824 0.57959354 0.096722305 1251125
2.0118651 0.58227289 0.09589842 1186100
2.0139158 0.59748405 0.087294728 857634
1.9633344 0.5379529 0.090626836 10992126
1.9654621 0.5397687 0.091104567 10860285
1.9672048 0.54223526 0.09115687 10860030
1.9689475 0.54482329 0.091136634 10728189
1.9703021 0.54693329 0.091558874 10465277
1.9713255 0.54989231 0.091404855 10399485
1.9734943 0.54990906 0.091008425 9478641
1.9751483 0.55341327 0.090453982 8755175
2.0135961 0.59964502 0.085812002 724774
1.955672 0.53253102 0.08945027 11386367
1.9572978 0.53508604 0.089443982 11386367
1.9593058 0.53593659 0.090029866 11189247
1.9612 0.53916466 0.0901151 11188991
1.962306 0.54104978 0.090782553 11189247
1.9646512 0.5429908 0.091055274 10991870
1.9661686 0.5452708 0.091278493 10991870
1.9763399 0.55772316 0.088217705 10661876
1.9777095 0.55980802 0.087196827 12633847
1.9792818 0.56238806 0.087427974 11516148
1.981185 0.56363666 0.086923808 9872601
1.9832695 0.56665725 0.086591691 10858473
1.9862458 0.57052362 0.086430013 11779311
1.987551 0.57416075 0.086306363 11055343
1.9899665 0.57443786 0.085379779 7834306
2.0120914 0.60212338 0.081972182 3819082
2.0137389 0.60324824 0.083225965 2632504
2.0143363 0.60577559 0.083660841 2105404
1.9422766 0.51889479 0.088754684 11386110
1.9461184 0.52412081 0.088244796 11583487
1.9479151 0.52678573 0.088146091 11386367
1.9500345 0.52860069 0.088553458 11452159
1.9518569 0.53102529 0.088810444 11517951
1.9537864 0.53396761 0.088693082 11386367
1.9549612 0.53602761 0.089101315 11386366
1.9569722 0.53768885 0.089665651 11386367
1.958443 0.54001403 0.089964896 11452159
1.9650779 0.54651213 0.086194396 12831998
1.9668125 0.54897797 0.086176485 12831998
1.9686719 0.5517205 0.086069584 12766205
1.9710878 0.55348486 0.086425006 12502515
1.9724468 0.55623823 0.086269736 12370923
1.9741595 0.55867851 0.086450487 12370666
1.9757013 0.56102157 0.08684811 12831218
1.9777858 0.56401163 0.086533904 13028341
1.9795835 0.56592286 0.086622059 13488111
1.9816847 0.56789333 0.086531341 12765176
1.9841114 0.57020336 0.086042672 10661623
1.9846519 0.57222152 0.085694939 8295111
1.9876651 0.57489371 0.084362268 7900885
1.990593 0.57893217 0.083937198 6716091
2.0100336 0.60369259 0.081162453 4543611
2.0112028 0.60541272 0.081966937 3490904
2.0126753 0.60776311 0.082514942 2766403
1.9405544 0.5203191 0.087907284 11517438
1.9433967 0.52277064 0.0876531 11386111
1.9450054 0.52544534 0.087433994 11517694
1.945967 0.52814472 0.087397099 11517951
1.9470651 0.52996826 0.088030696 11583487
1.9489789 0.53260553 0.087954193 11517694
1.9514505 0.53478777 0.088422984 11451647
1.9533089 0.53777313 0.088170856 11320319
1.9553697 0.53889346 0.085211337 12766201
1.9569954 0.541327 0.085277766 12765944
1.9593101 0.54304731 0.085663319 12765945
1.9613646 0.54607487 0.085067391 13094388
1.9630437 0.54839945 0.085318863 13094389
1.964864 0.55055475 0.085047573 13488366
1.9669387 0.55319905 0.085347474 13291506
1.9684225 0.55503821 0.085104197 12962023
1.9703612 0.55798876 0.084887922 12961508
1.9720826 0.56040567 0.084549457 13027043
1.9748293 0.5624485 0.085794479 13553900
1.977156 0.5655663 0.085486174 13553899
1.9790323 0.56818926 0.08559227 13487851
1.9909315 0.5807268 0.081562996 6191265
1.9910764 0.58306575 0.083476841 7111108
1.9918189 0.58507204 0.080696821 6126510
1.9940424 0.58735806 0.081478298 5336740
1.9961756 0.59026378 0.08012709 5335454
2.0048435 0.60044998 0.079208553 10332906
2.0075817 0.60376334 0.079822809 8095444
2.0098684 0.60800809 0.08052671 5333399
1.9371674 0.51890868 0.086551875 11649022
1.9382079 0.5218668 0.087131619 11649534
1.9410814 0.52441782 0.086837023 11386622
1.9428707 0.52683914 0.086813241 11583486
1.9433494 0.52942944 0.086940914 11517694
1.9509417 0.53551602 0.084130883 13029112
1.951733 0.53831267 0.084326327 12897272
1.9532043 0.54057705 0.08466202 12700152
1.9550244 0.54321915 0.084525287 12634615
1.957477 0.54475582 0.083615273 13224420
1.9588487 0.54769528 0.083794683 13158889
1.9608806 0.54934144 0.083947182 13487592
1.961926 0.55217731 0.083525062 13487073
1.9648285 0.55431038 0.083760083 12764392
1.9663444 0.55647361 0.082869291 12500701
1.9668485 0.55870235 0.083425373 13946326
1.9702594 0.56086779 0.082965642 11318249
1.9713619 0.56441677 0.082902312 11120613
1.9925659 0.58901775 0.079851836 5468321
1.9950041 0.5922786 0.079920381 6125737
1.9962889 0.59394622 0.080498248 5531814
1.9991142 0.59598553 0.078245521 8754359
1.9994185 0.59854662 0.078393817 7833776
2.0021467 0.6002928 0.078315556 10200789
2.0046744 0.60369694 0.079404324 10398442
2.0139022 0.61464643 0.075350046 11384044
2.0162287 0.61788547 0.074969172 10134242
1.9291288 0.51302564 0.084237963 11780350
1.9309256 0.51556921 0.084211797 11714814
1.932688 0.51706624 0.084985107 11649278
1.9340107 0.51925886 0.085338891 11583742
1.9360926 0.52201998 0.085882127 11649278
1.9393274 0.52598542 0.085885048 11583742
1.9406736 0.52815533 0.086200744 11583742
1.9437605 0.53144222 0.082312852 12766197
1.9451694 0.53356838 0.082692921 12437494
1.9480108 0.53597879 0.082955569 12305904
1.9492391 0.5393244 0.082838327 12108777
1.9511023 0.54215288 0.082967311 12370665
1.9537859 0.54363739 0.081900537 13157330
1.9551561 0.54611874 0.082746178 12829924
1.9569798 0.54823029 0.08194229 12368856
1.9585161 0.55098295 0.081807792 12302551
1.9607497 0.55227029 0.081745207 11908316
1.9625069 0.55491686 0.081983626 11974109
1.9642684 0.55754709 0.082103014 11908574
1.9663014 0.56014049 0.081906408 10857445
1.9687325 0.56219721 0.082096547 10792165
2.0012264 0.60469568 0.077232987 6188425
2.0040727 0.6058799 0.075984538 9806011
2.0053022 0.61022735 0.075303853 9869742
2.0073683 0.60973716 0.074818462 11316678
2.0090876 0.61313015 0.074720472 11514328
2.0111394 0.61622745 0.074563295 11514847
2.0139945 0.6188432 0.074744761 11515110
2.0137382 0.61973679 0.073530436 12170968
1.9257915 0.51332814 0.082417816 11977468
1.9274136 0.51481485 0.083243132 11648508
1.9286427 0.51689082 0.083609313 11583228
1.929818 0.51882946 0.084090143 11583485
1.9321799 0.52167225 0.084492773 11583741
1.9364251 0.52713895 0.080800086 12568561
1.9385992 0.52884865 0.081238031 12700146
1.9405059 0.53146732 0.08123374 13028075
1.942076 0.53360379 0.081416994 12304354
1.9438877 0.53600585 0.081378847 10265543
1.9461366 0.53823912 0.08168143 7635105
1.9483254 0.54028785 0.080940515 4410447
1.9497586 0.54341018 0.080860049 5000276
1.9515752 0.54529178 0.080727875 7564666
1.9535098 0.54768574 0.08084166 10195101
1.9548903 0.54977715 0.080371141 9932187
1.9562532 0.5521065 0.080740094 11051180
1.9583246 0.5546695 0.080304235 10197964
1.9612429 0.55742145 0.081034511 10856671
2.0079117 0.61491966 0.073769331 11183277
2.0097878 0.61754251 0.073875517 12039367
2.0120041 0.62111348 0.073361307 12301264
1.9210275 0.5118705 0.081105262 10727142
1.9233836 0.51362336 0.081912965 11780087
1.9245607 0.51633716 0.082633734 11451385
1.9262061 0.51774037 0.08345744 11582971
1.9298581 0.52075517 0.080076098 12304877
1.9317183 0.52313358 0.080186903 12436460
1.9333802 0.5257386 0.079713047 12764900
1.9347265 0.52784771 0.080065131 12764902
1.9365945 0.52955788 0.080206484 12962277
1.9381659 0.53193808 0.079999894 13224156
1.9398404 0.53487194 0.080056727 13026779
1.9421475 0.53712094 0.07941696 12039375
1.943965 0.53928757 0.080296069 9080238
1.9462043 0.54232824 0.079942882 2765676
1.9459027 0.54416955 0.078924507 3688597
1.9481546 0.54593337 0.079245776 530253
1.9504685 0.54777497 0.079558849 1712691
1.9525144 0.5511148 0.079209715 3883092
1.9545612 0.55409026 0.079078168 6381680
1.917609 0.51078284 0.080129504 8424893
1.9193647 0.51224375 0.081117541 11056106
1.921198 0.51516926 0.081937104 11451126
1.9234039 0.51769429 0.078754425 12435681
1.9258252 0.52017546 0.078988284 12369373
1.927629 0.52248478 0.078869134 12369114
1.9290855 0.52461648 0.078880817 12566232
1.9311326 0.52703297 0.078857571 12698071
1.9326507 0.52919573 0.078850567 12763607
1.9349121 0.53146124 0.07850641 12566487
1.9363075 0.5336743 0.07838878 12697298
1.938367 0.53568935 0.078281105 12040148
1.940256 0.53834903 0.077943832 11514072
1.9416499 0.5403285 0.078446031 11053271
1.9431677 0.5428679 0.078690052 9080786
1.9141117 0.50987446 0.078626961 4806272
1.915519 0.51057446 0.07930851 7109803
1.9181536 0.51424426 0.076821893 12630993
1.9197439 0.51645285 0.077838391 12500955
1.92146 0.51907539 0.078244388 12500436
1.9236026 0.52067661 0.07784912 12236752
1.9252138 0.52340674 0.07794258 12171473
1.9271445 0.52593273 0.077607751 12170959
1.9292617 0.52815509 0.077326208 12039631
1.9294206 0.53033555 0.077844888 12630728
1.9317588 0.5319041 0.077218443 11908306
1.9339963 0.53452444 0.077125728 11645652
1.9356643 0.53735983 0.07709229 11448535
1.9387864 0.54046631 0.077450544 10988763
1.9102936 0.50888479 0.077162772 3422543
1.9120384 0.50979817 0.078372002 3426413
1.9141011 0.51279843 0.076159328 12235457
1.9157138 0.51550007 0.076660484 11579600
1.9174917 0.51751667 0.076983511 12565711
1.9198296 0.51949459 0.076707333 11645393
1.9210284 0.52209955 0.077177733 11842251
1.9226867 0.52409613 0.076604545 11185107
1.9240993 0.5261476 0.076308876 10593751
1.9270234 0.52923942 0.076642722 10791385
1.9298117 0.53365654 0.076301098 10856921
1.9044528 0.5055415 0.074182481 5524026
1.9062517 0.50736004 0.075837791 3879990
1.9081764 0.51040924 0.074865282 6117996
1.9099857 0.51209813 0.074764639 9143703
1.9116271 0.51399171 0.074974358 9737911
1.9135852 0.51601124 0.075217873 11711442
1.9153543 0.5176788 0.075828075 10988246
1.9175726 0.52064288 0.07567659 10659796
1.9189965 0.52325618 0.075906962 10659542
1.8988438 0.50179142 0.073173553 7168596
1.9008952 0.50452924 0.073471338 6248006
1.9021922 0.50647515 0.074744731 4866099
1.9045943 0.51002312 0.072583318 3617079
1.906078 0.51102614 0.073314011 6117216
1.9080926 0.51317048 0.073637873 7830687
1.9100349 0.51549792 0.074410975 11644617
1.8896005 0.49451664 0.07248804 7498073
1.8915069 0.49697122 0.072450131 7432537
1.89303 0.49811956 0.072365493 7366745
1.8952255 0.50071347 0.072398901 7366488
1.8963474 0.50350368 0.07301861 6970962
1.8981242 0.50503814 0.073647231 6116162
1.9009556 0.50819361 0.071442574 4666126
1.9025286 0.50992757 0.071698874 4208687
1.9044739 0.51187396 0.072326839 4607073
1.8855165 0.49285895 0.072629184 7563865
1.8872813 0.49527788 0.072394639 7563608
1.8891475 0.49787474 0.072181821 7498329
1.8915528 0.50023258 0.071979851 7498585
1.893675 0.50209618 0.070125818 8943444
1.8952225 0.50460297 0.069378197 8481594
1.8970466 0.50679857 0.070068508 7298092
1.8989156 0.50866359 0.07081905 5259294
1.9007083 0.51143008 0.069967389 2043735
1.8838569 0.49395233 0.069126099 9797462
1.8852569 0.49609551 0.069293499 9797461
1.8876244 0.49781215 0.069135427 9600599
1.889384 0.50022566 0.06908527 9666391
1.8912261 0.50301707 0.069280356 9270856
1.8934025 0.50546575 0.069223911 8416065
1.8949934 0.50815785 0.068981767 5851691
1.8968239 0.50988686 0.068204135 3814442
1.8989959 0.51190001 0.068446517 2173241
1.8802252 0.4929387 0.068516552 9666137
1.8818095 0.4954651 0.068060607 9272414
1.8837512 0.49774832 0.067755669 8943968
1.8856839 0.50005114 0.067998141 9075037
1.8877103 0.50237024 0.067837924 8942682
1.8894441 0.50428772 0.067252725 7890512
1.891723 0.50671065 0.06682989 6773064
1.8931459 0.50893748 0.067171663 5327413
1.8774074 0.4943352 0.066915661 8747107
1.8795139 0.49624893 0.066029996 7893354
1.8815129 0.49912506 0.066421419 8024168
1.8831084 0.50162166 0.06593883 7630181
1.8856366 0.5033204 0.065920115 7630176
1.8874128 0.50447625 0.066007376 7695456
1.8895638 0.50780141 0.066322356 6576454
1.875677 0.49405542 0.065721124 7893357
1.8770679 0.49666539 0.06567058 7762283
2.0116289 0.56884491 0.10756803 922418
2.0107608 0.56915599 0.10593358 1119542
2.0117574 0.57341218 0.10505566 1054007
2.0114045 0.57250565 0.10354125 1185330
2.0117426 0.57577503 0.10232452 1185336
2.0129254 0.5777784 0.10408542 1054005
2.0106962 0.5774346 0.10214311 1185848
2.0114601 0.57966775 0.10167184 1119798
2.0126116 0.58243984 0.10072178 1119545
2.0107889 0.58190811 0.098876536 1185589
2.0109205 0.58432114 0.097124487 1185839
2.0119894 0.5863989 0.09811452 1250868
2.0119495 0.5888235 0.09638232 1316408
2.0125241 0.59746593 0.092370361 1251882
2.0125005 0.59796739 0.089626193 1119789
2.0138376 0.60335058 0.086773098 987452
2.0149789 0.60649276 0.088027239 1316663
1.9631665 0.54389966 0.090791315 11189247
1.9644046 0.54579449 0.091336459 11189247
1.9668119 0.54787385 0.091564745 11123198
1.9688032 0.55068672 0.091299176 11057150
1.9713789 0.55396867 0.090781868 10925310
1.9724181 0.55717218 0.09062314 10925311
1.9748374 0.56032056 0.090090066 10333436
1.9766666 0.56311005 0.090199649 8755689
2.014116 0.60620326 0.086031079 922163
2.0150669 0.61026216 0.085374504 1052729
1.9556428 0.53858465 0.089241236 11386367
1.9569428 0.54067844 0.089705586 11517695
1.9595528 0.5429675 0.089800924 11255039
1.9607923 0.5456171 0.090598285 11320574
1.963568 0.54784638 0.09098351 11255038
1.9660462 0.55153638 0.091149122 11057913
1.9684819 0.55468631 0.090756565 11189244
1.9804314 0.56806827 0.087174416 9676004
1.9806345 0.57081294 0.086976439 11384559
1.9844098 0.57394707 0.085964441 10727157
1.9848671 0.57532108 0.08660689 13159159
1.9870505 0.57828891 0.085818678 10726893
2.0144351 0.61056 0.082775086 2107193
2.0155389 0.6136235 0.083002001 1842487
1.949996 0.53552824 0.08801496 11451903
1.9519175 0.53846979 0.087827325 11320319
1.9533774 0.53954399 0.088996768 11320319
1.9552284 0.54222488 0.088855982 11386111
1.95656 0.54429686 0.089352518 11320575
1.9586016 0.54617923 0.089803904 11452158
1.96944 0.55919635 0.085893184 12042740
1.9718363 0.56118536 0.085993201 12699890
1.973392 0.56388819 0.08563745 12962029
1.974895 0.56555957 0.086083055 12831222
1.9758271 0.56736213 0.085051358 13685228
1.977541 0.56934249 0.085967034 12830965
1.9789966 0.5724923 0.085831434 12896498
1.9822121 0.57457519 0.085739642 13027827
1.9836391 0.57747686 0.086084813 12173555
1.9861368 0.57794076 0.084505707 5928631
1.988198 0.58266753 0.083996236 8624094
1.9883344 0.58406436 0.084035367 8491990
1.9912198 0.58676171 0.083595365 6979009
2.0102162 0.61055309 0.081061661 4741000
2.0123501 0.61360866 0.081132591 3622490
2.0131876 0.61635995 0.081251949 3293523
2.0150943 0.61575043 0.081463218 2633521
1.9449751 0.53186309 0.087007225 11451902
1.9461393 0.5346505 0.08690998 11320574
1.9479846 0.53711307 0.087092787 11517694
1.949743 0.53988469 0.087104142 11451902
1.9516071 0.54155993 0.08789888 11451903
1.961354 0.55420375 0.084333867 12766200
1.9633752 0.55558902 0.084389955 13028594
1.9648988 0.55788589 0.084825754 13028595
1.9669061 0.55964041 0.085187554 13291248
1.9690723 0.56227911 0.084850341 13553385
1.9699093 0.56437165 0.084212005 13815776
1.9723723 0.56675506 0.084170759 12304102
1.9736052 0.56897813 0.085055202 13290990
1.9758008 0.57154131 0.084187299 11186911
1.9777368 0.5738306 0.085251361 13356267
1.9866689 0.58493578 0.084077716 5797049
1.9915702 0.59097862 0.081689924 5599922
1.9945984 0.5953486 0.079683095 6914996
1.9961178 0.59728116 0.080289841 6584494
1.9986157 0.60127062 0.079785258 10003929
2.0006599 0.60088921 0.079550505 10267109
2.0016546 0.60416317 0.079716742 10201570
2.0054128 0.60656321 0.079854339 10003176
2.0072734 0.6092701 0.080032468 8687069
2.0078089 0.61198747 0.080579251 7634638
2.0102146 0.61530596 0.080330461 5398942
1.9359376 0.52395415 0.085949153 11649278
1.9379979 0.52688116 0.085460663 11452158
1.9396238 0.5293147 0.085526973 11452157
1.9406489 0.5310477 0.086170167 11254780
1.9424098 0.53362095 0.086147934 11255036
1.9439421 0.53596652 0.086297542 11254526
1.9459738 0.53857648 0.086243212 11451902
1.9476938 0.54112303 0.085051298 11517430
1.9496163 0.54336846 0.083767921 12108273
1.9551289 0.54828292 0.083279639 12305654
1.9568174 0.55079412 0.083337903 12305654
1.9593319 0.55351275 0.083118975 12895460
1.9612433 0.55697119 0.083175659 13027303
1.9629873 0.55955571 0.084045231 13093615
1.9646893 0.56036484 0.083943546 13552347
1.966426 0.5637908 0.082789361 13026008
1.9684229 0.56648713 0.082866222 12368859
1.9705671 0.56899393 0.082799941 11711710
1.9728508 0.57085407 0.083258718 11645655
1.9739456 0.57268798 0.083358616 9673954
1.9989218 0.60065877 0.078759819 6980261
1.9983639 0.60373092 0.079216778 6386851
2.0024226 0.60818255 0.078512371 9740490
2.0049593 0.61055326 0.079434007 10398183
2.0145919 0.62294281 0.075030804 11252455
2.0165923 0.62584245 0.075048029 10330856
2.0186307 0.62927067 0.076086968 7501756
1.932196 0.5238378 0.084394813 11649534
1.9340984 0.52540618 0.085079581 11714558
1.9358099 0.52795535 0.085063279 11386108
1.9372332 0.5301795 0.085262597 11057398
1.9378601 0.532781 0.085408449 9414114
1.9432182 0.53758711 0.085152984 11189497
1.9446204 0.53937483 0.083496988 9414363
1.9460812 0.54155505 0.082956642 5665946
1.9480946 0.54458785 0.082507938 7241358
1.9502435 0.54728818 0.081157207 3947849
1.9516089 0.54797781 0.082235485 11516650
1.953243 0.55041218 0.082372159 11647719
1.9556876 0.55334055 0.082182735 12041442
1.9568254 0.5553202 0.082116842 12237003
1.9586737 0.55746317 0.081861556 12236495
1.9612232 0.55975485 0.081033558 11578318
1.9629109 0.56176251 0.081501067 12170194
1.9646226 0.56487703 0.081454605 11710680
1.9654037 0.56697851 0.081291467 11054051
2.0019598 0.60971111 0.076662123 5858956
2.0038419 0.61357373 0.076361507 8292528
2.0060389 0.61615372 0.075659186 9870523
2.0081787 0.61907446 0.073690027 10526632
2.0094767 0.62113714 0.074653476 11316948
2.0124769 0.62267458 0.075281411 11711453
2.0131309 0.62562889 0.074707896 11711456
2.0139802 0.62746722 0.074195564 11908824
2.0160298 0.63049269 0.074561656 11974871
1.9253736 0.51908565 0.082542449 11451642
1.9279295 0.52159774 0.083424628 11386107
1.9298058 0.52464187 0.084166735 11649276
1.9319954 0.52671754 0.084527165 11780606
1.9335587 0.52907348 0.08460176 11451643
1.9365518 0.53383648 0.080565453 12634096
1.9384056 0.53668916 0.080849499 12830954
1.9404087 0.53846967 0.081626832 10858458
1.9425411 0.54073024 0.082122475 7045038
1.9442642 0.54294121 0.081942767 5137043
1.9458939 0.54556572 0.081306338 3688566
1.947799 0.54727554 0.080831051 791355
1.9496911 0.54942554 0.080729216 2171450
1.9515846 0.55211461 0.080374748 4209737
1.9534055 0.55453253 0.080409735 6181975
1.9551321 0.55716252 0.080328465 7562077
1.9574388 0.55941015 0.08024621 10061699
1.9591473 0.56223065 0.080132276 10589607
1.9611173 0.56375802 0.080335081 10657745
1.9630549 0.56670141 0.080287963 10527191
2.0057952 0.61916482 0.074679881 7501964
2.0082295 0.62280023 0.073997021 10000546
2.0100744 0.62583435 0.074101955 11644089
1.9183508 0.51390648 0.081216961 11516661
1.9194168 0.51593411 0.081709445 11254006
1.9216682 0.5178194 0.081958264 11254007
1.9236563 0.52097476 0.082472384 11320057
1.9259015 0.52423424 0.082883805 11451387
1.9317502 0.53026092 0.079637885 12567780
1.9334385 0.53271145 0.079732299 12699107
1.9349647 0.53527069 0.07961902 12895451
1.936676 0.53690922 0.080123782 12961244
1.9383897 0.53981125 0.080008268 12960729
1.9407203 0.54199827 0.079555988 12894161
1.9421339 0.54416442 0.079678744 11710928
1.9439118 0.54658449 0.079556674 9014978
1.9458821 0.54883116 0.079418808 4280212
1.9475632 0.55116838 0.079806149 727646
1.9499516 0.55435121 0.079365313 199222
1.9523928 0.55707693 0.07926169 460823
1.9553578 0.55881935 0.078716606 4474189
1.9542632 0.56055987 0.078326136 658714
1.956804 0.56222409 0.078685999 5065806
1.9144963 0.51236111 0.080511034 11384806
1.9158359 0.51449448 0.081041574 11450868
1.9171584 0.51680845 0.081322819 11056883
1.9196489 0.51982296 0.080978811 11253745
1.9224632 0.52300221 0.078565747 12238303
1.9236192 0.52499837 0.078431159 12369366
1.9263896 0.52693665 0.079271197 12041705
1.927544 0.5294404 0.078850687 12501215
1.9294919 0.53209597 0.07920447 12501474
1.9312012 0.53445947 0.078877479 12632797
1.9327285 0.53599453 0.078709394 12697556
1.9351271 0.53838557 0.078650236 12631765
1.9367604 0.5412395 0.078120023 12105425
1.9392399 0.54339707 0.078170449 11448024
1.9403964 0.54605138 0.078585833 11645142
1.94172 0.54755139 0.079089969 10198749
1.9086035 0.51051211 0.07848087 5663394
1.9103392 0.51245421 0.079608053 10398433
1.9126102 0.51453078 0.079579324 12107236
1.9141558 0.51744813 0.077928901 12632279
1.9166175 0.51912427 0.078101963 12500437
1.9183288 0.52162081 0.077739388 12237523
1.920323 0.52439547 0.077898204 12171475
1.9221424 0.52677274 0.077804923 12237263
1.9240094 0.52863348 0.077619612 12433865
1.9255764 0.53025526 0.077680141 12237008
1.9274981 0.53292251 0.077505827 12237267
1.9292921 0.53579861 0.077020556 12236491
1.9311159 0.53773284 0.076670915 11513811
1.9329703 0.53960705 0.077144176 11711185
1.9345051 0.54197443 0.077008337 11251413
1.9368781 0.54436815 0.07750994 11448279
1.904381 0.5099479 0.077557445 4215159
1.906764 0.51037151 0.077772111 5267338
1.9083569 0.51292306 0.077485055 12171992
1.91065 0.51611018 0.076764464 12829142
1.912401 0.51800591 0.076855123 12566227
1.9141912 0.52017242 0.077034891 12171731
1.9163723 0.52259409 0.076962024 12171211
1.9176996 0.52469784 0.076753914 11710926
1.9200957 0.52669775 0.076628357 11514065
1.9217796 0.5292691 0.076615214 11513808
1.9233679 0.53143108 0.076261997 10725335
1.9249504 0.53380901 0.076488376 11251155
1.9274076 0.53610182 0.076269239 10791128
1.9293905 0.53936386 0.075928301 10659545
1.9004507 0.50830066 0.075924188 3092277
1.9028717 0.50936151 0.076767772 3620443
1.9052591 0.51332349 0.07516098 12828364
1.9069474 0.51462615 0.075019598 10395586
1.9085273 0.51681685 0.075553089 12106197
1.9103165 0.51908767 0.075709403 12434644
1.9120893 0.52205223 0.075305045 10856914
1.9143794 0.52377009 0.075480044 10725587
1.9180931 0.52810109 0.075885355 10725334
1.9201401 0.53095526 0.075826436 10462164
1.8964071 0.5052737 0.073774248 5984827
1.8971993 0.50683588 0.074683964 4537642
1.8980434 0.50839376 0.075540304 2696491
1.9013555 0.51185238 0.07321617 6052200
1.903144 0.51357555 0.07395795 9737649
1.9049325 0.51593947 0.074278951 11645648
1.9063393 0.51714271 0.07525146 13487326
1.8897424 0.50080156 0.072113901 7564122
1.8911856 0.50340605 0.073018461 7168850
1.8938026 0.50548983 0.073459446 6050621
1.8951774 0.50878644 0.07145676 3945272
1.8970635 0.51049173 0.071649969 4800830
1.8991084 0.51254272 0.072704792 7039871
1.901651 0.51442158 0.072307199 9936331
1.88 0.49336508 0.071987033 7695449
1.8822378 0.49503833 0.072156757 7695450
1.8842968 0.49660811 0.072016418 7629657
