# .PCD v0.7 - Point Cloud Data file format
VERSION 0.7
FIELDS x y z rgba
SIZE 4 4 4 4
TYPE F F F U
COUNT 1 1 1 1
WIDTH 1085
HEIGHT 1
VIEWPOINT 0 0 0 1 0 0 0
POINTS 1085
DATA ascii
0.36110181 0.22340508 0.0016644001 5986099
0.36401021 0.22710761 0.001619637 10526878
0.36768961 0.2304047 0.0022612214 11119281
0.36913437 0.23315346 0.0015778542 11117731
0.37034991 0.23503444 0.0012437105 11119020
0.37418616 0.23969537 0.00078862906 10724526
0.37678644 0.24374877 0.00097316504 9934231
0.37892085 0.2470815 0.001473546 9341579
0.38228041 0.24788311 0.00073057413 7629402
0.38203686 0.2518267 0.00035476685 8022344
0.35946882 0.22378257 0.0017741919 7037752
0.36154342 0.22566772 0.0015580654 8681814
0.36285239 0.22909495 0.0011876822 10919574
0.36476323 0.2305336 0.00068563223 11052448
0.36621636 0.23285714 0.0014894605 11053226
0.36791933 0.23623197 0.0010854006 11053485
0.36984247 0.23798525 0.0012880564 11184813
0.37197214 0.24068311 0.001160264 11053227
0.37417579 0.24299246 0.0011398792 10986919
0.37590688 0.24550688 0.00072342157 9933979
0.37695566 0.24759233 0.00054454803 9669008
0.37915951 0.25033075 0.00063031912 8946050
0.38109708 0.25221801 -4.607439e-05 8351832
0.3820278 0.25502789 4.5418739e-05 7628364
0.35690796 0.22579363 0.00013029575 7365441
0.3588202 0.22733542 -0.00087094307 7034393
0.36032027 0.23033473 -0.0003567338 10523514
0.36180443 0.23335597 -0.00070458651 11052707
0.36493653 0.23459953 -0.00090920925 11052967
0.36595535 0.23736563 -0.00054323673 11052711
0.36696702 0.24020879 -0.001784265 11118761
0.3695724 0.24189243 -0.0010839105 10986918
0.37218225 0.24386461 -0.0023642182 10131099
0.37243959 0.24725655 -0.0017566681 10460062
0.37440771 0.24970707 -0.0027087331 8878724
0.37692952 0.25165042 -0.0031546354 8153429
0.37879175 0.25262082 -0.003172338 8546616
0.37986943 0.25735456 -0.0031449795 8808759
0.38220772 0.25930929 -0.0036257505 9269053
0.35269588 0.22458661 -0.0017595291 7494183
0.35505292 0.22587684 -0.0014814138 6639629
0.35638016 0.22992712 -0.00081443787 9798248
0.35890573 0.23156297 -0.0016187429 10523532
0.36165589 0.23660979 -0.0013980865 11052711
0.36330789 0.23762524 -0.001298666 10987175
0.36865705 0.24473885 -0.0016033649 11118760
0.37045592 0.24612775 -0.0017252564 10987175
0.37493977 0.25375277 -0.0023292303 9076869
0.37729841 0.25568831 -0.0028514862 8088146
0.38216543 0.26278841 -0.0032055378 9072186
0.38450986 0.26500192 -0.0035618544 9334845
0.35265008 0.22912273 -0.002051115 7165729
0.35789341 0.22524188 0.0032208562 9338976
0.3592979 0.22794177 0.0038067102 11511704
0.36147514 0.22991291 0.0028171539 11643549
0.36299843 0.23198968 0.0023625493 11052967
0.36486456 0.23497081 0.0022608042 11118760
0.36687809 0.23695901 0.0022082329 11184037
0.36916995 0.24022081 0.0018236041 10856366
0.37204915 0.24431819 0.0017025471 10593453
0.37320834 0.24722378 0.0027362704 10329245
0.37521589 0.24906504 0.001904428 10724008
0.37704295 0.25184384 0.0020379424 10986405
0.37932366 0.25360081 0.0011942387 9078149
0.38097817 0.25641379 0.0016533732 9735035
0.38227347 0.25886434 0.0020396709 9013370
0.38438666 0.26175517 0.0011360645 8020788
0.35369653 0.22455132 0.0023258328 7958354
0.35482985 0.22708049 0.0031590462 11115394
0.35792851 0.22911365 0.0020501614 10987688
0.35914236 0.23204252 0.0023761392 10987432
0.36049309 0.23380411 0.0022239089 10921898
0.36252052 0.23606084 0.0021142364 11053225
0.36400795 0.23882025 0.0015674829 10921641
0.36631587 0.24066091 0.0015667677 10592676
0.36794817 0.24339056 0.0017179251 10263968
0.36987656 0.24621069 0.0014015436 10395038
0.37263647 0.24761283 0.0011902452 10328475
0.37436673 0.25044042 0.0013944507 10855079
0.37520501 0.25298509 0.0013722181 10987177
0.37729931 0.25562525 0.0012989044 10328993
0.37961188 0.25771296 0.00054293871 8353653
0.38162753 0.25991571 0.0001912117 7628628
0.38309973 0.26229095 -0.00018537045 7957574
0.38377571 0.26517105 -8.0525875e-05 7891521
0.35162789 0.22654359 0.00069081783 7695174
0.35396641 0.22731815 0.0019019246 10197656
0.35504228 0.23036334 0.0021064878 11185070
0.35678303 0.23413169 -0.00023001432 11184293
0.35873404 0.2351554 -0.0007917881 11052710
0.36112961 0.23729388 -0.00034451485 10855332
0.3616654 0.24127623 6.6161156e-05 10986918
0.36483687 0.24246532 6.6816807e-05 10789796
0.36655682 0.24382277 -0.001606822 11053224
0.3686083 0.24823248 -0.001072526 10789540
0.37043542 0.24933884 -0.0012909174 10592161
0.37257382 0.25180721 -0.0019868016 10130585
0.37718165 0.25909293 -0.0024936199 8154457
0.37925142 0.26070198 -0.0013180971 8220509
0.3845349 0.2685456 -0.0032591224 9335100
0.3480899 0.22475204 -0.00027626753 6180111
0.34999442 0.22677666 -0.0016052127 6442506
0.35231346 0.22991757 -0.00095570087 9074776
0.35323635 0.23194972 -0.00092035532 10919316
0.35532191 0.23336327 -0.00089293718 11118500
0.35572928 0.23704071 -0.00076603889 11052967
0.35793993 0.23926973 -0.00115484 10921381
0.36113697 0.24087253 -0.0010113716 10987175
0.36165175 0.24483305 -0.0012843013 10724002
0.36473474 0.24614261 -0.0011616945 10657953
0.3664605 0.24720807 -0.0012904406 10723747
0.36775345 0.2522676 -0.0014286637 10526109
0.36951724 0.25379246 -0.0017513037 10723490
0.37215993 0.25548452 -0.0018405914 10657699
0.37436545 0.25747102 -0.0024012327 9472397
0.37666646 0.26272935 -0.0022575855 8154986
0.37926653 0.2646839 -0.0026099086 8217658
0.38154894 0.26693049 -0.0031324625 8940596
0.38172391 0.27144283 -0.0034454465 9268790
0.38533539 0.27514774 -0.0045334101 9466430
0.34561759 0.22687864 -0.0019903779 6903062
0.34740362 0.22871478 -0.0019233823 7429418
0.34951711 0.230326 -0.0013103485 9337433
0.35340428 0.23614968 -0.0010119081 11118761
0.3826836 0.27328491 -0.0043092966 9400637
0.34190303 0.22524521 -0.0026952028 8152374
0.34361666 0.22666223 -0.0017864704 6771724
0.34549856 0.2291165 -0.0019986033 7363868
0.35583764 0.23022264 0.0046120286 11249060
0.35705176 0.23180602 0.0044752359 11052449
0.3612406 0.23726872 0.0040031075 11052707
0.36306185 0.23964381 0.0037978292 10592158
0.36488301 0.24201888 0.0035926104 10328981
0.36664355 0.2443148 0.0033941865 10263446
0.36883324 0.24702075 0.0026135445 10526624
0.37052086 0.24934709 0.0024859309 10592676
0.37217382 0.25143456 0.0023311973 11052452
0.37443316 0.25453326 0.00220716 11250347
0.37629604 0.25690272 0.0023062825 11249835
0.37805653 0.25919864 0.0021078587 11315367
0.37938309 0.2612167 0.0016643405 9735821
0.38162005 0.26378471 0.0015335679 7626865
0.38340139 0.26583362 0.001097858 7757606
0.35286361 0.2301192 0.0018743277 11119533
0.35356709 0.23254296 0.002545476 10988208
0.3563624 0.23347634 0.0023392439 10987952
0.35728037 0.23674792 0.0023012757 10922416
0.36015406 0.23769245 0.0021886826 10922416
0.36198938 0.24145383 0.0020726919 10330281
0.36267197 0.24496523 0.001989305 10330022
0.36542496 0.24555862 0.0018592477 10395041
0.36672682 0.24802151 0.0022028685 10526885
0.36838156 0.25176021 0.0021696091 10855590
0.37049907 0.25360203 0.0018337369 10987434
0.37221202 0.25547904 0.0017252564 11053486
0.37407914 0.25764024 0.0014002919 11184557
0.37630379 0.25991839 0.0010961294 10724008
0.37803286 0.26324317 0.00046652555 8816267
0.37982553 0.26573956 -5.0067902e-05 7235945
0.38169137 0.26784515 0.00067526102 7759962
0.38339621 0.27051347 0.0006390214 7957319
0.34759465 0.22567821 0.002147913 7827810
0.34867823 0.22797769 0.0024399757 10657167
0.35045236 0.23024207 0.0023632646 11316134
0.35181892 0.23172098 0.0023697019 11250090
0.35418135 0.23610193 0.0024065971 10922417
0.35637435 0.23717366 0.0011372566 10986914
0.35797295 0.24031806 0.0022559762 10527659
0.3594538 0.24399889 0.00025451183 10526111
0.36140862 0.24420553 0.0017210245 10329250
0.3641454 0.24966674 0.0015021563 10657439
0.36602762 0.25120223 -0.0013000369 10526110
0.37240693 0.25988588 -0.0020669699 10921381
0.37401605 0.2611641 -0.0022305846 9999510
0.37576133 0.26567566 -0.0017729998 9077382
0.37737063 0.26695377 -0.0019365549 7759719
0.38023061 0.27022552 -0.0030119419 8611626
0.34493226 0.22788844 0.0021512508 10461084
0.35000741 0.23452222 -0.0010209084 11118757
0.35178715 0.23636463 -0.0011810064 11118503
0.35338986 0.23938364 -0.00074601173 10987174
0.35565889 0.24184164 -0.00089049339 10987174
0.35817999 0.24301922 -0.00045990944 10855332
0.35853505 0.24676374 -0.00075143576 10460318
0.36096859 0.24863714 -0.0013288856 10460574
0.36346471 0.25036556 -0.0015671849 10591904
0.36387941 0.2535063 -0.0010075569 10723746
0.36660832 0.25549257 -0.0013113022 10921381
0.36903122 0.25758067 -0.001691699 11053224
0.3706204 0.25874129 -0.0019314289 11053224
0.37116396 0.26314336 -0.0017110705 10987175
0.37404323 0.26448345 -0.0015818477 10394525
0.37731928 0.27021253 -0.0026852489 7758678
0.37894005 0.27337465 -0.0028705001 8218434
0.38110143 0.27532616 -0.0034968853 9072185
0.38247073 0.27688286 -0.0040277243 9400638
0.38501632 0.27888042 -0.0043662786 9466430
0.38555005 0.28308713 -0.0043016076 9597502
0.34064907 0.22677985 -0.001909554 6771990
0.34270713 0.22929133 -0.001358211 7758637
0.34439471 0.23178118 -0.0014207959 10128252
0.34674266 0.23297511 -0.0013641119 10985109
0.34750894 0.23798625 -0.0013764501 10986918
0.34992582 0.23864791 -0.0010195374 10987175
0.35129568 0.24005526 -0.00083774328 10987174
0.35525239 0.24528457 -0.00095397234 10657953
0.36147857 0.25278962 -0.0013713837 10723489
0.38286662 0.28143343 -0.0041294098 9334587
0.33706272 0.22558802 -0.0022130609 7823408
0.33855796 0.2275622 -0.0019103289 6573832
0.3400754 0.2294296 -0.0011855364 7560755
0.3426322 0.23093918 -0.0019562244 9008452
0.34628087 0.23709054 -0.0014439225 11052967
0.33529878 0.22652248 -0.0026663542 7756836
0.370877 0.25253195 0.0052277446 10921120
0.37305427 0.25450304 0.0042382479 10986918
0.37724301 0.25996578 0.0037661195 11118246
0.37906429 0.26234084 0.0035609007 11249830
0.36765492 0.25133103 0.002936244 10856365
0.37056154 0.25635082 0.0020400286 10790574
0.3717061 0.25852862 0.0023178458 10921125
0.37482816 0.26141497 0.0020316839 11118248
0.37690037 0.26370662 0.0016263723 10723233
0.3788836 0.26620176 0.0013244748 9273737
0.38012713 0.26891792 0.0014016032 8618125
0.38181275 0.26974839 0.0011207461 7630967
0.38328269 0.2735815 0.0015159845 8153167
0.34863096 0.2280241 0.0043852925 11314842
0.35045221 0.23039919 0.0041800737 11118497
0.35204345 0.23434123 0.0032577515 10921641
0.35403395 0.23507023 0.0037763715 11118244
0.3556495 0.23811817 0.0031992197 10790309
0.35828343 0.24061209 0.0032974482 9868946
0.35878944 0.24336866 0.0031449199 10198175
0.36026427 0.24609372 0.002746582 10460832
0.36250475 0.247455 0.0030068755 10526364
0.36465216 0.25076833 0.0029813051 10658207
0.36575377 0.25314569 0.0029733777 10855589
0.36785889 0.25529969 0.0024367571 10855592
0.36945918 0.25816643 0.002548933 10789798
0.37168857 0.26018631 0.0021605492 10789541
0.3724992 0.26294464 0.0019907951 10921384
0.37478793 0.26505491 0.0019925833 11118762
0.37675875 0.26713198 0.001419723 10789798
0.37890553 0.26955777 0.0011818409 10328730
0.38078815 0.27186513 0.0011767149 9143682
0.38262635 0.27428186 0.00058060884 7564894
0.38446188 0.27639371 0.00067293644 7232805
0.34395257 0.22592884 0.0029388666 10061914
0.34403467 0.22781418 0.0030719638 10657172
0.34622589 0.23073062 0.0034008622 11184296
0.34683436 0.23354836 0.0031597614 10921899
0.34972429 0.23481451 0.0031374097 10986917
0.35079938 0.23779371 0.0031810999 10921900
0.35325879 0.24030221 0.0029960275 10461347
0.35555303 0.24286151 0.0029075146 9935002
0.35713646 0.24608587 0.0016499758 10329506
0.35759515 0.24896377 0.0017498136 10657696
0.36001205 0.24982414 0.0024570823 10526885
0.36153895 0.2507818 0.0022404194 10591902
0.36647239 0.2583566 0.0021214485 10724780
0.37026644 0.26275826 0.0019465685 10658732
0.37382063 0.26743841 0.0014045238 11184818
0.37579963 0.26928911 0.00091612339 11447210
0.3770138 0.27087247 0.00077933073 11513003
0.37883502 0.2732476 0.00057405233 10723222
0.38065621 0.27562264 0.00036877394 8944782
0.38247746 0.2779977 0.00016355515 7036227
0.38429865 0.2803728 -4.1723251e-05 7167767
0.33991894 0.2269662 0.0018069744 9143150
0.34154084 0.22978634 0.0023031235 11052700
0.3432399 0.23302159 0.0026853085 10856622
0.3504276 0.24257119 -0.00037711859 10855589
0.35262781 0.24423234 -0.00060898066 10657952
0.35441723 0.24631968 0.00069028139 10262681
0.35561502 0.24895185 0.0001206398 10460318
0.35778159 0.25083968 -0.0011974573 10526111
0.35971218 0.25176245 -0.0011597276 10657697
0.36084089 0.25692639 -0.0015473962 10921125
0.36414775 0.25832292 -0.0013551712 10986918
0.36683476 0.26004988 -0.001378715 10987174
0.36829227 0.26167658 -0.0017779469 11052968
0.36829102 0.26621026 -0.0019460917 10921383
0.37138116 0.26752982 -0.0016435981 11052968
0.37288782 0.26993495 -0.0018562675 10262940
0.37337387 0.27311432 -0.001922667 10394527
0.37582985 0.27529073 -0.0024482608 9142411
0.37803692 0.27757484 -0.0032061338 8219734
0.38003424 0.27963066 -0.0040819049 8743225
0.38055715 0.28295901 -0.0033146739 8545582
0.38280067 0.28485838 -0.0038163662 9400121
0.38533729 0.28668502 -0.0040200353 9597754
0.33566353 0.22695971 -0.00021719933 6640404
0.33744425 0.22864048 -0.0015082359 7034654
0.33986443 0.23280337 -0.00055807829 10985624
0.3412019 0.23408923 -0.0015822649 11051416
0.34372261 0.23553193 -0.0012543201 11118500
0.34475842 0.23848693 -0.00098747015 10987175
0.34688818 0.24055234 -0.00057643652 10986918
0.34863958 0.24183288 -0.00091272593 11052968
0.34915441 0.24580979 -0.00075101852 10328988
0.3525528 0.24828137 -0.0011920929 10328732
0.3546569 0.25396541 -0.0015228391 10657954
0.35766411 0.25544927 -0.0015179515 10658209
0.36323029 0.26280114 -0.0015249252 10789796
0.36543304 0.26473886 -0.0019438267 10789796
0.37755471 0.28129971 -0.0031154156 7825238
0.38493201 0.29066986 -0.0038912296 9597753
0.33187249 0.22547591 -0.0013302565 7823156
0.33344635 0.2275731 -0.0018298626 6902804
0.33564878 0.23023114 -0.0012252331 8613698
0.33812502 0.23199093 -0.0012767911 10128509
0.33767286 0.23614058 -0.0018502474 11183775
0.34098601 0.23754737 -0.00099629164 10986918
0.34265274 0.23885599 -0.00078397989 11052967
0.3303121 0.22731158 -0.0027036667 7625758
0.33583125 0.2350143 -0.0019913912 11051672
0.3781186 0.27341112 0.0019561052 10920355
0.38067997 0.27517983 0.0020326972 9537163
0.38324142 0.27694854 0.0021092296 7627613
0.38388911 0.28016108 0.0011820197 6445887
0.38556373 0.28385168 0.0017436147 7690773
0.35081753 0.24135639 0.0026677251 9935780
0.35313079 0.24478492 0.0029401779 10330024
0.35579148 0.2460237 0.0036119819 10526881
0.35749716 0.2484993 0.0035448074 10527138
0.35987002 0.25034302 0.0042780638 10921375
0.36070222 0.25273252 0.0032594204 10921897
0.36314154 0.25638413 0.0028471947 10921638
0.36487272 0.25738156 0.0029536486 10855845
0.36639598 0.25992697 0.0026601553 10790054
0.36778522 0.26298726 0.002311945 10724006
0.36916241 0.26536092 0.0022915602 10724264
0.37144178 0.26741964 0.002296567 10855590
0.37353987 0.26996183 0.0022905469 11052970
0.37550914 0.27214277 0.002127111 11118506
0.37737402 0.27447349 0.0020884275 11052713
0.37906682 0.27683663 0.0020669699 10657954
0.3808279 0.27930617 0.0018366575 9078924
0.38239467 0.28156462 0.0019706488 7498347
0.38474712 0.28387985 0.0015470982 6839872
0.3387756 0.22933973 0.0023190975 10724513
0.34143764 0.23240383 0.0029312968 10856621
0.34397414 0.23644125 0.0027300715 10856622
0.34680367 0.23735078 0.0025515556 10856624
0.34807575 0.24029963 0.0030176044 10066589
0.34943536 0.24313253 0.0029168129 9935259
0.35095987 0.24534136 0.0027836561 10263968
0.35287037 0.24729338 0.0026168823 10526881
0.35490799 0.25030443 0.0025553107 10592677
0.3571853 0.25219241 0.0025879145 10724262
0.35908353 0.25482753 0.002420783 10921641
0.36056972 0.2569477 0.0021389723 10987174
0.36192808 0.25978509 0.0026888251 10921900
0.36435997 0.26232553 0.0022644997 10855332
0.36590829 0.26405859 0.0017096996 10724262
0.36804673 0.26637802 0.00075107813 10789537
0.36890984 0.26805317 0.0014851093 10790055
0.37613207 0.27720159 0.0018815398 11250866
0.38079527 0.28300363 -0.00068575144 8751223
0.38261652 0.28537872 -0.00089102983 7234622
0.33446804 0.22746035 0.0027638674 9933701
0.33644313 0.23003598 0.0025413632 10723480
0.33873314 0.23197439 0.0024664998 10986915
0.34018487 0.23474556 0.0024695992 10855846
0.34208003 0.23661181 0.0017822385 10987169
0.34387657 0.23921853 0.0022115111 10724519
0.34590828 0.24301431 0.00021618605 10658210
0.34731507 0.24357705 0.0016710758 10066591
0.34968805 0.24615368 0.0008995533 10196888
0.3503105 0.24937454 0.0010617375 10657439
0.35311595 0.25263974 -0.0013036728 10723490
0.35776469 0.25895533 -0.00097984076 10855589
0.360542 0.26132303 -0.0015569329 10855845
0.36295769 0.26620784 -0.0010636449 10724259
0.36564499 0.26779807 -0.0012046695 10724003
0.36836243 0.26942796 -0.0013491511 10921125
0.36845875 0.27406579 -0.0016381741 10987175
0.36982805 0.27562249 -0.0021689534 11053224
0.3724153 0.27746964 -0.0024175048 10789540
0.37537706 0.27916726 -0.0025339127 9406604
0.37810758 0.28573599 -0.0031476021 7429449
0.3794286 0.28745776 -0.0036578178 8018987
0.38211209 0.28911135 -0.0038299561 9136942
0.38287199 0.29304403 -0.0034672618 9203501
0.3845219 0.29428381 -0.0037138462 9466169
0.33097357 0.22693363 0.0017154217 8154944
0.33265147 0.22889271 0.0012704134 9272415
0.33415982 0.23211682 0.0022677183 10985369
0.33578572 0.23423414 0.001000464 11183521
0.33805585 0.23638541 0.00072699785 11052707
0.33919105 0.23946065 0.00034373999 10986917
0.34169769 0.24148846 0.00044846535 10789795
0.34326506 0.24352077 0.00016260147 10460575
0.34540156 0.24569154 0.00068289042 10131349
0.3473767 0.24900907 3.272295e-05 10328730
0.34921843 0.25068182 -7.8678131e-05 10591902
0.35048613 0.25288087 -0.00065505505 10723487
0.35165676 0.25578284 -0.00077992678 10789537
0.3542392 0.25770611 -0.0014078021 10855588
0.35732156 0.26302731 -0.00090998411 10921638
0.36047527 0.2644749 -0.00075608492 10855845
0.36481002 0.27195072 -0.0014848709 10789795
0.36680883 0.27282602 -0.0013915896 10855589
0.37210152 0.28143653 -0.0024164915 10986919
0.37447393 0.28336746 -0.0028694868 9802388
0.37605554 0.2846548 -0.0031716228 8287344
0.37844074 0.28895357 -0.0024221539 7428949
0.37972879 0.29058689 -0.0027870536 7560001
0.3812345 0.29204854 -0.0032069683 8414759
0.38635856 0.30055356 -0.0040246248 9531707
0.32717079 0.22604585 -0.00064396858 7099937
0.32995334 0.23076747 -0.0014631152 8679233
0.33258915 0.23267281 -0.00085043907 10458248
0.33377212 0.23538442 -0.0013636351 10985368
0.33564582 0.23780808 -0.00054055452 11052454
0.33793989 0.2391814 -0.00083434582 10986917
0.34184009 0.24595709 -0.00036686659 10394781
0.34358385 0.24736439 -0.00076544285 10262940
0.34540343 0.24859738 -0.0010462999 10197147
0.34901646 0.25417697 -0.00089007616 10657953
0.32517594 0.22822481 -0.0026305318 7493652
0.32709914 0.22987032 -0.0016040206 7823406
0.32925439 0.23475492 -0.0019620061 10787214
0.32273039 0.22799504 -0.0036033392 7888425
0.32651109 0.23329514 -0.0022706985 9732974
0.31725425 0.22663707 -0.005058527 8546888
0.32007718 0.22731268 -0.0043480396 8546100
0.37161344 0.27140144 0.0028303862 10921125
0.38250482 0.28496826 0.0021386743 7566200
0.3843945 0.28838873 0.0014833808 7298878
0.38575071 0.2899746 0.0011739135 7888672
0.3529875 0.2508437 0.003082335 10527658
0.35512909 0.25450322 0.0030431151 10988207
0.35687035 0.255725 0.002668798 10987691
0.3588478 0.25825927 0.0027680993 10987691
0.36275786 0.26326817 0.0026103854 10922158
0.36456043 0.26680446 0.0025221705 10855848
0.36673364 0.26749757 0.0027852058 10790055
0.36862323 0.26997405 0.0028982162 10855592
0.36947271 0.27256045 0.0030934811 10921383
0.37196845 0.2747196 0.0022335052 10921383
0.3740499 0.27680108 0.0025228262 11052969
0.37582874 0.27941382 0.0019878745 11184555
0.3778255 0.28163612 0.0021564364 11052969
0.37987888 0.28389427 0.0017815828 10131356
0.38181698 0.28658813 0.0016248226 8484478
0.38289183 0.28934628 0.0015266538 8156273
0.38492376 0.2913239 0.0014104247 7498573
0.3337186 0.2299037 0.0034369826 10593190
0.34085166 0.23865961 0.0028857589 10725038
0.34311166 0.24188226 0.0032273531 9804196
0.34479743 0.24271263 0.002946496 9804194
0.34596816 0.24581322 0.00317204 10527658
0.34880936 0.24694246 0.0027167201 10658987
0.34990126 0.25057024 0.0027402043 10527141
0.35105699 0.25322461 0.0025415421 10790055
0.35370758 0.25504559 0.002553165 10921896
0.3554107 0.2570799 0.002471745 11119274
0.35720479 0.25940809 0.002214551 11053481
0.35862187 0.26219085 0.0020446181 10987431
0.36092055 0.264088 0.001932919 10987432
0.36284426 0.2661292 0.0018921494 10921382
0.3648493 0.26924211 0.0018678904 10855588
0.36651418 0.27106062 0.0018734932 10855330
0.36851501 0.2739535 0.0012153387 10921122
0.36971396 0.27630568 0.0018008947 10921121
0.37166557 0.27892718 0.001706481 10987174
0.3733564 0.28105587 0.0013903975 11052707
0.37517765 0.28343093 0.0011851192 11052451
0.3769989 0.28580603 0.00097990036 11315624
0.37897974 0.28817761 0.0011761785 11184039
0.38064128 0.29055616 0.00056934357 10789279
0.38323087 0.29302341 0.00093966722 7561817
0.38474914 0.29472923 0.00053352118 7626033
0.38671201 0.29847312 -0.00011485815 7558663
0.32929987 0.2274982 0.0036282539 9672082
0.33196473 0.22912076 0.0036623478 10527396
0.33219981 0.23300454 0.0031871796 10725035
0.33599102 0.23430218 0.0028788447 10790829
0.33661285 0.23773441 0.0028023124 10791087
0.33806488 0.23991761 0.0029469132 10330537
0.34114546 0.24136868 0.0032240152 9869988
0.34166116 0.24493556 0.003033042 10198695
0.3438423 0.24861941 0.0014340878 10591389
0.34559807 0.24930216 0.0025022626 10592678
0.34803647 0.25062746 0.0019597411 10657696
0.34899864 0.25458813 0.00224787 10855589
0.35129496 0.25692943 0.0019696355 10986657
0.35326099 0.2590079 0.0020530224 11052965
0.35541472 0.26133043 0.0017538071 11052964
0.35710293 0.26395673 0.001326859 11052962
0.35831708 0.26554012 0.0011900067 10987169
0.36006078 0.26813149 0.00036424398 10921635
0.36229849 0.27013636 -0.00043034554 10855587
0.36384141 0.27274457 0.00056737661 10921121
0.36564636 0.27559716 -0.00059038401 10855587
0.36804104 0.27780643 -0.0015231371 10987174
0.36955446 0.27914131 -0.0018806458 11053224
0.37162387 0.2838929 -0.0016161203 11053225
0.37288424 0.28553548 -0.0021195412 10921383
0.37581289 0.28714484 -0.0020906925 9077641
0.38267156 0.2968863 -0.00317204 8742952
0.38398769 0.29823709 -0.003633678 9334837
0.32532421 0.22744611 0.0028277636 9537643
0.32679114 0.22979832 0.002137661 10720645
0.32901976 0.23203783 0.0025165677 10920091
0.33088022 0.23508313 0.0009149909 11051937
0.33290139 0.23694699 0.0016835928 10921383
0.33413672 0.23937783 0.0013097525 10921125
0.33617869 0.24217635 0.00065511465 10658208
0.33823586 0.24411035 7.0154667e-05 10394780
0.33977568 0.24625233 0.00044369698 10065815
0.34159356 0.24851045 0.00068283081 10394265
0.34336427 0.25141156 0.00026977062 10657435
0.34635445 0.2539196 -0.00044870377 10723487
0.34847468 0.25825694 -0.00087225437 10921381
0.35124427 0.25965834 -0.0010061264 10987175
0.35266608 0.26267546 -0.00098061562 10987431
0.35364115 0.26540649 -0.0009213686 10987431
0.3567977 0.26690271 -0.00090926886 10921638
0.36038762 0.27245265 -0.00056970119 10855845
0.36275011 0.27432483 -0.0010608435 10855588
0.36604172 0.28025973 -0.0011059642 10855845
0.36776757 0.28132522 -0.0012346506 10921638
0.36959952 0.28280249 -0.0015017986 11052968
0.37265822 0.28916264 -0.0016166568 11053224
0.37523043 0.29126313 -0.0019899011 10065306
0.37723649 0.29362655 -0.0028830767 8023675
0.37854496 0.29510409 -0.0034070015 7430223
0.38020343 0.2983157 -0.003415823 7757874
0.38152802 0.30163842 -0.0036398172 8480305
0.38346422 0.3037518 -0.0043911934 9334582
0.38621965 0.30529457 -0.0044766665 9663292
0.32211244 0.22710714 -0.00035995245 7034136
0.32404298 0.22803001 -0.00032216311 6902803
0.32559887 0.23076648 -0.00016146898 9075291
0.32779461 0.23329017 0.00029104948 10919835
0.32985407 0.23424459 0.00037735701 10986400
0.32980192 0.23864216 -0.00035572052 10986917
0.3329246 0.24007103 -0.00044971704 10986918
0.33462882 0.24247667 -0.00036472082 10855332
0.33563384 0.24506517 1.6391277e-05 10262938
0.33686632 0.24808325 -0.00089579821 9999766
0.33968112 0.24995404 -0.0010436773 10328732
0.34183598 0.25192013 -0.0015593767 10723490
0.34291622 0.25408202 -0.0013058782 10723746
0.34484789 0.2569668 -0.0012102723 10789539
0.35021988 0.2627686 -0.0004145503 10987431
0.38749483 0.31110525 -0.004850626 9663552
0.31990883 0.22637452 -0.00061953068 7363619
0.32048017 0.23008421 -0.00012564659 8613960
0.32357419 0.23163882 -0.0016989112 8810824
0.32463777 0.23518489 -0.0014103651 10919575
0.32719302 0.2368314 -0.0013407469 10920094
0.33163688 0.24304117 -0.00040507317 10789539
0.335004 0.2471129 -0.00087803602 10065560
0.31778124 0.2295168 -0.0035992861 7362584
0.31924418 0.23142718 -0.0028608441 7823139
0.32130891 0.233895 -0.0020246506 10193529
0.31333259 0.22776735 -0.0048518181 8414780
0.31520903 0.22999132 -0.0033921599 7296797
0.30945098 0.22687253 -0.0057992935 9074021
0.37495744 0.28223708 0.002956152 11119281
0.37861797 0.28732905 0.0022757649 11119024
0.38079661 0.2906284 0.0027831197 10592682
0.38245475 0.29146799 0.0023639202 8684684
0.36072171 0.26845363 0.0028913021 10921641
0.36284456 0.26898962 0.0030817389 10921641
0.36470789 0.27315158 0.0027338862 10856365
0.36669421 0.27378261 0.0028133988 10856365
0.36839306 0.27763906 0.002586484 10856365
0.37049049 0.27961913 0.002892375 10855846
0.37249929 0.28185609 0.0026802421 11052968
0.37424821 0.28458431 0.0027766824 11052968
0.37638178 0.2866469 0.0026038885 11250092
0.37797177 0.2893137 0.0026990175 11447726
0.37955815 0.29202139 0.0027974844 11447470
0.38144732 0.29409659 0.002161324 10196891
0.38342154 0.29622215 0.0016440153 8155522
0.38497418 0.29864931 0.0013632774 7497309
0.38705474 0.30077672 0.00083696842 8152375
0.3425588 0.24822637 0.0030366778 10593451
0.34447002 0.25181341 0.0030385256 10593708
0.34653017 0.25249445 0.0028898716 10659244
0.34788036 0.25534916 0.0025935173 10855848
0.35069311 0.25664917 0.003130734 10988208
0.35246024 0.26045808 0.002959311 11053744
0.35435155 0.26199839 0.0029736161 11053224
0.35558969 0.26469165 0.0027371049 10921899
0.35775292 0.26646036 0.0024474859 10921638
0.35845038 0.27000391 0.0028690696 10856622
0.36099607 0.27238232 0.0027965903 10856106
0.36293843 0.27447903 0.002759397 10987175
0.36517435 0.27638087 0.0025845766 10921640
0.36684594 0.27872011 0.0022441149 10921381
0.36833531 0.28121036 0.00247401 10856365
0.36961758 0.28495693 0.0023950338 10855849
0.37133914 0.28622258 0.0023526549 10986661
0.37347218 0.28859329 0.0019405484 11052711
0.37589699 0.2904571 0.0019060969 11250089
0.37823856 0.29262191 0.0016914606 11250090
0.38189921 0.2983098 0.0020622611 9803163
0.38306803 0.30065358 0.0015514493 9010819
0.38523078 0.30306405 0.0013766885 7891293
0.38621816 0.30375436 -0.00038802624 7495972
0.32368445 0.22725441 0.0035995245 10066326
0.32614172 0.23046114 0.004045248 10593449
0.328087 0.23295227 0.0038471818 10790056
0.33008653 0.23530124 0.00345999 10921899
0.33150205 0.23776981 0.0031732917 10986914
0.33370104 0.23978744 0.0031579137 10461608
0.33515823 0.24261478 0.0030071139 9869208
0.33728832 0.24478152 0.0030094981 9869468
0.33930549 0.24732119 0.0027940869 10461090
0.34048036 0.25034595 0.0025441647 10658724
0.34255368 0.2516908 0.0021551847 10658208
0.34476352 0.25474641 0.0020669699 10790052
0.34666148 0.25669849 0.0022760034 10987432
0.34744063 0.25953808 0.0022190809 10921897
0.34978163 0.26126838 0.0017226934 10987431
0.35138077 0.26361793 0.0021741986 10921898
0.35424849 0.26659504 0.0021435022 10921642
0.35585031 0.26829782 0.0024431348 10922158
0.35707736 0.27118862 0.00088763237 10921380
0.35906315 0.27371275 6.7055225e-05 10921121
0.36057475 0.27611628 -0.00036358833 10921379
0.36207935 0.27837321 -0.0010916591 10855845
0.36418703 0.27916262 -0.0010259151 10855588
0.36805743 0.28507885 -0.00053733587 10921382
0.37021139 0.287157 -0.0012259483 11052968
0.37261447 0.29302725 -0.0011343956 11119017
0.37660846 0.29741228 -0.0026507974 8747658
0.37862521 0.2986294 -0.0028274655 7496808
0.32148781 0.22666845 0.0036373138 9539722
0.32288992 0.23007718 0.0033915043 10855323
0.32429391 0.23246698 0.0020902753 11183005
0.32539842 0.23407838 0.0032535791 10789538
0.32679394 0.23728217 0.0035014153 10855847
0.32936317 0.23887029 0.0032632947 10658985
0.33189377 0.24197398 0.003410697 9409693
0.33246142 0.24428183 0.0015361309 10131865
0.3341572 0.246566 0.0028190017 10328986
0.3364495 0.24870175 0.0015886426 10459800
0.33816931 0.25118661 0.0021432638 10592159
0.33998719 0.25410765 0.0019893646 10723744
0.34179991 0.25559124 0.0021118522 10855846
0.34446591 0.25777647 0.0018460155 10921381
0.34598294 0.25997961 0.00060611963 10987174
0.34816051 0.26181406 -0.00050085783 10987174
0.34945542 0.26664937 -0.00029325485 10921638
0.35119161 0.26818338 -0.00075429678 10921638
0.353378 0.26939377 -0.00096517801 10921638
0.35502875 0.27218565 -0.00078350306 10921381
0.3563987 0.27529457 -0.00088632107 10921381
0.35857469 0.27603638 -0.00076502562 10921381
0.36013317 0.28103247 -0.00074374676 10921638
0.36199543 0.28200284 -0.00076144934 10921381
0.36461809 0.28357738 -0.00092685223 10855588
0.36802667 0.28891429 -0.00027626753 10921638
0.36999059 0.29101843 -0.00088918209 10987431
0.37443984 0.29545075 -0.0022042394 10460576
0.37544078 0.29953921 -0.0015540719 10789541
0.37633979 0.30130196 -0.0024109483 10065306
0.37870464 0.30335975 -0.0029263496 8286829
0.38032353 0.30631152 -0.00410074 8216894
0.38255328 0.30821541 -0.0046716332 9071670
0.38512433 0.30988163 -0.0049650073 9663292
0.38544735 0.31372359 -0.0044128895 9597755
0.38720351 0.31537521 -0.0047978163 9729343
0.32121354 0.23391393 0.00027161837 11051932
0.32439384 0.23546439 0.00039094687 11052195
0.32717967 0.23704672 0.00030201674 10986917
0.3268041 0.24047542 -0.00038284063 10921125
0.32958817 0.24204165 5.7339668e-05 10921126
0.3306658 0.24567415 0.00025248528 10131352
0.33381286 0.24629173 0.00024420023 10131352
0.33444226 0.25107536 -0.00093626976 10460318
0.33671406 0.25176045 -0.0006210804 10657954
0.33921552 0.25372303 -0.0010254979 10789283
0.33959824 0.25775629 -0.0006531477 10789796
0.3429088 0.25908959 -0.00042980909 10921381
0.3444781 0.2629393 0.0003079772 10987431
0.34563708 0.26454103 -0.00010561943 10921638
0.34728697 0.26578084 -0.00035220385 10921638
0.35160357 0.27182192 -0.00030553341 10921638
0.35293964 0.27329031 -0.00069111586 10921638
0.38239977 0.31214139 -0.0044523478 8875058
0.38823849 0.32037151 -0.0050333738 9795141
0.31507725 0.22726093 -0.00010317564 6575119
0.31704986 0.22961044 0.00012940168 7891252
0.31863308 0.23240615 0.00048720837 10524296
0.31995177 0.23491317 0.0006377697 10920091
0.32118264 0.23706248 -0.00059688091 10986401
0.32341152 0.23942402 -0.00014358759 10986917
0.325515 0.24173611 0.00033128262 10921125
0.32800829 0.24409884 9.9658966e-05 10591903
0.32987449 0.24707994 -2.0861626e-06 9999767
0.33174354 0.24912867 -0.00063598156 10131096
0.3363952 0.25658607 -0.00095945597 10724003
0.31256539 0.22905892 -0.00036811829 7562783
0.31395173 0.23173381 -0.00023186207 10063719
0.31584007 0.23387557 -0.001080215 10655096
0.30922061 0.22906035 -0.0044518709 8019760
0.31084651 0.23043212 -0.0033842921 7296793
0.31201941 0.23262528 -0.0026776195 8152364
0.3140859 0.23372632 -0.0022937655 9337443
0.30426729 0.22772695 -0.0046367645 8283212
0.3068589 0.229233 -0.00392133 7822632
0.37719318 0.28971532 0.0040911436 11184549
0.37710962 0.29247552 0.0031351447 11316404
0.36535341 0.2798298 0.0031574368 11052965
0.36750627 0.28231812 0.0028212667 10921379
0.36911505 0.28444093 0.0032918453 10855844
0.37071079 0.28716832 0.0033355951 10789795
0.37307224 0.28885034 0.0031933188 10855843
0.37366846 0.29192263 0.0032305121 11053483
0.37637228 0.2946234 0.0033236742 11184811
0.37821355 0.29631877 0.0025923848 11250091
0.3799949 0.29853943 0.0024389625 11250090
0.38161197 0.30108178 0.0023577213 10987178
0.38326788 0.30292186 0.0021680593 10130842
0.38498786 0.30596662 0.0017240047 8485240
0.38763496 0.30777264 0.0013126135 7628607
0.33125499 0.23936693 0.0048460364 9868693
0.33246914 0.24095036 0.0047091842 9210760
0.34600687 0.25860512 0.0031834245 10987169
0.34722102 0.26018849 0.0030466318 10987169
0.34904224 0.26256359 0.0028413534 10986913
0.35086346 0.26493868 0.002636075 10986914
0.35238343 0.26744503 0.0023731589 10921638
0.35407943 0.26993835 0.0023030043 10921639
0.35639507 0.27174324 0.0023226142 10987430
0.35738999 0.27479669 0.0025138259 10921640
0.35952985 0.27678132 0.0025912523 10921640
0.36121616 0.27895075 0.0025251508 11052968
0.36314982 0.2808733 0.0022569895 11118761
0.36468649 0.28393495 0.0025997162 10921638
0.36592701 0.28709513 0.0024298429 10921382
0.36847901 0.28872207 0.0024869442 10855848
0.37043816 0.29121691 0.0024547577 10987175
0.37283665 0.29250574 0.0021104813 11052710
0.37504676 0.29499999 0.0016188025 11250090
0.37630123 0.29894194 0.002822876 11184814
0.37842298 0.30081967 0.0024523735 11381419
0.38102049 0.30327192 0.0019891262 10656930
0.38160154 0.30521488 0.0018578768 10461348
0.38252845 0.30806145 0.0006338954 9999003
0.38455412 0.31043053 0.00071263313 8156286
0.38644081 0.31330135 0.00049102306 7497797
0.3194409 0.22901344 0.00383991 10396064
0.32350805 0.23322482 0.0038869381 10725037
0.3253991 0.23669448 0.0038126707 10790830
0.32569197 0.23803756 0.0051441789 10723999
0.32793903 0.24058577 0.0041430593 9935519
0.32936478 0.2428273 0.0047302246 9605258
0.33160999 0.24506977 0.0038295388 10132382
0.33271161 0.24746472 0.0040459633 10592674
0.33529037 0.24955067 0.0035620928 10592933
0.33616403 0.25169429 0.0039639473 10657692
0.33897787 0.25392568 0.0028648376 10790829
0.34039831 0.25729099 0.003009975 10922155
0.34296191 0.25821859 0.0028735995 10921638
0.34443432 0.26207584 0.0025955439 10855847
0.34647217 0.26428157 0.0024744868 10921641
0.34812441 0.26657993 0.0022940636 10921639
0.34980217 0.26916045 0.002243042 10921383
0.35162175 0.27137461 0.0023527145 10987175
0.35344803 0.27387094 0.0023531318 10921640
0.35519579 0.27651393 0.0018190145 10986914
0.35704735 0.27892858 0.0016102791 11052707
0.35962057 0.28219607 0.0023260117 10986918
0.36153695 0.28326026 0.0024120212 10856106
0.36245048 0.28529149 0.001136601 10921125
0.36483708 0.28732964 -0.00014305115 10855845
0.37022558 0.29588339 -0.0009740591 11052968
0.37188298 0.29699641 -0.0011583567 11118761
0.37387428 0.29799843 -0.0011274219 11118761
0.31445512 0.22761633 0.0040907264 9539986
0.31739733 0.22990419 0.0040535927 10330016
0.31936023 0.23187195 0.0040460229 10725035
0.32088625 0.23421267 0.0042344928 10725293
0.32346049 0.23617171 0.0039477944 10790830
0.32415715 0.23954177 0.0038160682 10198695
0.32792848 0.24377704 0.0037069321 9541022
0.33122858 0.24739906 0.0040122271 10724779
0.3315565 0.24955082 0.0011273026 10591132
0.33450156 0.25132844 0.0020311475 10657955
0.3349337 0.25397491 0.0023858547 10658212
0.33750609 0.25642723 0.0026741624 10790312
0.33916789 0.25843307 0.0018981099 10855588
0.3419598 0.26057217 0.0024591684 10856362
0.34183177 0.26240358 -0.00013935566 10987174
0.3438352 0.26757437 0.0014667511 10855588
0.3456161 0.2686215 0.001614809 10855588
0.34823629 0.27025899 0.00069540739 10855845
0.35319763 0.27763838 -0.00070655346 10855845
0.35621148 0.27910757 -0.0008122921 10921381
0.35814196 0.2800304 -0.00077456236 10921638
0.35864195 0.28442216 -0.00032961369 10921638
0.36314523 0.29066193 1.8239021e-05 10921381
0.36502549 0.29197407 -0.00026935339 10921381
0.36730307 0.29384974 -0.00074332952 10921381
0.36953688 0.29958987 -0.00073492527 10987431
0.37124741 0.30090892 -0.00098836422 11118760
0.37306249 0.30341035 -0.001978755 11053224
0.37508225 0.30576918 -0.0028027296 10657699
0.37746096 0.30782223 -0.00324893 8681601
0.37965286 0.31035978 -0.0041314363 7889493
0.38302332 0.31671566 -0.0044533014 9071157
0.38469321 0.318073 -0.0046238899 9663038
0.38610324 0.31959128 -0.0052375197 9860676
0.3107937 0.2271698 0.0037072301 8816260
0.31514904 0.23093754 0.0041008592 10527655
0.31944019 0.23595244 0.0022780299 11118244
0.32163617 0.2381199 0.0029958487 11184037
0.32406861 0.24488737 0.00057625771 10328474
0.32679158 0.24606833 0.00040078163 10065560
0.32781255 0.24721912 0.00085175037 10064789
0.32907453 0.25022104 0.0007455349 10460060
0.33154079 0.25234428 0.00079232454 10789282
0.33356673 0.25526631 -0.0011335015 10724003
0.33581132 0.25660598 0.0013982654 10855585
0.33682087 0.25967351 -0.00018882751 10921381
0.33998466 0.26117975 3.0398369e-06 10987174
0.34143335 0.26746684 -0.00062662363 10921638
0.34421542 0.26911244 -0.00074672699 10921638
0.34635079 0.26989266 -0.00054258108 10921638
0.34705156 0.27459022 -0.00062298775 10921638
0.35012323 0.27608997 -0.00059390068 10921638
0.35378385 0.28177783 -0.00022315979 10921638
0.35555032 0.28280494 -0.00043481588 10921381
0.37645411 0.31234267 -0.0037232637 9933719
0.37864083 0.31464595 -0.0044397116 8352104
0.38121131 0.3153559 -0.0041101575 8218435
0.38315666 0.32044682 -0.0039429665 8678461
0.38454866 0.32162338 -0.0042867661 8875070
0.38712212 0.32347503 -0.0046045184 8545843
0.31004259 0.22759397 0.00048917532 7034645
0.31146735 0.22963712 0.0012078881 8680789
0.31263304 0.23275185 0.0008212328 10721934
0.3149769 0.23483714 0.00092601776 11117723
0.316585 0.23735774 2.6285648e-05 11052452
0.31877899 0.23971647 -0.00047105551 10986917
0.32101655 0.24224278 0.00038272142 10921382
0.32257584 0.24458075 0.00034755468 10460317
0.32429796 0.24630158 -2.5868416e-05 10131610
0.32561848 0.2485947 0.0002245307 9933975
0.33096236 0.2567037 -0.00030201674 10724003
0.33391511 0.25823048 -0.00028342009 10855588
0.33827686 0.2659705 -0.00063872337 10921381
0.30781242 0.22981362 0.00053930283 8023083
0.3092429 0.23161075 0.00040972233 9667445
0.3104068 0.23408043 -0.0016090274 10127732
0.31330693 0.23610905 -0.0013660192 10853782
0.31416839 0.23915085 -0.00017958879 11052710
0.31601942 0.24085785 -0.00054359436 10986918
0.31794181 0.24218082 -0.00033313036 10921125
0.30459639 0.23064762 -0.002268374 7033870
0.30733719 0.232605 -0.0020706058 8416320
0.31215146 0.23886548 -0.00091636181 10986659
0.30124235 0.22955245 -0.0030453205 7362079
0.29795119 0.22812614 -0.0049045682 8349521
0.36332059 0.2848402 0.0043652654 10855585
0.36520255 0.28729442 0.0041531324 11118500
0.36746943 0.28997672 0.0036626458 10987174
0.36884499 0.29204461 0.0037426353 11381414
0.37108788 0.29449061 0.0033496022 11053480
0.37327132 0.29729176 0.0028837323 10986917
0.37445128 0.29909763 0.0030694604 10987432
0.37610137 0.30228305 0.0029280782 11053225
0.37835306 0.30425414 0.0025981665 11250348
0.38028064 0.30654827 0.0026433468 11381675
0.38198012 0.30887696 0.0019173622 10657700
0.38434449 0.31067809 0.0022039413 9866894
0.38598853 0.31318659 0.0019706488 9997957
0.38723934 0.31603289 0.0016695261 8881766
0.32673007 0.24121934 0.0065937638 9802385
0.32855129 0.24359438 0.0063884854 10723226
0.34518513 0.26528683 0.0045138001 10987171
0.34700635 0.26766196 0.0043085217 10855585
0.34882754 0.270037 0.004103303 10855585
0.3507095 0.27249131 0.00389117 11052963
0.35253072 0.27486637 0.0036859512 11184805
0.35438228 0.27728102 0.0034772754 11184548
0.35614306 0.27901387 0.0028559566 10987432
0.35785213 0.28175947 0.0027760863 11053224
0.35982266 0.2835322 0.0027719736 11053226
0.36275291 0.28628367 0.0028763413 10856365
0.36363488 0.29034972 0.0022120476 10987174
0.36536169 0.29130301 0.0022563934 10987434
0.36747363 0.29356891 0.0026361942 10987434
0.36895603 0.29666939 0.0027030706 11052969
0.37112182 0.29803145 0.002602756 10987435
0.37268192 0.30095282 0.0029916167 10987177
0.37384939 0.30262637 0.0025088191 10922158
0.37583384 0.30653682 0.002517581 11119281
0.37853849 0.30776116 0.0019513369 11448245
0.37946317 0.3113161 0.0023283958 11447470
0.38179779 0.31255183 0.0017763972 10657957
0.38389772 0.31493354 0.0016846657 9604494
0.38611093 0.31712863 0.0014132261 6841683
0.38774034 0.32056099 0.0015092492 5787937
0.32535928 0.2425698 0.0042111874 9475487
0.32649583 0.24569413 0.0044088364 10527656
0.32913333 0.24685389 0.0039602518 10724779
0.33005857 0.25013548 0.0041021109 10527401
0.33245713 0.25146165 0.0034592748 10461865
0.33386981 0.25553751 0.0032316446 10791085
0.33614224 0.2559492 0.0033117533 10856621
0.33753496 0.25990751 0.0030081272 10856623
0.33926126 0.2606996 0.0026443601 10856623
0.34122562 0.26449257 0.0025770664 10790830
0.34338194 0.26650774 0.0026423335 10856366
0.34536105 0.26865643 0.0026795864 10922159
0.34725705 0.27096942 0.0024191737 10922159
0.34846753 0.27381667 0.0022585988 10921640
0.35118175 0.27654472 0.0023684502 10921898
0.35303301 0.27820805 0.0025975704 10987435
0.35474557 0.28062537 0.0030130148 11053743
0.35508266 0.28457454 0.0027385354 10856365
0.35768288 0.28597027 0.002132237 10921642
0.35987067 0.28833517 0.0025035143 10921641
0.36176315 0.28966203 0.0017627478 10921898
0.36309844 0.29343435 0.0024517179 10856365
0.36505333 0.29511908 0.0027520061 11052710
0.36727101 0.29743701 0.0010188818 10987174
0.37881908 0.31197762 0.0013445616 11579574
0.31183279 0.2301899 0.0040259957 10461603
0.31580785 0.23439471 0.0039103031 10790829
0.31966433 0.23938 0.0039784312 10133159
0.32239586 0.2415992 0.004322052 9408915
0.32281986 0.2444327 0.0046967268 10132901
0.32694152 0.24876681 0.004211247 10592930
0.32846794 0.25040388 0.0025945902 10657695
0.33028045 0.25320393 0.0035755038 10724518
0.33222011 0.25604475 0.0032330155 10790568
0.33462179 0.25777966 0.0032066107 10856100
0.33572423 0.26068985 0.0025721192 10790568
0.33822492 0.26312092 0.0021737218 10790311
0.34007484 0.26551288 0.0022240281 10855846
0.34154564 0.2668536 0.0020438433 10790054
0.34273261 0.27095485 0.002055645 10855591
0.34485883 0.27251229 0.0019159317 10921641
0.34676975 0.27623606 0.0020353794 10988207
0.3490622 0.27676529 0.002191484 11053744
0.34948316 0.28082323 0.0017269254 10987175
0.35191354 0.28225893 0.00092834234 10921382
0.35418582 0.2851091 0.00096583366 10986918
0.35603905 0.28738669 -8.3148479e-05 10921637
0.35860357 0.28906748 -0.00026601553 10855845
0.36333522 0.29615045 -0.00055795908 10987174
0.36596954 0.29739812 -0.00074744225 10921638
0.36598688 0.30229819 -0.00089496374 10987174
0.36841384 0.30418628 -0.0013617277 10921638
0.37067637 0.30631524 -0.0019603372 11052967
0.37317887 0.3081657 -0.002191782 11119017
0.37440401 0.30994421 -0.0028958321 11053224
0.37899965 0.31807858 -0.0039218068 8351856
0.38077849 0.31934997 -0.0041196942 8350792
0.38662356 0.32770211 -0.0046938062 6702852
0.30783662 0.22903499 0.0041678548 10198169
0.3088026 0.23227818 0.004226923 10724778
0.31169656 0.23320356 0.0040726662 10659243
0.31390899 0.23629311 0.0035478473 10921382
0.31628761 0.23807299 0.0032280684 10856104
0.31756279 0.24061728 0.0030586123 10066589
0.3201054 0.24548507 0.00082796812 9999766
0.32308349 0.24766159 0.0012820959 9998995
0.32597244 0.24919716 0.0015668273 10525595
0.32739782 0.2555913 0.0012379289 10657952
0.32972419 0.25800949 0.00089871883 10789282
0.3322514 0.25980204 0.00094747543 10789794
0.33556956 0.26426277 -0.00057369471 10921381
0.33643165 0.26801223 0.00076812506 10789796
0.33944815 0.2692818 0.0012987852 10855332
0.34059578 0.27157068 -0.00076496601 10855845
0.3437646 0.27276474 -0.00048643351 10921381
0.3435953 0.27691966 -0.00068241358 10987174
0.34658939 0.27843267 -0.00045621395 10921638
0.34938425 0.28018582 -0.0006801486 10921638
0.34955278 0.28378111 3.0994415e-05 10987431
0.35161978 0.28460881 0.0001796484 10987175
0.35563332 0.29244 -0.00075036287 10921638
0.35756391 0.29336274 -0.00071263313 10921638
0.35941857 0.29445988 -0.00079274178 10987174
0.37055001 0.3113004 -0.0023986697 11053224
0.37226051 0.31261939 -0.0026520491 11184553
0.37411529 0.31371647 -0.0027322173 11119017
0.3762309 0.31601855 -0.003362298 10196380
0.37692451 0.3207061 -0.0036225319 10591901
0.37849101 0.32224691 -0.0040491819 9012353
0.3815282 0.32390711 -0.0039303303 6772528
0.38412827 0.32586166 -0.0042826533 6506755
0.38462362 0.32919925 -0.0036538243 8019992
0.38706166 0.33103392 -0.0039095283 10126408
0.30502564 0.2278464 0.0020118952 8549433
0.30651253 0.22962479 0.0014362931 9009746
0.30875909 0.23271534 0.001591146 10788240
0.31018108 0.23547994 0.00088918209 11051934
0.31234497 0.2374347 0.00032281876 11118503
0.31523666 0.24330391 0.00035309792 10855589
0.31733808 0.24452594 0.00049704313 10328988
0.31777316 0.24862039 0.0010678172 10065044
0.31994826 0.25002083 0.00076329708 10459803
0.32235256 0.25158522 0.00097799301 10657695
0.32502961 0.25360113 0.00031340122 10723746
0.32646215 0.256623 -0.00024110079 10789539
0.32741469 0.25905102 -0.0002335906 10855588
0.32954934 0.26103622 -0.00070780516 10921381
0.33275345 0.26264083 -0.0004812479 10921381
0.33377162 0.26625156 0.00063955784 10855332
0.33460933 0.26845711 -0.00075381994 10855845
0.3377558 0.2698946 -0.00077980757 10921381
0.3389473 0.27491343 -0.00082838535 10855845
0.3411434 0.27577269 -0.00063103437 10855845
0.30235809 0.22976461 0.00053960085 8022082
0.30435768 0.23219205 0.0010610223 10194563
0.30663779 0.2345016 -0.00021547079 10656401
0.30871075 0.2358367 -0.00072067976 10919574
0.3091934 0.23902114 -2.7358532e-05 11052710
0.31146881 0.24124515 0.00010037422 10987175
0.31376311 0.24258929 0.00020200014 10921126
0.31538311 0.24700594 0.00064218044 9868182
0.31686339 0.24825242 0.0004299283 9933718
0.3181389 0.24964155 5.120039e-05 10196632
0.32340676 0.25683185 -8.7678432e-05 10723747
0.33149096 0.26673701 -0.00082445145 10855845
0.30042928 0.2319589 -0.0021452904 7626788
0.30223513 0.23349455 -0.0019697547 8877399
0.30381292 0.23585936 -0.0010433793 10590092
0.30625361 0.23874035 -0.00061589479 10986659
0.30815595 0.2399458 -0.00048154593 10986918
0.29552975 0.23080651 -0.0034127235 7559714
0.29797325 0.23126066 -0.0027858615 7232026
0.29210496 0.22957352 -0.0042207837 8020019
0.28843471 0.22852144 -0.0051124692 8479823
0.36438906 0.28806153 0.0058113933 10986914
0.36621022 0.2904366 0.0056061745 10921377
0.3680315 0.29281172 0.0054008961 11447720
0.36988306 0.29522637 0.0051922202 11250338
0.37173465 0.29764104 0.0049835443 10921379
0.37355584 0.30001608 0.004778266 10987172
0.37537706 0.30239117 0.0045730472 11118757
0.37722862 0.30480585 0.0043643713 11250341
0.37908018 0.30722052 0.0041556358 11447458
0.38090143 0.30959561 0.003950417 11644586
0.38272271 0.31197068 0.0037451386 11776175
0.3845439 0.31434578 0.0035398602 11513003
0.38642582 0.31680003 0.0033277869 10195346
0.38824704 0.31917512 0.0031225085 5588772
0.36094475 0.28766719 0.0043042302 10921378
0.36191183 0.29084766 0.0058401227 10460827
0.36312598 0.29243106 0.0057032704 10395034
0.36561495 0.29567701 0.005422771 10723744
0.3674362 0.29805207 0.0052174926 10855070
0.36931813 0.30050632 0.0050054193 10592413
0.37048101 0.30161011 0.0039798617 10921639
0.37247372 0.30443746 0.0039510131 10921635
0.37447283 0.30636007 0.0034996271 10987432
0.37671876 0.30913001 0.0034707189 11052709
0.37848493 0.31246096 0.0039722323 11250342
0.38036686 0.31491518 0.003760159 11316137
0.38136673 0.3160111 0.0026582479 11250346
0.38347137 0.31881604 0.0027791858 10262161
0.38561419 0.32046488 0.0024806261 7629661
0.38755143 0.3234306 0.0025529861 9536842
0.35366249 0.28368068 0.0031789541 10790829
0.35724422 0.28835163 0.0027752519 10922159
0.36186588 0.29333091 0.0024979115 10921383
0.36352617 0.29654598 0.0027900934 10922159
0.36571658 0.29853743 0.0028830767 10987950
0.36750087 0.30080467 0.0030512214 10855590
0.36988908 0.30357075 0.0031443834 10855592
0.37212321 0.30488944 0.0031479001 10922158
0.3726432 0.30913794 0.0028447509 10987179
0.37490481 0.31065866 0.0025069714 11052971
0.37661311 0.31306887 0.0022904277 11250607
0.37901589 0.31529021 0.0019590855 11513522
0.38000748 0.31751895 0.0021985769 11579058
0.3820304 0.31831172 0.0022814274 10723752
0.38376164 0.32252997 0.0021442771 9012358
0.38610774 0.32495394 0.0027769208 10590057
0.32290471 0.24570841 0.0055955648 10658210
0.3248843 0.24716556 0.0054302216 10855329
