# .PCD v0.7 - Point Cloud Data file format
VERSION 0.7
FIELDS x y z rgba
SIZE 4 4 4 4
TYPE F F F U
COUNT 1 1 1 1
WIDTH 1151
HEIGHT 1
VIEWPOINT 0 0 0 1 0 0 0
POINTS 1151
DATA ascii
1.9080732 0.72818607 0.025272124 10921133
1.9101651 0.73167783 0.024695031 11052462
1.898046 0.71770442 0.025173239 11776946
1.9001374 0.72178626 0.024528436 11776947
1.9027659 0.72483826 0.024288528 11776947
1.9048386 0.72833973 0.024743192 11776947
1.9053724 0.72891843 0.022295766 10790052
1.9075543 0.73216724 0.022185318 10592673
1.890932 0.71188354 0.02592247 11776946
1.8925812 0.71515501 0.02575516 11776947
1.8982034 0.7221061 0.024746053 11776947
1.8996804 0.72517622 0.023344688 11579055
1.9005972 0.72599131 0.023126595 10724259
1.902413 0.72986782 0.022653036 10724259
1.9037675 0.73071826 0.022481494 11184297
1.8855029 0.7092908 0.026421424 11184544
1.8874367 0.70897096 0.026203867 11184551
1.8881313 0.71234292 0.026181515 11776946
1.8907248 0.71543837 0.026024573 11776947
1.894076 0.72176772 0.02353292 11776947
1.8956966 0.72186285 0.022724085 11250603
1.8975964 0.72565114 0.02235245 11315883
1.8991702 0.72550893 0.021447055 10724259
1.8990498 0.72998762 0.021102719 10724259
1.8609316 0.67271239 0.033199131 10921633
1.8637633 0.67826772 0.031133115 10131599
1.8817128 0.70544368 0.025137361 11579557
1.8840171 0.70888102 0.025522884 11316130
1.8921204 0.72089118 0.023040764 11250603
1.8931648 0.72344148 0.021486752 10724003
1.8953418 0.72702748 0.021378867 11052456
1.8971984 0.73090219 0.020200185 10461087
1.8603103 0.67536223 0.031549275 10987168
1.875554 0.70115674 0.024766024 10921114
1.8784173 0.70565307 0.024995562 11579815
1.8808234 0.70734894 0.023944017 10658466
1.881428 0.70903486 0.025187548 11381925
1.8862373 0.71666205 0.022394653 10658466
1.8882606 0.71943563 0.02132016 10461087
1.8896844 0.72209805 0.020933505 10395294
1.8905132 0.72539735 0.020081572 10526624
1.8470669 0.66041714 0.033505559 11382439
1.8487737 0.66395622 0.033343196 10789792
1.8547586 0.67188817 0.030648649 11579567
1.8730805 0.70130098 0.024123129 10723996
1.8740396 0.70539218 0.023535307 10987426
1.8756692 0.70555115 0.024204072 11513509
1.8770913 0.70815164 0.023326632 10855842
1.8812723 0.71394849 0.021345016 10526368
1.8827983 0.71712559 0.020813044 10592419
1.8841668 0.71807677 0.020594891 10461087
1.8423574 0.658557 0.032479823 11447976
1.845263 0.66078293 0.03375423 11382443
1.844624 0.66330689 0.032042146 11448236
1.8468401 0.66551685 0.032469749 10723489
1.8479998 0.6662488 0.03157413 11250602
1.8504895 0.6691919 0.031272054 11448236
1.8520439 0.67237377 0.030990601 11514030
1.854867 0.67786646 0.028893411 11184804
1.8585482 0.68315649 0.026723802 10987166
1.86138 0.68871188 0.024657667 10921374
1.8629764 0.69190085 0.024511039 10658203
1.8656605 0.6951052 0.023973763 10263192
1.8676666 0.69797695 0.023765028 10460057
1.8687863 0.69852233 0.02363348 10460820
1.8705125 0.70106083 0.023640927 11118239
1.8722898 0.70495909 0.022275563 10921372
1.8731425 0.70783639 0.021092173 10329501
1.8353112 0.65203422 0.033022054 11250596
1.8368657 0.65521634 0.0327406 11316390
1.8393548 0.65889686 0.032313652 11053477
1.8419683 0.66109776 0.030985359 10461087
1.8419743 0.6638158 0.032399654 11382441
1.8444378 0.66589993 0.03139019 10460319
1.844393 0.66936433 0.030463103 10196892
1.8489575 0.67196184 0.029715363 11579567
1.8505119 0.67514366 0.02943391 11514029
1.853291 0.68061668 0.027388573 10855839
1.8558158 0.68366379 0.027107239 10987169
1.858595 0.68913686 0.025061905 10657945
1.8601792 0.69238526 0.02487886 10723996
1.8639638 0.69604552 0.022601068 9802388
1.8659493 0.69876993 0.021998465 10461589
1.8668796 0.70200855 0.021723866 9933203
1.8688128 0.70532644 0.021049738 10131350
1.8711052 0.70840096 0.020735797 10263706
1.8278315 0.64654648 0.034165211 11053216
1.8305285 0.64608222 0.033864684 11316130
1.8306429 0.64943194 0.033728309 11250080
1.8321973 0.652614 0.033446856 11250339
1.8350616 0.65558195 0.032989271 11447974
1.8391432 0.66212416 0.030424956 10394781
1.8417382 0.6666187 0.029446367 10197146
1.8439864 0.66950136 0.02853078 10132122
1.8459179 0.67025441 0.028233293 10461087
1.8466007 0.67502475 0.026509766 10197915
1.8487543 0.67713046 0.027407471 11119272
1.8510358 0.6808989 0.0256809 10526364
1.8542659 0.68645531 0.025591969 10986649
1.8570426 0.68983048 0.023879468 10526613
1.8581831 0.69329625 0.023193419 10461338
1.859959 0.69272912 0.023038149 10395542
1.8609508 0.69714516 0.021993041 9999766
1.8633536 0.69996357 0.022080839 10263190
1.8645175 0.70330143 0.020466864 9802643
1.8233805 0.64298379 0.033295758 11184544
1.8250083 0.6465469 0.033750422 11118755
1.8304105 0.65404224 0.03049434 9934230
1.8328195 0.65642715 0.030178789 10065816
1.8335888 0.65882838 0.030585472 10329245
1.8351122 0.66139042 0.0298515 10263452
1.8369658 0.66395742 0.028049473 9933973
1.8385108 0.66699624 0.027698103 9999510
1.8394272 0.66892409 0.028404955 9999766
1.8410354 0.67070937 0.027610902 10263708
1.8421258 0.6726265 0.027070764 10000536
1.8447911 0.67579514 0.026664976 10197915
1.8483088 0.68094766 0.024256829 10132122
1.8491776 0.68312544 0.024631683 10000024
1.8524891 0.68810225 0.02200681 10132377
1.853996 0.69054735 0.022372067 10461339
1.8574631 0.69597858 0.020941973 10000019
1.8580924 0.69783974 0.020054579 9802637
1.8622972 0.70334017 0.02004683 10263704
1.8171412 0.63811839 0.033795781 11448232
1.8188379 0.63950485 0.033489235 11448232
1.8203837 0.64307004 0.032300241 10987172
1.8213236 0.64479458 0.032620974 10790050
1.8231753 0.64665294 0.031932183 10329245
1.8250377 0.64997566 0.030904062 9933717
1.8267066 0.65158266 0.030359872 10066073
1.8272552 0.65452075 0.030331679 9868438
1.8301191 0.6572879 0.029798098 10000281
1.8316845 0.65916407 0.028295401 9934743
1.832882 0.66229945 0.028128032 9934743
1.8344272 0.66546381 0.028072957 9934486
1.8362166 0.66806149 0.027674381 9934743
1.838738 0.67108375 0.027766231 10064536
1.8411344 0.67587894 0.025430862 10000536
1.8443063 0.67883605 0.024506692 10000536
1.8462697 0.68437105 0.022564951 10000535
1.8475358 0.6875546 0.022521976 10000785
1.8493633 0.68824971 0.022210661 10526880
1.8511715 0.69155306 0.02124995 9737108
1.806404 0.62727451 0.035273202 11447982
1.8081728 0.62695205 0.035107382 11382188
1.8103901 0.63164401 0.0333528 11382188
1.811927 0.63470018 0.033009179 11447981
1.8136184 0.63441414 0.032791562 11382188
1.8147871 0.63830674 0.032667883 11052965
1.8169433 0.64144468 0.032373615 10394014
1.817485 0.64415962 0.030962057 10065822
1.819556 0.6463722 0.030309804 10197661
1.8213226 0.64840972 0.030837782 10065562
1.8229721 0.65058458 0.030170985 9933974
1.8233593 0.65367121 0.028479345 9934743
1.8250701 0.65515876 0.029090472 9934743
1.8270943 0.65786541 0.028835244 9803411
1.8292311 0.66049194 0.028548785 9869201
1.840378 0.67993176 0.023230676 10000536
1.84328 0.68213201 0.02294964 10000536
1.8452433 0.68766689 0.021008078 9934742
1.8484393 0.69109535 0.020570997 10527134
1.8497341 0.69389009 0.020020068 10000782
1.8020269 0.62379789 0.034450367 11513774
1.804384 0.6267764 0.033953018 11447982
1.8058065 0.63003612 0.032971866 10526369
1.807776 0.63250709 0.033680744 11119017
1.8094165 0.63497329 0.032222755 10592162
1.8110086 0.63770425 0.03181947 10263708
1.8127837 0.63938826 0.03051842 9999767
1.8136684 0.64140701 0.031063564 9999766
1.8149226 0.64410895 0.030122109 10263708
1.8172245 0.6471827 0.029420801 10000791
1.8193858 0.6507293 0.029839046 9934743
1.8422889 0.68538433 0.021309797 10000536
1.8007456 0.62689209 0.033614174 11513774
1.8018175 0.62778389 0.032023087 10197659
1.8037134 0.63065571 0.033045597 10724003
1.8051751 0.63267422 0.031122934 9934743
1.8068192 0.63590831 0.031354673 9934743
1.8086439 0.63777077 0.03157676 9934743
1.8110095 0.64175045 0.031222414 10461087
1.8111703 0.64275932 0.02937622 9934743
1.812373 0.64593232 0.029131003 9868950
1.8143886 0.64857596 0.028844602 9803411
1.7979763 0.62653804 0.031569019 10657401
1.8000438 0.6294964 0.031628326 10592152
1.7999698 0.63110149 0.030781399 9934743
1.8023485 0.63388711 0.030856084 9934743
1.7964491 0.62533259 0.03025521 8682042
1.7978196 0.63075376 0.029568326 9210243
1.7984658 0.63377738 0.028924 9341548
1.8000654 0.63743389 0.028714906 10000526
1.7937818 0.62957394 0.028049659 10131863
1.7950783 0.63037813 0.02826966 9144712
1.7963681 0.63321316 0.027705859 8486525
1.7910097 0.62949616 0.026250616 11579568
1.7928413 0.63319123 0.026300739 11053224
1.7944287 0.63661164 0.02536596 10329247
1.7957845 0.63702607 0.025272381 9342092
1.7872198 0.62921369 0.025151625 11645361
1.7886337 0.6313833 0.025430575 11382189
1.7904392 0.63385075 0.024755374 10855845
1.7921402 0.63630641 0.023167681 10592161
1.7933232 0.63850546 0.023676943 10329245
1.7799358 0.62127537 0.026212946 11711154
1.782111 0.62417877 0.025677457 11711154
1.7835319 0.62728959 0.025256053 11645361
1.7846968 0.62959558 0.024604455 11118507
1.7868829 0.63324422 0.023563221 10855590
1.7881575 0.63531649 0.023056224 10460831
1.790218 0.63797349 0.022384062 10197659
1.7915165 0.63946015 0.022549283 10460831
1.7930077 0.64260739 0.022369873 10460575
1.7778375 0.62070692 0.024896219 11776947
1.7783476 0.62393749 0.024568096 11711154
1.7798516 0.62660682 0.023568764 11184554
1.7810758 0.62815309 0.023741737 10723747
1.7829455 0.63108301 0.023275867 10657954
1.7842385 0.63344961 0.022273079 10329501
1.7856431 0.6361177 0.022558644 10329245
1.7875807 0.63938755 0.021911517 10329501
1.7894875 0.63991141 0.021843925 10526623
1.7907388 0.64387906 0.021505129 10526370
1.7738656 0.62218052 0.023243323 11250601
1.7757769 0.62397438 0.02301158 11316140
1.7771118 0.62748313 0.022576228 10657955
1.7786431 0.62849218 0.022531822 10526880
1.7795936 0.63143086 0.022081152 10395294
1.7817378 0.63366514 0.021219507 10132122
1.7827893 0.63678861 0.020875826 10132122
1.7737511 0.62660199 0.021243349 10657177
1.7748877 0.62905121 0.021328643 10592159
1.7768705 0.63155794 0.020255938 10263708
1.7728785 0.62966949 0.020936146 10592638
1.9228438 0.7309736 0.032374009 12040119
1.9241827 0.73171175 0.033882424 12040119
1.9209872 0.73125696 0.03264343 11974326
1.9184271 0.73196387 0.030403305 11908533
1.9135449 0.73049331 0.030004729 11908533
1.9102722 0.730075 0.028713934 11842740
1.9120849 0.73155439 0.02858882 11842740
1.9080015 0.72945344 0.027231388 11842740
1.909178 0.73317969 0.02783107 11842740
1.9038144 0.72927743 0.026028566 11842740
1.9054883 0.73242992 0.025933854 11842740
1.9074223 0.73211008 0.025716238 11776947
1.8979958 0.72566068 0.024848096 11776947
1.8996872 0.72893918 0.024815552 11842740
1.9017324 0.72986686 0.024535112 11250603
1.9026793 0.73228502 0.025138848 11842740
1.8887906 0.71575809 0.026242133 11776947
1.8924785 0.72302872 0.025450699 11776947
1.8944126 0.72270906 0.025233142 11776947
1.8950948 0.72614038 0.025174491 11776946
1.8977531 0.72925895 0.025033109 11842740
1.899647 0.73171818 0.024188571 11053224
1.8817647 0.70997626 0.026887771 11250344
1.8843671 0.7129873 0.026658174 11776946
1.8859547 0.71626085 0.026584145 11776947
1.8904288 0.72296023 0.024797492 11776947
1.8934517 0.72736698 0.02202677 10724259
1.8952374 0.73132455 0.021558337 10724259
1.8966519 0.73186612 0.023201637 10724259
1.8795716 0.7093184 0.025456961 11381925
1.8813188 0.7129997 0.02620196 11579566
1.8845346 0.7177577 0.023389574 10658466
1.8864127 0.72238237 0.023636337 11184810
1.8886151 0.72389734 0.023276147 11053224
1.8899654 0.72600538 0.024153166 11776947
1.8911296 0.72898901 0.021422558 10789797
1.8932713 0.7320075 0.021692805 10724259
1.8943305 0.73280877 0.02009552 10657954
1.8762323 0.7093873 0.025088843 11250597
1.8783408 0.71307278 0.025683399 11711154
1.8841596 0.72188652 0.022215959 10658466
1.8862484 0.72327578 0.021230217 10263708
1.8876615 0.72707331 0.020144816 10657953
1.8893776 0.73023289 0.020184927 10855335
1.8460485 0.66644371 0.033658266 10262685
1.8664639 0.69921303 0.025783062 10723222
1.8680606 0.70240206 0.025636494 11184541
1.8710119 0.70629382 0.024732526 11513767
1.8726171 0.70954573 0.024616953 11448228
1.8753071 0.71259522 0.02331936 11119016
1.8780799 0.71549827 0.021410104 10460576
1.8790795 0.71809703 0.02125847 10592673
1.8801103 0.72270459 0.0216971 10658466
1.882507 0.72264916 0.020331737 10658211
1.8836188 0.72521734 0.020344492 10855077
1.8426303 0.66705823 0.032247722 11448236
1.8450778 0.67014188 0.031914473 11514029
1.8596102 0.69348431 0.026594579 11052959
1.8614144 0.69311851 0.026345849 10789788
1.8621087 0.69649041 0.026323617 10987166
1.8636929 0.69973874 0.02614063 10855324
1.8661792 0.70280421 0.025833309 11381928
1.8681759 0.70679647 0.025074542 11579563
1.8695058 0.70939898 0.021443963 10329501
1.8748294 0.71692353 0.020832118 10460319
1.8323646 0.65604627 0.033289678 11316390
1.8369281 0.65952861 0.033163793 11382186
1.839272 0.66424215 0.032777853 11447977
1.8408264 0.6674242 0.03249646 11382443
1.8426392 0.67053771 0.031395853 10789794
1.8456447 0.67274225 0.030191962 9999513
1.8463424 0.67836308 0.028271023 11514029
1.8487635 0.68140531 0.027948085 10986909
1.8524446 0.6866954 0.025778472 10591890
1.8569221 0.69322026 0.025792718 11315356
1.8581939 0.69664234 0.025908768 11117979
1.8587288 0.69960654 0.025067389 10986395
1.8620601 0.70133537 0.022080243 9867412
1.8645724 0.70280755 0.022255838 10592921
1.8638643 0.70602119 0.021901786 10065560
1.8656099 0.70721495 0.02167654 9999769
1.8674515 0.71019012 0.020821393 10132122
1.8234079 0.64734024 0.034766205 11119011
1.8266888 0.65019256 0.034184225 11118754
1.8281903 0.65329206 0.033923574 11184291
1.8297448 0.65647388 0.033642061 11316390
1.8315732 0.65970075 0.03279037 10855330
1.8345504 0.66051239 0.032966204 11382442
1.8361692 0.6643064 0.030703906 10461087
1.8377575 0.66699028 0.03117973 11316392
1.8393118 0.67017233 0.030898277 11382442
1.8403945 0.67203426 0.029479388 10526368
1.8435977 0.67729503 0.028146986 10526110
1.8458805 0.67978531 0.026486818 10526880
1.8462594 0.68429744 0.026578013 11052702
1.8506405 0.68706125 0.026027143 10460820
1.8533379 0.69253743 0.024427652 10723996
1.8551886 0.69221169 0.023816049 10657677
1.8592707 0.69905555 0.022330046 9669773
1.8605648 0.70244038 0.022193789 9604240
1.8602352 0.70333171 0.020803809 10263704
1.862493 0.70698017 0.020667374 10132120
1.8634799 0.7089932 0.020766616 10132121
1.8656735 0.71118712 0.020992041 10132122
1.8206197 0.64729702 0.034268506 11382441
1.8215864 0.64758015 0.034952708 11316390
1.8240426 0.65057909 0.034546919 11184545
1.825511 0.65373439 0.034182616 10986899
1.8274046 0.65683657 0.032278307 10394773
1.8287301 0.65851736 0.030514784 10000025
1.829869 0.66056168 0.031164534 10263195
1.8316382 0.66358215 0.030305091 10461087
1.8331369 0.66666067 0.029551748 10263452
1.8351185 0.66925704 0.028029684 9933973
1.8365446 0.67052537 0.028976265 9999511
1.837811 0.67249799 0.028260712 10394782
1.837742 0.67549145 0.027328614 10526880
1.8418376 0.67767966 0.026897375 10526880
1.8427876 0.68106097 0.026918236 10855844
1.84454 0.68438077 0.023995999 9802132
1.8447096 0.68708891 0.025062744 10921117
1.847252 0.68669719 0.023694161 9868177
1.8490384 0.68977034 0.024532739 10460822
1.8508866 0.69254601 0.024106264 10592666
1.8547134 0.69799483 0.021252215 10461338
1.8557918 0.70029932 0.020757556 9934480
1.8578565 0.70351654 0.020883143 9802384
1.8581998 0.70574254 0.020758629 9671055
1.8603443 0.7085734 0.020459175 10198168
1.8128353 0.63886994 0.034287937 10855577
1.8151828 0.64182651 0.033918448 11184541
1.8180636 0.64387554 0.033948548 11513767
1.8180552 0.64708185 0.032930918 11185062
1.8202057 0.65010387 0.032162137 10592416
1.8212322 0.65255105 0.031317599 10065818
1.8230673 0.65401793 0.031520016 10131866
1.8245515 0.65617418 0.031443961 9868184
1.8260756 0.65884167 0.03229297 9669780
1.827569 0.6607914 0.029374726 9868436
1.8291678 0.66411996 0.029065676 10197914
1.8310785 0.66771704 0.028446976 9934229
1.8320234 0.67036813 0.028124277 9934743
1.8343973 0.67207938 0.027935151 9934230
1.8358535 0.67613828 0.027514998 10526880
1.8390434 0.67863178 0.027202789 10526880
1.8418808 0.68214715 0.024276976 9933720
1.8430603 0.68752813 0.022625748 10000025
1.8457917 0.68775868 0.023724858 9802384
1.8465478 0.69127452 0.020819668 10132374
1.8484449 0.69430447 0.021205489 10000273
1.8502423 0.69666219 0.020754933 10132368
1.8516694 0.69922483 0.020422041 9934485
1.8528695 0.70163548 0.020192742 9802643
1.8066648 0.63361001 0.034119196 9999516
1.8089156 0.63646448 0.033340223 10461087
1.8091526 0.63876545 0.034166105 10658208
1.8117225 0.64243495 0.034301884 10987420
1.8134024 0.64310521 0.033036418 10328469
1.8144252 0.64535117 0.032747693 10395035
1.8156362 0.64848858 0.032072492 10197915
1.8180964 0.65049672 0.031503446 10065563
1.8192168 0.65292704 0.031632073 10197915
1.8203095 0.65524846 0.031243153 10000025
1.8223778 0.65773851 0.031059511 9934743
1.8250316 0.66022867 0.029134758 10197915
1.8262856 0.6633243 0.028951891 10197915
1.827071 0.66542029 0.028670914 9934743
1.8386475 0.68082601 0.023354713 10000536
1.8409524 0.68585253 0.022668008 9999513
1.8411275 0.68770856 0.02229381 9934488
1.8435128 0.68856102 0.021131996 10000790
1.8437381 0.69244295 0.021511856 9934485
1.8460041 0.6952284 0.020449761 9934738
1.8477666 0.6993174 0.020204131 10527134
1.8006138 0.63069314 0.034162059 11448234
1.802595 0.63220042 0.033997484 10987431
1.804423 0.63456225 0.034044094 10789796
1.8057936 0.63661265 0.033715971 10987431
1.8068662 0.63892198 0.033204265 10724003
1.8092335 0.64231753 0.031377621 10461087
1.8109577 0.64440668 0.031619318 9802132
1.8118538 0.64842874 0.030980833 10263708
1.813597 0.65000063 0.029963918 9605522
1.8155396 0.65063548 0.031270154 9933720
1.8367734 0.68454725 0.021818284 10000536
1.8379825 0.68672562 0.021252159 10130584
1.839316 0.68989968 0.020619813 9934230
1.8405678 0.69208932 0.020608488 9934742
1.7971084 0.62711459 0.033220008 10590563
1.798751 0.63093388 0.033124998 11118997
1.8003471 0.63352466 0.033170417 11052193
1.8007895 0.63493121 0.032773152 10328729
1.8028744 0.63777655 0.031898148 10132122
1.8045368 0.63995624 0.032006092 9934743
1.8062382 0.64211822 0.032622106 10526880
1.8079427 0.64509445 0.030301403 10132122
1.8095137 0.64819717 0.029746842 9868437
1.8103081 0.65080285 0.029263508 9803412
1.7975041 0.63234186 0.03250207 10197117
1.7980963 0.63494647 0.031181883 9143422
1.7993443 0.63788116 0.031068575 10526879
1.8008126 0.63935286 0.031002294 10132117
1.8055277 0.64590824 0.029976141 9934743
1.7950689 0.63461781 0.029906046 8487041
1.7967169 0.63803017 0.028971266 8552572
1.7981913 0.64016461 0.029183757 9539453
1.7995846 0.64377052 0.029054236 10592652
1.7918288 0.63421309 0.028591942 11382190
1.7927207 0.63767099 0.028849613 11579568
1.7948152 0.63860607 0.026958358 9868440
1.7956097 0.64106476 0.027496528 9473934
1.7973769 0.64360178 0.027602505 8290137
1.7892507 0.634049 0.027824655 11645361
1.7897818 0.63728321 0.027564004 11645361
1.7929389 0.6410237 0.024897289 10000536
1.7940514 0.6422835 0.02585585 10263452
1.7950745 0.64542496 0.025952946 9934487
1.7853398 0.63356203 0.026329055 11645361
1.7877098 0.63675594 0.026236847 11645361
1.7905965 0.64097238 0.024050485 10263708
1.7921529 0.6443187 0.02378441 10460576
1.7954868 0.64928609 0.024188351 10592673
1.7791873 0.62805903 0.025722459 11711154
1.7819803 0.63006926 0.025856271 11711154
1.7817562 0.6330061 0.024586394 11316141
1.7831904 0.63492727 0.025335565 11711154
1.7845064 0.63742995 0.023439422 10526369
1.7869903 0.64033115 0.023196951 10263452
1.7882247 0.64294004 0.023280397 10395039
1.789826 0.64482701 0.023274373 10395296
1.7916098 0.64837468 0.022778403 10329246
1.7740154 0.62464797 0.025070682 11776947
1.7753975 0.62777674 0.024623409 11776947
1.7779994 0.629448 0.024612203 11118250
1.7792244 0.63317764 0.024306312 10855335
1.7801737 0.6356613 0.023409918 11053224
1.7821352 0.63816488 0.023234203 10460832
1.7845513 0.64116931 0.022667721 10329502
1.7892611 0.64837933 0.021658674 10066329
1.774153 0.62985659 0.023272291 11118500
1.7758498 0.63266873 0.022718146 11184809
1.7764555 0.63510406 0.022525325 10591906
1.7781246 0.63614208 0.023333684 10724259
1.7800539 0.63845956 0.021694139 10329501
1.7817575 0.64133012 0.021357611 10329501
1.7812526 0.64442575 0.020810023 10724259
1.775279 0.63568342 0.021280721 10526361
1.7780474 0.63944703 0.021330789 10263708
1.7790992 0.64257056 0.020987228 10263708
1.9058777 0.73345381 0.027613215 11842740
1.901673 0.73315191 0.026348226 11842740
1.8958192 0.72957861 0.025250725 11842739
1.8982819 0.73314452 0.025907509 11513775
1.892271 0.7265836 0.025552802 11776946
1.8919511 0.73021811 0.025685899 11842740
1.8937639 0.73169756 0.025560729 11776947
1.8955764 0.73317671 0.025435679 11842740
1.8796234 0.71385092 0.02720743 11776947
1.8821517 0.7169233 0.027034875 11776947
1.8880314 0.72632515 0.024370786 11776947
1.89063 0.72945827 0.024135999 11842740
1.8927658 0.73311722 0.023610763 10724259
1.8767997 0.71429402 0.027585741 11776947
1.8793631 0.71732318 0.027330216 11776947
1.883569 0.72357231 0.024760898 11776947
1.8860012 0.72610015 0.023867961 11184810
1.8855181 0.72930169 0.023073252 11776947
1.8877311 0.72965521 0.023586269 11250603
1.8903859 0.73289549 0.021993093 10724259
1.8732675 0.71289802 0.024646517 11776946
1.8745676 0.71365416 0.026129004 11776947
1.8752536 0.71711075 0.02617931 11776947
1.8818034 0.72614348 0.022545811 11184810
1.8840506 0.72951764 0.021814939 11053224
1.8861612 0.73297119 0.020733174 10986662
1.8643225 0.70308757 0.026102722 11447721
1.8663189 0.70707983 0.025344014 11579563
1.8688439 0.71012712 0.025062561 11447718
1.8708653 0.7137059 0.025454935 11776946
1.8814853 0.73045945 0.020213243 10789539
1.8591006 0.70050442 0.026684701 11053217
1.8607621 0.70193416 0.026461124 10987427
1.8624659 0.70337099 0.026372313 11184551
1.8634832 0.70758253 0.025685906 11382184
1.8660343 0.71067107 0.025394082 11316391
1.8721496 0.71998799 0.021065768 10592673
1.8746343 0.72353667 0.02042478 10789539
1.8762159 0.72653931 0.020015474 10657952
1.8338778 0.66517055 0.033378847 11316391
1.8354321 0.66835237 0.033097394 11382184
1.8368988 0.6714952 0.032919772 11514029
1.8552756 0.69670093 0.025483489 11052449
1.8569807 0.70037514 0.026093662 11052707
1.8602861 0.70696664 0.022119105 9867925
1.8629277 0.70936954 0.021983147 10132122
1.864271 0.71251678 0.021992087 10132122
1.8675129 0.71753812 0.020530224 10460831
1.869614 0.72072417 0.020448443 10592160
1.8213719 0.65108442 0.034837015 11316650
1.8228737 0.65418386 0.034576364 11316648
1.8261546 0.65703636 0.033994444 11316376
1.8279859 0.6610263 0.034251817 11448485
1.8298426 0.66074282 0.033982344 11514022
1.8311806 0.66563445 0.033679314 11316389
1.8324654 0.66776347 0.031905122 10526880
1.8335756 0.66863573 0.033366926 11381925
1.8351299 0.67181772 0.033085473 11382436
1.8509293 0.69389349 0.025951445 11053220
1.8524486 0.697119 0.025752962 10526618
1.8546423 0.70253181 0.023189127 10329751
1.8586464 0.70903689 0.021485567 10263449
1.8607066 0.71148133 0.021603644 10263452
1.8628227 0.71410835 0.021027029 10329501
1.8163222 0.6485545 0.035584815 11448236
1.8186873 0.65148914 0.035173841 11448236
1.8202205 0.65466762 0.034825094 11513772
1.8211112 0.65514559 0.03248132 9933720
1.8238785 0.65830725 0.033750124 11382441
1.8249893 0.66091597 0.033118077 10460828
1.8264883 0.66270775 0.032073386 9999255
1.8271557 0.66514039 0.030662067 10526880
1.829555 0.66802573 0.030743606 10329244
1.8317053 0.67208552 0.028356794 9933971
1.834407 0.67596126 0.02868164 10263195
1.83638 0.67696339 0.029235963 10526880
1.839272 0.68206185 0.027434532 11382175
1.8419949 0.68757474 0.025404815 10658452
1.8453003 0.69045579 0.024998967 10987167
1.8459264 0.69377947 0.024852339 11250082
1.8475969 0.69527221 0.024659757 10987169
1.8493444 0.69672847 0.02451909 11053217
1.8500694 0.6995756 0.021769881 10592672
1.8514482 0.70267951 0.021695912 10461341
1.8537854 0.70600903 0.021217346 9868692
1.8552577 0.70845234 0.020925879 9934486
1.856716 0.71019888 0.020842135 10198170
1.8577851 0.71181333 0.020571768 10196889
1.8622618 0.71793628 0.020112753 10394526
1.8099011 0.64267504 0.034488328 10921892
1.8118625 0.64492869 0.034684308 11185062
1.813378 0.64812887 0.034376986 11382443
1.8145781 0.64875793 0.035823233 11514029
1.816641 0.65322685 0.031828888 9934743
1.8177582 0.65400159 0.032440372 10197404
1.8192228 0.65688199 0.032338805 10131611
1.821496 0.65928453 0.031685062 10197660
1.8229164 0.66196573 0.031548329 10132122
1.8239175 0.66526961 0.031631537 10328989
1.8256882 0.66644675 0.030682154 10197915
1.8274202 0.66882992 0.029768594 10066072
1.8287307 0.67218417 0.028429337 9934743
1.8305801 0.67407531 0.028345529 9868693
1.833198 0.67705166 0.027778987 10526880
1.8344547 0.68269116 0.025904719 10592673
1.8391502 0.68801451 0.025715593 10921624
1.8428224 0.69338918 0.023618523 10987420
1.8443419 0.69631898 0.022489492 10526618
1.8456713 0.69936532 0.021821801 9341840
1.8482655 0.70103073 0.020725314 9934741
1.8495526 0.70426691 0.020623565 10065813
1.8519359 0.70599604 0.020208001 9605519
1.805827 0.64004797 0.035158403 11447982
1.807269 0.64316231 0.034804352 11513773
1.8092867 0.64537609 0.034984834 11514029
1.8107109 0.64851183 0.034672327 11514029
1.8130555 0.6508528 0.032815106 10461086
1.8147039 0.65314227 0.031877764 10131611
1.8156912 0.6549958 0.032429524 10394782
1.8170369 0.65741575 0.031764813 10197915
1.8185713 0.66020727 0.031528421 10132122
1.8203305 0.66258729 0.031150587 9934743
1.8291668 0.67577147 0.0283655 10000536
1.8318988 0.67912257 0.026445571 9933717
1.8338838 0.68065429 0.024557594 9933717
1.8381944 0.69092798 0.022821192 10724507
1.838735 0.69363463 0.021694783 10394778
1.8408061 0.69415534 0.021909717 9473933
1.8419822 0.69743305 0.021266822 10066325
1.8446636 0.70032114 0.020974461 10132118
1.7982304 0.63371664 0.034824327 11513509
1.801163 0.63695419 0.034405418 10920864
1.8029461 0.63985425 0.034308203 11513772
1.8031132 0.64143038 0.033765621 10328988
1.8068252 0.64575475 0.032174535 9998999
1.8091511 0.64915055 0.032530673 10526880
1.8109212 0.65210336 0.031043895 9868694
1.8119966 0.65331972 0.031497069 10262684
1.8129609 0.65581447 0.031806894 10131096
1.8334246 0.68640316 0.022138897 10000536
1.8351042 0.68885589 0.021448199 9999251
1.8360069 0.69172084 0.02066398 10000278
1.838613 0.6960969 0.02056599 10132120
1.8392417 0.69847476 0.020764533 9472914
1.7975917 0.6362406 0.033112124 9473154
1.7991003 0.63760871 0.033941165 9867667
1.7992195 0.63980389 0.033566788 11184025
1.8018914 0.64198208 0.032777615 10658465
1.802224 0.64467502 0.032112785 10526880
1.8043826 0.64727837 0.031642802 10197146
1.8064831 0.6498726 0.030879866 9934486
1.8084248 0.65282774 0.031082463 9934743
1.8092288 0.65416473 0.030241918 10130839
1.8321584 0.69034803 0.021105293 9999767
1.8344873 0.69242853 0.020342175 10000536
1.7950417 0.6360814 0.032434717 8421491
1.7962753 0.63937819 0.032358781 9342060
1.7978801 0.64203173 0.031792477 9209985
1.7997016 0.64468819 0.03130658 10263681
1.8020357 0.65044379 0.028532635 10000534
1.8026325 0.65118223 0.030087721 10000534
1.8298022 0.69104022 0.020767931 10000536
1.7930504 0.63856196 0.03033198 10263708
1.7934574 0.63941652 0.031866267 8816260
1.7956563 0.64308494 0.029614519 8421251
1.7973042 0.64486039 0.028721821 8750199
1.7909518 0.63799345 0.029015314 11645361
1.7915483 0.64125061 0.02877016 11579567
1.7917618 0.6438303 0.029199254 11645361
1.795104 0.64643061 0.028413486 9868697
1.7960168 0.64894855 0.026438665 9342604
1.7977588 0.65069032 0.026950072 8881526
1.7862778 0.63787216 0.027999178 11645361
1.787681 0.6410045 0.027619258 11645361
1.7896212 0.64325488 0.027747884 11645361
1.7910455 0.64639062 0.027435314 11645361
1.7935749 0.64946824 0.024276387 10395039
1.7949826 0.65208739 0.024719249 10263708
1.7952704 0.65485531 0.024559032 10065564
1.7816036 0.63775098 0.026983038 11711154
1.7841796 0.63730377 0.026682511 11645361
1.7847545 0.64055741 0.026369944 11711154
1.785779 0.64288998 0.026669577 11645361
1.789351 0.64635491 0.023961619 10658211
1.7894838 0.64894539 0.023265552 10395294
1.7917206 0.65102983 0.023847889 10328990
1.7928995 0.65247184 0.023533594 10329501
1.7939684 0.65586841 0.02239133 10658466
1.7803509 0.63703942 0.025557533 11711154
1.7811843 0.64051986 0.024633005 11052969
1.7836431 0.64197701 0.024492279 10724002
1.7851014 0.64473927 0.023867205 10395039
1.7864187 0.64824235 0.023297027 10460576
1.7882005 0.64954859 0.022646561 10460831
1.7892621 0.65254426 0.022687327 10263452
1.7914947 0.65437818 0.022723805 10395294
1.7921923 0.65643537 0.02254666 10724259
1.7760353 0.63356054 0.024641469 11776947
1.7759933 0.6368227 0.024002269 11250603
1.777802 0.63668776 0.024840429 11316140
1.778996 0.64093745 0.024353877 10789542
1.7812967 0.64236879 0.022387162 10197915
1.7821712 0.64514387 0.023220614 10395295
1.782778 0.64829195 0.022208169 10724259
1.7854558 0.65075821 0.022255376 10329501
1.7871364 0.65326446 0.021697775 10132122
1.7738911 0.63670146 0.023486808 11447183
1.7761215 0.63992429 0.022353604 10592161
1.7770699 0.64200652 0.0222698 10658210
1.7786032 0.64493722 0.021226659 10395294
1.7806054 0.64807987 0.020673528 10724259
1.7749358 0.64335775 0.020938352 10592415
1.7760986 0.64604479 0.020669356 10526880
1.7788717 0.64865386 0.020963565 10790052
1.7746019 0.64669448 0.020176426 10395253
1.8900946 0.73050153 0.025955372 11842740
1.8774818 0.71772534 0.02752709 11776947
1.8858547 0.73024303 0.024773356 11842740
1.8874687 0.73355794 0.024688836 11842740
1.8768499 0.72029972 0.026032623 11776947
1.8800888 0.72670889 0.023572084 11776947
1.8817028 0.73002362 0.023487564 11842740
1.8846656 0.7333566 0.02384555 11842740
1.8721842 0.71711969 0.025655624 11776947
1.8726628 0.72012371 0.024829742 11776947
1.8756263 0.72395599 0.023962256 11776947
1.8771877 0.72718835 0.023898538 11842740
1.8797688 0.73034346 0.02370524 11842740
1.8803961 0.73233932 0.02262586 11250603
1.8641776 0.71095425 0.025663614 11447977
1.8656968 0.71417975 0.02546519 11711407
1.8674532 0.71569884 0.025355518 11711409
1.8693604 0.71756279 0.026033875 11776946
1.8771522 0.73108971 0.020998415 10789539
1.8780841 0.73335004 0.021578129 11513262
1.852785 0.69806033 0.027453065 10789535
1.8549607 0.70245075 0.026320815 11381928
1.8573583 0.70428514 0.026921332 11382182
1.8578974 0.70846695 0.026349068 11579818
1.8606471 0.70808512 0.026027799 11579820
1.8622437 0.71127409 0.025881231 11579818
1.863893 0.71454543 0.025713801 11776946
1.8683197 0.72119927 0.021459281 10658466
1.8731167 0.72873896 0.020455059 10788768
1.8742648 0.73203826 0.020331796 10724001
1.8318067 0.66895831 0.033532627 11447718
1.833326 0.67218345 0.033334143 11448229
1.8497161 0.69762641 0.026136339 10592667
1.8512354 0.7008518 0.025937855 10855585
1.8527545 0.70407701 0.025739372 11579562
1.8547158 0.70811272 0.025063515 11579814
1.856235 0.71133804 0.024864972 11579815
1.8607394 0.71439183 0.022405982 10132122
1.863952 0.71992052 0.02168107 10657954
1.8657821 0.72335678 0.020941436 10592159
1.8208377 0.65792829 0.034647234 11513774
1.8235586 0.66179466 0.034744032 11448234
1.8249357 0.66666812 0.03446693 11579822
1.8275552 0.66624027 0.034114607 11448231
1.8290209 0.66927648 0.033349343 11185061
1.8306024 0.67260641 0.033645041 11513511
1.8353536 0.68026024 0.029607657 11513251
1.8460133 0.69826859 0.02651972 11052958
1.8477823 0.69794613 0.026353959 10789786
1.8484381 0.70133626 0.026305798 11184281
1.8508979 0.70436054 0.026008785 11776941
1.8529335 0.70803845 0.022657752 9999516
1.8553115 0.71099383 0.022241533 10329244
1.8574103 0.71337026 0.021868944 10328988
1.8589451 0.71720481 0.022041738 10658466
1.8605939 0.71913612 0.021128297 10328989
1.8629972 0.72086006 0.020100951 10591650
1.8151708 0.65213758 0.035572775 11514030
1.8166726 0.65523708 0.035312124 11513774
1.8190339 0.6582942 0.034895904 11513774
1.8209003 0.66224068 0.035070367 11579567
1.8213096 0.66266364 0.032731898 10000023
1.8228486 0.66529 0.032372899 10196890
1.8245978 0.668688 0.030795164 10197915
1.8260996 0.67000586 0.031727798 10394781
1.8268423 0.67268443 0.030440815 10065303
1.8294241 0.67495441 0.030107923 10131096
1.8335322 0.68050027 0.029794279 11447458
1.8437592 0.69766617 0.025154594 10987166
1.8502586 0.70727652 0.021679878 10263705
1.8511873 0.71015871 0.022073507 10394781
1.8529037 0.71336746 0.021746159 10460830
1.8553063 0.71555853 0.020966589 10066072
1.8584524 0.71959323 0.020402253 10197659
1.8595005 0.72269171 0.020431936 10132122
1.8074827 0.64574188 0.035233505 11579567
1.8089422 0.64883429 0.034838088 11579567
1.8114588 0.65226769 0.035225399 11579567
1.8126806 0.65483546 0.03491307 11053223
1.8139842 0.65576309 0.033715017 9934743
1.8165303 0.65941018 0.033581086 10724258
1.8177211 0.6613825 0.032512136 10197403
1.8194678 0.66400802 0.032332011 10329244
1.8207743 0.66704881 0.031928785 10328989
1.8220706 0.6699298 0.031001993 10263708
1.8237499 0.6720075 0.030145653 10197402
1.825639 0.67423064 0.029772349 10000280
1.8272375 0.67657202 0.030262716 9933718
1.8304654 0.67800152 0.027991179 10592673
1.8295063 0.68089056 0.026434366 10592673
1.8391196 0.69403136 0.02400196 11119004
1.8406123 0.69721532 0.023813669 11052957
1.8413469 0.69938892 0.022988442 10394263
1.842628 0.70149302 0.022069637 9538953
1.8445923 0.7043618 0.021824602 9473423
1.8471072 0.70696461 0.021439794 9934228
1.8484682 0.71001637 0.021355391 9933720
1.8029457 0.64393556 0.035338052 11579567
1.8047562 0.64529973 0.035392709 11579567
1.8061004 0.64884835 0.034589238 11184809
1.8069746 0.65099132 0.033115692 10526880
1.809469 0.65302593 0.033391245 10658466
1.8105996 0.65582609 0.032124944 10000023
1.8115393 0.65700591 0.032931454 10000022
1.8139738 0.6598466 0.032659538 10263196
1.8157591 0.66320944 0.032622702 9999512
1.8228807 0.67532325 0.028946348 10000536
1.8276528 0.681494 0.026537783 10592673
1.8341941 0.69388086 0.022954646 11118493
1.8359628 0.69355834 0.022788826 11184289
1.8365928 0.69671053 0.022130612 10526617
1.8380343 0.70016897 0.022500638 11316131
1.840976 0.70191407 0.021118108 10000021
1.8425353 0.70468509 0.020782355 10592928
1.8443077 0.70780456 0.020565812 10197657
1.8464364 0.71141338 0.020063881 10395797
1.8004265 0.64404738 0.03445138 10921120
1.8020362 0.64614487 0.035062261 11579567
1.8025575 0.64893436 0.033492573 10658207
1.8042092 0.65133333 0.032998867 10329244
1.8069937 0.6538499 0.032391973 10132120
1.8079662 0.65684956 0.032079525 10065814
1.8093653 0.65841639 0.03205467 10065303
1.8118696 0.66072279 0.031669863 10065046
1.8247317 0.68093795 0.02703584 10000536
1.8311859 0.69076544 0.021981303 10197146
1.8328869 0.69436091 0.022028033 10196888
1.8335521 0.69593668 0.020340566 10263707
1.8349018 0.69801581 0.020699862 9934487
1.8372798 0.70037508 0.020203654 9802641
1.8383169 0.70309705 0.020516161 9802898
1.79698 0.64312077 0.032870486 8683379
1.7984583 0.64496315 0.033177212 9999217
1.799414 0.6483345 0.032170728 10263184
1.8013819 0.65009159 0.032217391 10460830
1.8027645 0.6527288 0.031746157 10131610
1.8044009 0.65486753 0.031864472 10000025
1.825622 0.6873517 0.022973128 10329501
1.8294698 0.6929521 0.021254424 10000022
1.8309573 0.69609857 0.021626297 9407106
1.8313375 0.69695556 0.020053152 10592667
1.7959061 0.64488494 0.031853452 7763574
1.7969524 0.64797068 0.031587556 8026737
1.7989805 0.6517145 0.030164253 9671033
1.8007936 0.65485996 0.028468382 10000790
1.8013803 0.65715748 0.029685687 10197136
1.8240727 0.6913352 0.021135874 10658466
1.7941669 0.64720219 0.029420745 10197915
1.7956176 0.65037942 0.029097747 8882298
1.7969999 0.65246975 0.02922387 8684644
1.7991405 0.65571779 0.028644215 9737579
1.79934 0.65834409 0.028259348 8749938
1.7878419 0.64350182 0.028069094 11645361
1.7892241 0.64663064 0.027621821 11645361
1.79247 0.6495266 0.027122807 11645361
1.7946727 0.65299976 0.026511919 10329501
1.7957098 0.65632665 0.026559602 9737111
1.7971249 0.65841997 0.026797187 8223875
1.7873117 0.64651108 0.02711381 11645361
1.7897468 0.64994955 0.027433645 11645361
1.791852 0.6546759 0.024970423 11316140
1.7934033 0.65677178 0.025145363 10724259
1.7803485 0.64132917 0.026929513 11711154
1.7822319 0.64356613 0.027101293 11711154
1.7845324 0.64653116 0.026647165 11711154
1.7849776 0.64988637 0.026407138 11711154
1.7867813 0.64952046 0.026158407 11711154
1.7885139 0.65220302 0.025068298 11118505
1.7894361 0.65528423 0.023988437 10460576
1.790531 0.65713656 0.023845982 10790052
1.7923176 0.66012913 0.023368191 10460831
1.792794 0.66314733 0.022305023 10724259
1.7760453 0.63779104 0.026049688 11776947
1.7778778 0.64208835 0.025845483 11776947
1.7811781 0.64686131 0.025231555 10987432
1.7836533 0.65029287 0.023461953 10526112
1.784283 0.65171194 0.022745803 10724259
1.7863324 0.65421742 0.022959366 10460575
1.7875603 0.65736008 0.022297218 10395294
1.7890406 0.65986025 0.022371363 10395038
1.7917926 0.66602927 0.020613503 10724259
1.7940004 0.66619813 0.022065114 10724259
1.774779 0.64074445 0.024931863 11711408
1.7755985 0.64333403 0.025492385 11776947
1.7767295 0.64628547 0.023463801 11184555
1.7789861 0.64745951 0.023349121 10394783
1.7801297 0.64930487 0.02256377 10592673
1.7818524 0.65279007 0.022500589 10461087
1.7833295 0.65503681 0.022450462 10329245
1.784959 0.65806705 0.021757737 10197915
1.7876285 0.66037619 0.021321192 10132122
1.7754457 0.64737058 0.02201356 10592155
1.7766703 0.64912665 0.022394374 10592416
1.7787197 0.65171844 0.021988764 10526624
1.7799504 0.6546464 0.022205189 10394782
1.8676474 0.71843576 0.027080834 11776946
1.8702109 0.72146493 0.026825365 11776946
1.8724828 0.7280339 0.024473663 11842740
1.8743641 0.72763169 0.024276849 11842740
1.859434 0.71181804 0.026212811 11711404
1.8610305 0.71500689 0.026066124 11776946
1.8639843 0.71802682 0.025800347 11776947
1.866938 0.72104657 0.02553457 11842740
1.8689348 0.72503883 0.02477574 11842740
1.8705488 0.72835368 0.02469122 11842740
1.8565718 0.71227938 0.026565135 11711403
1.8581681 0.71546829 0.026418507 11776947
1.8597822 0.71878314 0.026333988 11842740
1.8640759 0.72150809 0.025886893 11842740
1.8661251 0.72558272 0.025107205 11842740
1.8678738 0.72956997 0.022497531 10723232
1.8490938 0.70472628 0.026257515 11711148
1.8519099 0.70853412 0.025400281 11711407
1.852497 0.71202362 0.025331259 11711406
1.8543782 0.71162134 0.025134504 11579820
1.8549781 0.71505129 0.025101721 11645613
1.8593917 0.72057271 0.02209723 10592161
1.8618827 0.72322524 0.022007823 10592418
1.8626626 0.72676682 0.021752179 10657442
1.8654916 0.72972882 0.020539284 10657954
1.8222209 0.66715407 0.034808882 11579822
1.8236538 0.6703527 0.034527428 11579822
1.8263774 0.66992974 0.03421659 11579822
1.8269773 0.67321241 0.034080215 11513516
1.8276296 0.67657721 0.033923157 11184547
1.8305808 0.67853874 0.03185869 11184547
1.8431898 0.69871187 0.026897971 11315360
1.8456759 0.70177722 0.026590709 11118750
1.8471599 0.70504612 0.026475076 11645356
1.8481895 0.70919824 0.025825027 11711406
1.8506405 0.71230698 0.025600731 11645615
1.8526695 0.71425521 0.022910655 10460830
1.853896 0.71586704 0.022467494 10065303
1.8550775 0.7193315 0.022362292 10460576
1.8569878 0.72077113 0.021003187 10460831
1.8583602 0.72407687 0.021112204 10460831
1.8604016 0.72710544 0.020253599 10657441
1.8121628 0.65600407 0.035830267 11579568
1.8144644 0.66071016 0.034345157 11645360
1.8180002 0.66539931 0.033835001 10461342
1.8199682 0.66799843 0.034134515 11053479
1.8207785 0.67175758 0.0330543 10592673
1.8231659 0.67336923 0.033706851 11514029
1.823929 0.67485803 0.030719765 10065306
1.8397095 0.70184833 0.025709216 10986395
1.8413974 0.70331919 0.025475208 10920863
1.844026 0.70458925 0.025142912 10921375
1.84594 0.7085802 0.024409954 11645357
1.8476611 0.71192425 0.023029212 10196373
1.8499296 0.71475685 0.02220875 10394781
1.8520124 0.71781123 0.021916986 10197660
1.853367 0.72111368 0.021728814 10658210
1.8542104 0.72159666 0.020809233 10263708
1.8564222 0.72476447 0.02069366 10460831
1.8580973 0.72847027 0.020309985 10657955
1.8068714 0.65262222 0.034991808 11579568
1.8082833 0.65378988 0.035824366 11250603
1.8099506 0.65679383 0.035442777 11053224
1.8106449 0.66036224 0.035076447 11119017
1.812323 0.66101992 0.033837028 10526624
1.8139542 0.66406298 0.033600576 10460831
1.8158406 0.6663419 0.033567853 10329245
1.8179727 0.66936052 0.033439048 10197405
1.8209069 0.67342538 0.031814404 10855334
1.823855 0.67868048 0.029974766 10065306
1.8384058 0.70106673 0.024117831 11513254
1.8396374 0.70370305 0.02229685 9472908
1.8415627 0.70658982 0.022025827 9408144
1.8435662 0.70944053 0.02180678 9605013
1.8451676 0.71217108 0.021138433 10263197
1.8456823 0.71489006 0.020155553 10329501
1.847095 0.71549267 0.021314029 10526623
1.8495982 0.71845633 0.020524621 10263452
1.8027622 0.64989102 0.03564126 11579564
1.8046099 0.65325689 0.035789974 11645360
1.8056117 0.65592122 0.034941919 10921638
1.8072325 0.65879035 0.034631319 10592673
1.809504 0.6603924 0.033232875 10197403
1.8103329 0.66301382 0.033255346 10065054
1.8117793 0.66526854 0.033352919 10000025
1.8137057 0.66712344 0.033803053 10658466
1.8156323 0.67061234 0.032795615 10394271
1.8202869 0.67712367 0.029194362 10197915
1.8328509 0.69756758 0.023108367 11250335
1.8343699 0.70079279 0.022910003 11316129
1.8357028 0.70297146 0.022898559 10987167
1.8388765 0.70690769 0.021292094 10131608
1.8407438 0.70959675 0.02137119 10263453
1.8435975 0.7148658 0.021031801 10460831
1.8472935 0.71937215 0.020122353 10066329
1.7997581 0.64948004 0.034340099 11579302
1.8011826 0.65261614 0.034027405 11645353
1.8012722 0.65444982 0.033829577 11119001
1.8035096 0.65595996 0.033362277 10526880
1.8048406 0.65907639 0.032471664 10000025
1.8064873 0.66136444 0.032727309 9999769
1.818056 0.68114638 0.027630217 10460833
1.8282197 0.69835138 0.02362651 10987166
1.8299116 0.6976226 0.022615854 10855576
1.8318672 0.70042837 0.022339765 10394259
1.8337491 0.70300013 0.02094901 10000018
1.8351663 0.7062335 0.021165315 9802643
1.8363019 0.70867407 0.020410661 9539213
1.79766 0.64891171 0.033023372 9211507
1.7985089 0.65205884 0.032098904 9803118
1.7995803 0.65525115 0.031998999 10131319
1.8005533 0.65743589 0.031982429 10263685
1.8024281 0.65958673 0.031271167 10196884
1.8193291 0.6868543 0.025747128 10724259
1.822907 0.68827981 0.023143776 10000536
1.8270873 0.69761443 0.021521814 10197400
1.8285807 0.70050526 0.020452444 9802641
1.8305206 0.70394152 0.020352427 10000017
1.7964379 0.65451008 0.030480158 8026739
1.7973455 0.6574375 0.029956948 8356196
1.7986032 0.65845704 0.03093208 9277035
1.7997047 0.66104758 0.029803168 8881023
1.7955643 0.65747023 0.028138768 10000535
1.7965552 0.65995783 0.028532576 8684670
1.7968197 0.6630531 0.02828313 8092030
1.7936602 0.65830243 0.027256917 11053224
1.7943364 0.66109741 0.026503932 10395040
1.795586 0.66351819 0.026159834 9868187
1.797623 0.66690862 0.025160026 9013891
1.7989073 0.66740417 0.026772331 8356207
1.7864019 0.65302217 0.026094571 11711154
1.7888504 0.65849072 0.026081633 11711154
1.7905943 0.65828699 0.025843333 11711154
1.7917893 0.66155124 0.026059579 11316396
1.7920706 0.66417211 0.024777722 11118505
1.7941191 0.66715282 0.024228465 10460577
1.796802 0.67020172 0.024354946 9342606
1.7801176 0.64724016 0.02717562 11776947
1.7823489 0.65025121 0.026728347 11711154
1.7837347 0.65340525 0.026389912 11711154
1.7866863 0.6579439 0.024685517 11711154
1.7881082 0.66116101 0.02340503 10855845
1.7899458 0.6634146 0.023126733 10592418
1.7908132 0.66543281 0.024066757 10657955
1.7926321 0.66811919 0.022689771 10395039
1.7934482 0.66994154 0.022042703 10724259
1.7770962 0.64685112 0.025915876 11776947
1.778482 0.65000516 0.025577441 11776947
1.7805234 0.65476704 0.02509816 11776947
1.7828406 0.65633792 0.023623481 10723748
1.7837676 0.65886939 0.02375032 10789796
1.7857661 0.66145074 0.023079351 10789796
1.7876799 0.66445959 0.022371903 10328990
1.7893662 0.66740513 0.021727454 10395294
1.7903261 0.67001516 0.020679068 10724259
1.7916371 0.67055213 0.022280823 10724259
1.7749711 0.65014952 0.023911312 11447453
1.7766857 0.6527431 0.023081318 11052968
1.7787598 0.65567088 0.022771612 10987175
1.7802799 0.65749621 0.023132995 10394782
1.7811092 0.66022575 0.022651926 10395294
1.7843746 0.66217399 0.021652117 10197915
1.7842788 0.66564071 0.021526113 10395294
1.7865663 0.66816521 0.02113612 10461087
1.7906357 0.67343414 0.020589244 10790052
1.774912 0.65391982 0.022195175 10591886
1.7762905 0.65634048 0.022779956 10592672
1.7774236 0.6588136 0.022147968 10525600
1.7778893 0.66088104 0.020781711 10329501
1.8612661 0.72205198 0.026218414 11842740
1.8632275 0.72608745 0.025542557 11842740
1.8648241 0.72927636 0.02539587 11842740
1.8676865 0.72881508 0.025043607 11842740
1.8553585 0.71601218 0.026750028 11842739
1.858106 0.72155386 0.024896562 11842740
1.861125 0.72593647 0.024910092 11842740
1.8655535 0.73126405 0.022616029 10789026
1.8487064 0.71262664 0.025818348 11645615
1.8512313 0.71567404 0.025537014 11711407
1.8527539 0.71892458 0.025447309 11842739
1.8552049 0.7220335 0.025222957 11842740
1.8581332 0.72590911 0.024438262 11842740
1.8603421 0.72846067 0.021870613 10657440
1.8617585 0.73272592 0.021205008 10657440
1.8176848 0.6678797 0.035337456 11645361
1.8215652 0.67416215 0.034722753 11579822
1.8239748 0.67717004 0.03439296 11316130
1.844425 0.70984244 0.026301805 11711406
1.8450035 0.71326894 0.026201729 11842740
1.8468851 0.71286678 0.026004855 11842740
1.848369 0.71613538 0.025889277 11842740
1.8518558 0.72240078 0.022765219 10658211
1.8535907 0.72257686 0.022806585 10658466
1.8547722 0.7260406 0.020772576 10460575
1.8563668 0.72936422 0.020434022 10657954
1.8598821 0.73346031 0.02056694 10723236
1.811958 0.66373837 0.03615845 11645361
1.8150555 0.66823852 0.035752006 10790052
1.8156139 0.67166764 0.035491116 11711154
1.8184525 0.67370886 0.033457883 11711154
1.8188245 0.67460692 0.035075016 11645615
1.8378109 0.70212477 0.025843922 10986907
1.8392947 0.70539343 0.025728349 11316385
1.8422195 0.70924395 0.024834815 11711407
1.8480322 0.71979618 0.022113085 10591904
1.8501508 0.72310817 0.021611214 10526624
1.8509674 0.72476065 0.021213889 10395294
1.8528343 0.7276215 0.020851314 10526111
1.8546571 0.73026186 0.020625412 10657954
1.8068458 0.656896 0.036483057 11645361
1.8064915 0.65968847 0.035595186 11119017
1.8077904 0.66162366 0.035174318 11053224
1.8099158 0.66466242 0.034969039 10987431
1.8112594 0.6671375 0.034300752 10197148
1.8128819 0.66816765 0.034414418 10000536
1.8140899 0.67088246 0.033486731 10460831
1.8181504 0.67717433 0.033445843 11711154
1.8362257 0.70495963 0.024411563 11052702
1.8385198 0.70921421 0.024164204 11645355
1.840498 0.71168679 0.021982078 10131099
1.842719 0.71633106 0.021731023 10592417
1.8436086 0.71791607 0.021611039 10196891
1.8449765 0.72109175 0.02155507 10526368
1.8477871 0.72382104 0.020255029 10263708
1.8026304 0.65681362 0.035259433 10987431
1.8038831 0.66007853 0.035345145 11053223
1.8057035 0.6629197 0.034745999 10460832
1.8081709 0.66565192 0.034152754 10065818
1.8093036 0.66829526 0.033672877 10394782
1.8102421 0.67127073 0.033298261 10724259
1.8127545 0.67274278 0.032991596 10065306
1.8321249 0.70466268 0.023188118 10987167
1.8355031 0.70945275 0.02259827 11250600
1.8377634 0.71326715 0.02164245 10328477
1.8379288 0.71426088 0.020871285 10724259
1.8397195 0.7167694 0.021404151 10592419
1.8011358 0.65960592 0.033726938 11250329
1.8012955 0.6617465 0.033639558 10592671
1.8034565 0.66365606 0.033135779 10131354
1.8048508 0.66568494 0.033088215 10724259
1.8061347 0.66869926 0.032900162 10724259
1.812789 0.6804167 0.029835708 10724259
1.8146002 0.67980629 0.029597528 10724259
1.8164405 0.68207604 0.027864821 10131102
1.8167011 0.68514258 0.027697392 10724259
1.82304 0.69577533 0.0243432 11513775
1.8254225 0.69883597 0.023994453 10855584
1.8260009 0.70226228 0.023894258 10724508
1.8289171 0.7042672 0.021912877 10789531
1.829289 0.70516539 0.023530129 11052962
1.8318719 0.70863134 0.02217013 10921891
1.8335055 0.71113616 0.021231536 10263451
1.8350588 0.71355295 0.020415369 10263451
1.7978115 0.66049838 0.032371596 8749153
1.7995149 0.66198194 0.031705566 10263427
1.800998 0.66420603 0.03201557 10130578
