# .PCD v0.7 - Point Cloud Data file format
VERSION 0.7
FIELDS x y z rgba
SIZE 4 4 4 4
TYPE F F F U
COUNT 1 1 1 1
WIDTH 1149
HEIGHT 1
VIEWPOINT 0 0 0 1 0 0 0
POINTS 1149
DATA ascii
1.9921829 0.067730695 0.061852932 10003394
1.9755322 0.047073308 0.063316345 8358046
1.9772552 0.0491453 0.063473821 10331838
1.9790394 0.051521976 0.063388109 11384522
1.9805555 0.053790148 0.063118041 11384521
1.9817371 0.05604957 0.062945902 11450310
1.9835827 0.058864336 0.062294722 10990022
1.9850911 0.061351519 0.061871171 10661063
1.9718899 0.045194458 0.062420309 7501700
1.973544 0.047147568 0.06285131 7700888
1.9755021 0.049591765 0.062641859 9674948
1.9684877 0.043411151 0.061100125 7500664
1.9699415 0.045229454 0.061620593 7304581
1.9612896 0.036559138 0.060249925 8880494
1.9629501 0.039142884 0.059787393 9011825
1.9648627 0.041620087 0.059867263 8091500
1.9664193 0.04324387 0.060293615 7500662
1.9595327 0.037209019 0.059006095 9340794
1.9610214 0.039802283 0.059017241 9012086
1.9625573 0.041848425 0.059217274 8091502
1.956121 0.035995513 0.058719218 9406588
1.957597 0.038241711 0.058307409 9143674
1.9591632 0.039715707 0.058303595 8880760
2.0620835 0.13532548 0.063066423 10658729
2.0641897 0.13819513 0.062460661 10658473
2.0655146 0.14126164 0.062440753 10790316
2.0666423 0.142809 0.061842084 10922157
2.0563486 0.13110121 0.062548995 10395814
2.058048 0.13258047 0.062704265 10592935
2.059263 0.13478811 0.062511563 10527143
2.060847 0.1373886 0.062253773 10658731
2.0627408 0.13981 0.06110847 10725303
2.0640762 0.14206067 0.059778571 10463165
2.0657618 0.14467886 0.059595048 10594237
2.0673268 0.14691155 0.059191227 10331065
2.0686941 0.14943232 0.058014452 9607094
2.0705822 0.15176149 0.057675719 8224916
2.0715327 0.15485181 0.056144893 6580607
2.0719945 0.15638368 0.056092799 5659765
2.0542276 0.13053955 0.060955524 10593973
2.0554345 0.13318127 0.061336577 10527662
2.0568237 0.13565832 0.059915841 10725821
2.0588849 0.13793857 0.059469163 10791613
2.0605497 0.14053755 0.058899462 9937341
2.0620162 0.14301868 0.058844745 9871806
2.0638559 0.14536767 0.058640242 9477308
2.0659647 0.14782694 0.057904482 8951483
2.0685017 0.14918548 0.056488156 8819389
2.0688853 0.15176067 0.056546688 8950457
2.0703635 0.15464616 0.055428267 7700138
2.0724397 0.15726618 0.052873611 5266565
2.0731318 0.15953122 0.05318445 5396847
2.0738928 0.16240944 0.052628517 5264735
2.076525 0.16449575 0.05073607 6642767
2.0786061 0.16728941 0.050022125 7234122
2.0799143 0.16919519 0.04979974 7365707
2.0817418 0.17191727 0.049322009 7431758
2.0832012 0.17409669 0.049221516 7563089
2.0490534 0.1266464 0.059955657 10857407
2.0503225 0.12853466 0.059904814 10725821
2.0519094 0.13117252 0.059388518 10791612
2.0534556 0.13372129 0.059117079 10528698
2.0554636 0.13611962 0.057912111 9937340
2.056937 0.13887621 0.057768583 9543100
2.0587065 0.14079873 0.057797253 9214397
2.0597165 0.14354001 0.058127642 8688827
2.0721562 0.16032892 0.052534044 6318996
2.073915 0.16335174 0.050859451 5594747
2.0750756 0.1650278 0.050367713 5856614
2.0762482 0.16785063 0.049596429 6315874
2.0781391 0.17028853 0.048527837 6709592
2.0795867 0.17264211 0.047934711 6906711
2.0812838 0.17471607 0.046791315 6775646
2.0829437 0.17742926 0.046452045 6841438
2.0423324 0.1199731 0.059598148 10725821
2.0436385 0.12210421 0.059552789 10922940
2.0451884 0.12436277 0.059248745 10791611
2.0468118 0.12700307 0.058728456 10528699
2.0484273 0.12953815 0.058362126 10397370
2.0499709 0.13183931 0.057684064 9805755
2.0513241 0.13458997 0.057359517 9543099
2.0532804 0.13711758 0.057306588 9477306
2.054826 0.13884456 0.057294965 8885690
2.0753367 0.16891742 0.048272133 5331826
2.0767999 0.17088689 0.047268093 5791597
2.0779274 0.17359781 0.046806276 5659748
2.0791321 0.17588753 0.046493948 6250589
2.0806673 0.17836072 0.04565239 5856349
2.083034 0.18111716 0.045152545 6119261
2.0333455 0.11127027 0.060245693 10594492
2.0351083 0.11375793 0.05923146 10725817
2.0366993 0.11549316 0.059291184 10397112
2.0384121 0.11820123 0.05896765 10462905
2.0400648 0.12097801 0.058608353 10265785
2.0418692 0.1233917 0.058381498 10068665
2.0433817 0.12599801 0.058102727 9937081
2.0449634 0.12781686 0.057712555 9608633
2.0459802 0.12978837 0.057211101 9411258
2.0477488 0.13277489 0.056699574 8951484
2.0239701 0.099580087 0.061651409 10791612
2.0249219 0.10199007 0.061345935 10660027
2.026387 0.10448234 0.06083256 10659769
2.0284159 0.10691413 0.060234904 10462905
2.0302522 0.10912309 0.059945643 10528440
2.0313075 0.11188865 0.059328318 10134454
2.0330753 0.11447664 0.058846474 9871287
2.0347989 0.11684643 0.058525443 9739958
2.0363688 0.11939394 0.058193088 9674167
2.0381589 0.12197558 0.057873487 9739959
2.0396242 0.12415226 0.057626307 9016761
2.0152075 0.090942062 0.061970294 10988991
2.0163307 0.092834279 0.061915874 10988990
2.0183148 0.095447354 0.061478436 10988986
2.0199063 0.097958118 0.061129391 10857401
2.0215092 0.10063385 0.06071341 10528952
2.0231981 0.10276912 0.060245454 10331575
2.0245404 0.10501908 0.059826493 9937079
2.0261891 0.1075739 0.059625208 9805494
2.0277967 0.11012957 0.059085846 9608374
2.0295153 0.11249029 0.058352172 8885174
2.0311999 0.1154106 0.058016598 8425138
2.0321982 0.1173657 0.057889104 8490931
2.0096552 0.086391725 0.061692894 10988988
2.0113871 0.089034952 0.061332047 10857659
2.0128722 0.091500595 0.061079144 10660538
2.0146074 0.093874566 0.060928702 10791863
2.0162764 0.096284583 0.060370207 10331575
2.0180178 0.099071041 0.060131431 10266039
2.0195596 0.10122436 0.059603155 9739959
2.0214889 0.10368407 0.059265673 9345463
2.001555 0.077444628 0.061964571 10923455
2.0027533 0.080099709 0.061652839 10791610
2.0043733 0.08224868 0.061611652 10923449
2.0061867 0.084699996 0.061193764 10726074
2.0075479 0.087271094 0.060868442 10660279
2.0093415 0.089684866 0.060458004 10199992
2.0109053 0.092135772 0.060219824 10134454
2.0128138 0.094774015 0.059812129 9871542
2.0142663 0.097396351 0.05929631 9477047
2.0163269 0.099796422 0.058996618 9542838
1.9927851 0.06851238 0.06296587 10923203
1.9941413 0.071254134 0.062606573 10791616
1.9956689 0.07302925 0.062369764 11054780
1.9974256 0.075654022 0.061635971 10660284
1.9989902 0.078286082 0.061396301 10660538
2.0008385 0.080577642 0.061019421 10594489
2.0022585 0.083303861 0.060580134 10134456
2.0039096 0.085598573 0.060201108 10003128
2.0053103 0.08794263 0.059448004 9542583
2.0067222 0.090139888 0.059333503 9476791
1.9823374 0.057032779 0.063894391 11384264
1.9837779 0.059279274 0.063875377 11252422
1.9859751 0.061307579 0.063568711 11252422
1.987031 0.064156778 0.063155115 11318209
1.988973 0.066849567 0.062605739 10989503
1.9905632 0.069261968 0.062030256 10792126
1.9925619 0.071586587 0.061704218 10528956
1.9938263 0.074305467 0.061372459 10397371
1.9954357 0.076535314 0.060781956 10134458
1.9971924 0.079156213 0.06032449 9937081
1.9989523 0.081573501 0.060065091 9411513
1.9997462 0.083568588 0.059671879 9477304
1.9756244 0.051103707 0.063993573 11515851
1.9771935 0.053122804 0.064182758 11647177
1.9790456 0.055305332 0.063633978 11450056
1.9804662 0.058024511 0.063107908 11187142
1.9823469 0.060312986 0.062710702 11384003
1.9839755 0.062751092 0.062394559 10989505
1.9851176 0.065338396 0.061901927 10660801
1.9872042 0.067474037 0.061835825 10463423
1.9886303 0.070608445 0.061426878 9937855
1.9703166 0.047005285 0.063331008 8029339
1.9720879 0.049045578 0.063734949 10266044
1.9736989 0.051129133 0.063537657 11647177
1.9751898 0.053675383 0.063292265 11318985
1.9770678 0.056189407 0.062975228 11252935
1.9784099 0.058682781 0.062656045 10924229
1.9803495 0.061012421 0.062192202 10989764
1.9810914 0.063115917 0.061696291 10463941
1.9669585 0.04540626 0.062565207 7369597
1.9683628 0.047288667 0.062833905 8029339
1.970434 0.049505234 0.062815726 10266306
1.9714339 0.052020095 0.063003719 11318990
1.9724016 0.053848509 0.062579572 11121867
1.9631428 0.043715011 0.061318219 7368558
1.9646611 0.045333263 0.061616302 7238272
1.9662857 0.047572445 0.062108636 7306650
1.9566953 0.037113037 0.060290039 8814445
1.9580283 0.038817376 0.059999347 8683117
1.9596065 0.04160212 0.060031474 8091239
1.9612029 0.043705508 0.060370207 7236976
1.954278 0.037213542 0.05935663 9077876
1.9557937 0.039801937 0.058904648 9011829
1.9576262 0.041761331 0.059087873 8222829
1.9505951 0.035760581 0.059175014 9275001
1.9522536 0.038165793 0.058488309 9143676
1.9537818 0.039914649 0.058394611 9012088
2.0598099 0.13921532 0.062541187 10658216
2.0614655 0.14132455 0.062474489 10658730
2.0626054 0.14398825 0.062067389 10724526
2.0640612 0.14649162 0.061745524 10790318
2.0656309 0.14852126 0.061326265 10790321
2.0670848 0.15047315 0.060084045 10462135
2.0688181 0.15373701 0.059291065 9803945
2.0701504 0.15638122 0.057815969 8291227
2.0544043 0.13490827 0.061570287 10461094
2.0563376 0.13654403 0.061976254 10527143
2.0572913 0.13963868 0.061889529 10592938
2.0592713 0.14251529 0.061096966 10659250
2.060843 0.14479092 0.059944451 10660028
2.0624437 0.14687872 0.05939275 10397374
2.0640228 0.14940362 0.059115589 10068670
2.0655074 0.15170051 0.058604777 9543102
2.0671501 0.15398131 0.058024228 9476799
2.0689824 0.15698944 0.056688607 8424373
2.0699458 0.1583983 0.056689918 7765665
2.0712912 0.16189161 0.054955244 6515851
2.0819564 0.17676784 0.049477339 7563087
2.0830095 0.17809345 0.049225271 7628879
2.052176 0.13508169 0.060721815 10461610
2.053544 0.1379856 0.060382307 10593455
2.0554035 0.14028239 0.059682012 10594232
2.0572064 0.14276011 0.058760166 10265788
2.0587223 0.14520942 0.058460653 9937341
2.0600493 0.14777304 0.05795759 9148861
2.0616617 0.14962184 0.057882428 8754618
2.0627642 0.15175223 0.058069766 8885947
2.0707347 0.16161112 0.05389899 7700655
2.0717556 0.16423079 0.053553045 6581389
2.0732892 0.16701049 0.051618397 5266042
2.0749876 0.16982625 0.051058412 5461081
2.07639 0.17204671 0.050067306 6445908
2.0782189 0.17449626 0.049272478 7037523
2.0798244 0.17682815 0.049181163 7300433
2.0814879 0.17928538 0.048776209 7497555
2.0830667 0.18168128 0.048275769 7498071
2.0471416 0.13130413 0.059141636 10857404
2.0488002 0.13363823 0.058845401 10791612
2.0500462 0.13636203 0.059085965 10659768
2.0520167 0.13883711 0.057630599 10199995
2.0537012 0.14107941 0.057495773 9871547
2.0549948 0.14378196 0.057644844 9608636
2.0565903 0.14562792 0.057669222 8820154
2.0741673 0.17056805 0.049785376 6187145
2.075181 0.1725654 0.049410701 5857136
2.0761883 0.17527997 0.047852039 6054516
2.0777066 0.17763647 0.047257364 6185320
2.0798435 0.17969657 0.04618144 6776414
2.0813155 0.18190794 0.045496583 6447453
2.0822725 0.18493859 0.045047462 6579037
2.0400608 0.12467787 0.059042335 10594235
2.0416975 0.12737924 0.058383286 10462905
2.0434525 0.12972988 0.058215499 10331322
2.045037 0.13198745 0.057822466 10200250
2.0468473 0.13460401 0.057579756 10134458
2.0484197 0.13726795 0.05684948 9674426
2.0495422 0.13980943 0.056723118 9477307
2.0512509 0.14197524 0.056834936 9345979
2.0777791 0.18048456 0.045336783 5726845
2.0793056 0.18247557 0.044915318 5594212
2.0286314 0.11133029 0.060441375 10528441
2.02966 0.11263438 0.060487449 10265271
2.0310316 0.1157505 0.059888184 10067892
2.0330803 0.11782131 0.059382081 10462646
2.034472 0.12048648 0.058982193 10528438
2.0363023 0.12308464 0.058511555 10265527
2.0380642 0.12561706 0.058110416 10068407
2.0395603 0.12819506 0.057662427 9739704
2.0411987 0.13053787 0.057323396 9542584
2.0427198 0.13280152 0.05696696 9542840
2.0447381 0.13573755 0.056325078 8951225
2.0465419 0.13734081 0.056206346 9082555
2.021837 0.10477541 0.060756981 10725819
2.0231416 0.10653795 0.060587704 10660025
2.024648 0.10892411 0.060063004 10462903
2.0260031 0.11188529 0.059814751 10396854
2.0280359 0.11397431 0.059173405 9936820
2.0295739 0.11650164 0.058800995 9805491
2.030874 0.11905868 0.058367193 9345203
2.032594 0.12121939 0.057968676 9082291
2.0345273 0.12377936 0.057486296 9279668
2.0356302 0.12613925 0.057451248 9213876
2.0373113 0.12827432 0.056958139 8950966
2.013098 0.095034204 0.061383963 10922940
2.0147712 0.098093033 0.060965121 11054522
2.0161352 0.10039128 0.060694635 10988985
2.01806 0.10275215 0.060315669 10857399
2.0195606 0.10523489 0.059900343 10594487
2.0211511 0.10759836 0.059517801 9937079
2.0225899 0.11002599 0.059248567 10068405
2.0243454 0.11196226 0.058668435 9739701
2.02562 0.11458568 0.058157086 9082292
2.0274477 0.11682286 0.058054984 8687794
2.005924 0.08843042 0.061144352 10922937
2.0079985 0.090806045 0.061187804 10791608
2.0097401 0.09383934 0.060717642 10791609
2.011061 0.096350081 0.060531676 10725814
2.012507 0.09872102 0.060126781 10528694
2.0141468 0.10105933 0.059630513 10331573
2.0156393 0.10349026 0.059218228 9937077
2.0172975 0.10604574 0.058891416 9542581
2.0197785 0.10886873 0.058783233 9411254
2.0206766 0.11074428 0.058792591 9082295
1.9973172 0.080007948 0.0618608 10660284
1.999019 0.082177937 0.061430573 10791607
2.0010004 0.084467947 0.061485231 10857401
2.0022302 0.087232523 0.06103164 10725814
2.0037286 0.089577042 0.060586631 10397366
2.0057452 0.092265144 0.060146332 10199989
2.0075586 0.094444714 0.059901834 9937077
2.008852 0.096789882 0.059091687 9213877
2.0101469 0.099195391 0.058963001 9345461
2.0116277 0.10147792 0.058695555 9082292
2.0132163 0.10340261 0.058475792 9279669
1.989314 0.070844844 0.062842727 10857664
1.9904716 0.072940134 0.062425792 11055037
1.9923764 0.075553246 0.062126935 10988986
1.994005 0.078251041 0.061801136 10791609
1.9953188 0.080586702 0.061397076 10660280
1.9971544 0.08301533 0.060808659 10331574
1.999184 0.08560916 0.060387433 9937078
2.0002873 0.088073559 0.059815705 9674165
2.0024779 0.09010645 0.059293628 9279413
2.0031214 0.092399992 0.059518516 9213620
1.980848 0.061713152 0.063139796 11318210
1.9819316 0.064090818 0.062887847 11317952
1.9837599 0.06637539 0.062901318 11120831
1.9855793 0.068981543 0.062406957 10989246
1.986989 0.071700081 0.06214112 10857659
1.9890026 0.073976427 0.061659634 10528954
1.9904445 0.076663554 0.061206162 10266041
1.9919991 0.079140849 0.060550869 9805753
1.9939409 0.081799351 0.059955955 9476792
1.9957516 0.084353678 0.059653163 9673910
1.9972543 0.085951537 0.059567451 9345463
1.9720964 0.052479614 0.063997984 11778504
1.9737206 0.055423714 0.063927293 11449799
1.9753149 0.05789835 0.06333679 11252676
1.9769831 0.060206912 0.063040912 11449793
1.9785365 0.062758923 0.062678397 10989505
1.9801688 0.065279052 0.062095165 10858175
1.9817441 0.067632996 0.061956763 10660542
1.9833045 0.069678426 0.061654449 10529212
1.9851896 0.072336562 0.061309636 10068925
1.9874494 0.074874163 0.060595632 10003130
1.9881585 0.076193817 0.060381353 9805754
1.9654682 0.046725847 0.063395977 7107972
1.9669267 0.048974637 0.064097762 10528956
1.9684056 0.051009577 0.063755214 11712968
1.9698581 0.053430166 0.063352704 11384519
1.9716687 0.056211811 0.063127577 11450053
1.9732424 0.058771998 0.062761843 10923973
1.9749773 0.061137144 0.0622437 10726852
1.9769011 0.063223884 0.061771631 10529474
1.9780689 0.066353843 0.061390936 10332096
1.9615338 0.045828912 0.062866926 6777971
1.9633628 0.047272574 0.062944949 7831960
1.9648703 0.0495531 0.063082278 10595011
1.9668202 0.052068602 0.062854886 11318730
1.9677863 0.054530445 0.062800348 11384263
1.9581574 0.044276062 0.061499178 6842216
1.9596351 0.045537751 0.061753273 6975097
1.9612147 0.047462448 0.062333345 7569306
1.9543867 0.041651521 0.059759498 8025188
1.9562083 0.04384071 0.060345054 7039334
1.9576577 0.045336902 0.061080933 7040376
1.9491231 0.037181437 0.059460878 9143669
1.9508697 0.039654732 0.059177399 8946035
1.9523479 0.04200248 0.059245944 8156777
1.9540126 0.043809004 0.059784651 6907749
1.9455614 0.035528678 0.059381008 9406586
1.9473242 0.038008634 0.059048414 9143674
1.9486766 0.040390562 0.058716595 8814452
1.9503192 0.041607223 0.058469176 8485746
1.9440627 0.036825299 0.058672667 9209724
2.0640962 0.15088324 0.061606765 10724522
2.0656023 0.15252943 0.061717629 10790061
2.0669875 0.15558241 0.061159611 10658989
2.0571766 0.1433405 0.061421394 10658474
2.0594585 0.14560182 0.061608255 10658730
2.0608375 0.1484074 0.061431527 10658990
2.0622206 0.1508301 0.061244249 10725043
2.0639269 0.15329835 0.059976637 10660029
2.0655808 0.15586612 0.059502125 10397119
2.0669098 0.15812072 0.058958173 10068158
2.0684271 0.16039516 0.057772815 8884404
2.0699866 0.16306487 0.056573629 8751517
2.0700672 0.16545196 0.056886554 8620446
2.0517318 0.14020775 0.061074138 10461863
2.053997 0.1415078 0.061062753 10658728
2.055573 0.14391379 0.060858667 10527661
2.0571239 0.14703657 0.060593545 10658992
2.0587919 0.14904845 0.059510112 10594492
2.0607111 0.15160899 0.058706105 10003133
2.0621965 0.15427405 0.058200896 9543101
2.0632207 0.15647642 0.057979107 9148861
2.0652139 0.15883574 0.05785805 8951741
2.0674765 0.16233034 0.057494998 9214146
2.0690026 0.16341177 0.05613035 8358838
2.07078 0.16567984 0.054816544 6713754
2.0714774 0.16809687 0.054445565 6515587
2.0725279 0.1704344 0.05282414 5792123
2.073987 0.17291887 0.051951885 6185579
2.0777924 0.17799136 0.049836516 6905933
2.0797346 0.18076988 0.049176872 7431501
2.0815015 0.18370834 0.048665047 7563346
2.0826888 0.18556546 0.048350751 7694677
2.04707 0.13467312 0.060870886 10395811
2.0488572 0.13826127 0.060513735 10461350
2.0503862 0.14045762 0.059878051 10527661
2.0520051 0.14276129 0.059492469 10659508
2.0533168 0.14508025 0.058897734 10660024
2.055063 0.14746282 0.058061242 9805755
2.0568969 0.14978291 0.057825387 9740220
2.058141 0.15238531 0.057623148 9279930
2.0600255 0.15441272 0.057349801 8820155
2.0722709 0.17112951 0.051913679 6713755
2.073329 0.17380576 0.051175892 6318472
2.0750251 0.17650241 0.050259948 6711408
2.0760617 0.17898326 0.049393892 6711146
2.0781519 0.1810715 0.048831105 7038040
2.0795012 0.18330173 0.048089385 7235160
2.0808346 0.18608078 0.046533167 7301212
2.0827501 0.18888764 0.046124876 7235677
2.0436296 0.13398214 0.058257401 10791609
2.0451326 0.13633253 0.058027565 10791609
2.0466127 0.13870102 0.058741689 10593971
2.0485959 0.14135927 0.058190942 10725817
2.0499485 0.14366591 0.057390213 10200250
2.0513787 0.14561424 0.057200134 9345721
2.0525165 0.14850956 0.056815088 8819897
2.07582 0.18142392 0.04748708 6385032
2.0779531 0.18457513 0.045623839 5726323
2.0795577 0.18674967 0.04484427 5725540
2.0809226 0.18944786 0.044615924 6185055
2.0824339 0.19208422 0.044363558 6119262
2.0381384 0.12965955 0.058183789 10594232
2.04006 0.13210273 0.058122873 10660024
2.0416415 0.13480046 0.057855308 10331321
2.0431602 0.13698266 0.057506502 10265785
2.0445395 0.13931447 0.056574643 9871288
2.0461681 0.14170697 0.056446075 9674169
2.0478916 0.14397679 0.056177557 8951226
2.0484219 0.14622645 0.056199729 8885434
2.026731 0.11561513 0.059936762 10331062
2.0282178 0.11871523 0.05976516 10331063
2.0292244 0.12080937 0.059206903 10330805
2.0311365 0.12282451 0.0586496 10002355
2.0328877 0.12530135 0.058339059 10068148
2.0345266 0.12802063 0.05791539 10002613
2.0362701 0.13037331 0.057567775 9871029
2.0379202 0.13250615 0.057250261 9608374
2.0394969 0.13476858 0.05671674 9213622
2.0410912 0.13744502 0.056158841 8819380
2.0425284 0.13996893 0.055773973 8819381
2.0438447 0.14195687 0.055642009 9017016
2.0181797 0.10730461 0.060380876 10791611
2.0192897 0.10923427 0.060210645 10791354
2.0215795 0.11143973 0.059983253 10659770
2.0225391 0.11404245 0.059498429 10462645
2.0244863 0.11641072 0.058849931 10068405
2.0262907 0.11882037 0.058616877 9936820
2.0276773 0.12121842 0.058276594 9542578
2.0291924 0.12377342 0.057834685 9344947
2.0311048 0.12615207 0.057437181 8819377
2.0328829 0.1290203 0.05708462 8556467
2.034966 0.13158044 0.056748092 8688052
2.0361516 0.1337996 0.056252956 8688053
2.0369811 0.13517578 0.056086421 8556724
2.0128763 0.10261033 0.060442626 10725560
2.0147927 0.10527974 0.059967399 10791607
2.0160244 0.10765273 0.059654832 10265782
2.0176556 0.10969392 0.059152961 10134196
2.0191629 0.11241855 0.058959842 10134196
2.0208387 0.11467002 0.058235824 9213619
2.0222833 0.11728463 0.058042884 9279410
2.0239246 0.11967717 0.057918191 9279667
2.0260022 0.12221161 0.057500482 8819380
2.0270875 0.1242357 0.057385325 8819123
2.0042293 0.093635947 0.060807288 10528438
2.0061417 0.096315727 0.060504556 10528437
2.0077617 0.098575711 0.060288727 10594228
2.0091901 0.10087948 0.059901178 10331316
2.0107381 0.10349188 0.059308529 10068403
2.0124969 0.10602227 0.058870077 9673906
2.0138679 0.10814369 0.058741748 9542324
2.0153189 0.11062566 0.058542311 9673906
2.017117 0.11321838 0.058236241 9016499
2.0184526 0.11528017 0.057759106 8819378
1.9943677 0.081954293 0.061753571 10528698
1.9957255 0.08438091 0.061449945 10725816
1.9969139 0.086731657 0.061406076 10660022
1.9988285 0.089340612 0.060824931 10462902
2.0005314 0.091913901 0.060544193 10331316
2.0023315 0.094430104 0.059950769 10002610
2.0038633 0.096949577 0.059613228 9739442
2.0054164 0.099403612 0.059001207 9410737
2.0073781 0.10158039 0.058542073 9016242
2.0084665 0.10455509 0.05851239 8884657
2.0096598 0.10635173 0.058289289 8950706
1.9859647 0.073692396 0.062498689 11251899
1.9872875 0.075704888 0.062251687 10988985
1.9887794 0.078118928 0.06192857 10725817
1.9902848 0.080447301 0.061694503 10791863
1.9919688 0.082848601 0.061207116 10528694
1.9937208 0.085305057 0.060766935 10331572
1.9953492 0.087717235 0.05983299 9936819
1.9969677 0.090153076 0.059782565 9674162
1.9983143 0.09263476 0.059457839 9410738
2.000535 0.094951525 0.059242308 9213619
1.9783733 0.066261366 0.063002884 10857666
1.9799919 0.068620339 0.062461972 11186364
1.9821335 0.071535118 0.062173426 10857659
1.9838067 0.074257068 0.061878324 10726329
1.9853622 0.076530218 0.061492264 10528952
1.986899 0.078769319 0.0609532 10462903
1.9882973 0.081408106 0.060278356 9739957
1.9899428 0.083693616 0.059992909 9805749
1.9916043 0.085962981 0.059563756 9542324
1.9935808 0.088268146 0.05927527 9410995
1.9944876 0.090225831 0.059375107 9476788
1.9666352 0.052548278 0.064707279 11186887
1.9681622 0.054798696 0.064326823 11186630
1.9700532 0.057646751 0.063809156 11252419
1.9719356 0.060251217 0.063146174 11318466
1.9735622 0.06248704 0.063050508 11055296
1.9753073 0.064685203 0.062629879 11055040
1.9767351 0.067413799 0.062240005 10923453
1.9784074 0.069867797 0.061704874 10529211
1.9799662 0.072469026 0.061708927 10463162
1.9817578 0.074812338 0.060993969 10068665
1.9830678 0.076930337 0.060689151 9739960
1.9848527 0.079405762 0.060402572 9871543
1.9619704 0.049195826 0.06409204 10726079
1.9634498 0.051011518 0.06420064 11449798
1.9647113 0.053613253 0.063601911 11252676
1.9665239 0.056137595 0.063277841 11318468
1.9684198 0.058703393 0.062836766 11055555
1.9698819 0.061103199 0.062675834 10923969
1.971453 0.063370585 0.062171876 10726592
1.9731852 0.065877005 0.061647713 10266303
1.9752076 0.0682294 0.061459303 10134975
1.9581712 0.047356218 0.06316781 7831699
1.95954 0.049354699 0.063453078 10397631
1.9614847 0.051538371 0.063216507 11318473
1.9627974 0.054215863 0.062989175 11318470
1.9641163 0.056712449 0.06269443 10661063
1.9543176 0.045540441 0.061842501 6645871
1.9562014 0.047386825 0.062654793 7305874
1.9493243 0.041840177 0.05976069 8222310
1.9508499 0.043964326 0.060431719 6775900
1.9523057 0.045376707 0.061106086 6382697
1.9421874 0.035413977 0.060157537 8748910
1.9436597 0.036933336 0.059833825 9209205
1.9454916 0.039555863 0.059518158 8946034
1.9471345 0.042144202 0.059456885 8090726
1.9488797 0.043885324 0.059883833 6775387
1.9405911 0.03538296 0.059446156 9472378
1.9417346 0.037976708 0.059163928 9143672
1.9439344 0.040107813 0.05891645 8880500
1.9453388 0.042562984 0.058936238 7893866
1.9383999 0.036126889 0.058968782 9209980
2.0605576 0.15204036 0.06182915 10790058
2.062499 0.15471725 0.061676323 10856111
2.0638678 0.1573991 0.061425626 10856367
2.0657208 0.15955597 0.060356081 10790838
2.0666821 0.16198707 0.059907675 10856374
2.068058 0.16429485 0.058512628 10067632
2.0541649 0.14601722 0.061126888 10527143
2.055865 0.14833544 0.061101317 10461608
2.057483 0.15068424 0.061051786 10658987
2.0585928 0.15338071 0.060742259 10659250
2.0605373 0.15577036 0.060209155 10725303
2.0619795 0.1580621 0.059424639 10594494
2.0636661 0.16053094 0.059041739 10266048
2.0653741 0.16303582 0.058446407 9806017
2.0668325 0.16529973 0.058166027 9739969
2.068732 0.16775878 0.05699116 9278900
2.070096 0.16981813 0.055607378 8357797
2.0712767 0.17273326 0.054751694 7502224
2.050139 0.14412668 0.06022799 10461349
2.0516436 0.14651245 0.0601964 10527146
2.0538006 0.14896201 0.060014069 10593199
2.0549781 0.15188193 0.059468448 10659769
2.0569928 0.15407093 0.058879435 10331323
2.0584657 0.15669346 0.058074415 9871805
2.0599861 0.15892647 0.057544112 9083325
2.0614076 0.16141489 0.057450771 9017534
2.0628791 0.16301651 0.057700813 9017791
2.0709894 0.17346989 0.053483903 7963558
2.0721555 0.17589839 0.052666962 7831708
2.0732181 0.1787346 0.051015437 6976910
2.074599 0.18060435 0.051053643 5528684
2.0764253 0.1829353 0.050115049 6052444
2.0783439 0.18491513 0.049593866 7103061
2.0799682 0.18742786 0.049119771 7431506
2.081075 0.19043861 0.048419654 7563347
2.0828822 0.19191526 0.047930419 7760724
2.0454307 0.14007255 0.060007393 10329765
2.0469599 0.14292794 0.059528232 10527145
2.0482652 0.14506198 0.059355676 10593455
2.0497501 0.14719664 0.058516204 10659766
2.0516107 0.14977732 0.057911396 10265787
2.0532107 0.15223911 0.057504416 9542843
2.0551002 0.15486698 0.05730623 9345724
2.0561223 0.15722127 0.057157695 8885692
2.0581157 0.15999651 0.056966126 8951742
2.0746362 0.18337616 0.04904592 4806785
2.0761123 0.18644108 0.047755837 4739692
2.0776565 0.18883559 0.046738148 5856360
2.0791743 0.1909667 0.046003342 6447459
2.0807245 0.19371398 0.045598567 6907489
2.0826936 0.19579527 0.044662833 6776160
2.040983 0.13747643 0.057711542 9936562
2.0429676 0.14045437 0.058832943 10461869
2.0448692 0.14324769 0.057662189 10659767
2.0461416 0.1457551 0.057136953 10265785
2.0480776 0.1481946 0.056882679 9608378
2.04953 0.15059574 0.056836843 9148602
2.0766511 0.18775913 0.045196414 5596564
2.0772574 0.19151939 0.045484781 4675198
2.0791416 0.19479299 0.044906378 5659755
2.0809357 0.19752294 0.04394567 5856869
2.0818193 0.19897996 0.043755889 6053984
2.0326023 0.1293748 0.058419704 10002099
2.0346677 0.13202764 0.05791229 10331062
2.036571 0.13444906 0.057834625 10331061
2.0378506 0.1368216 0.05738467 9870772
2.0390894 0.13873626 0.05699259 9673395
2.0409985 0.14146666 0.056558371 9739701
2.0425115 0.14420813 0.056256354 9674167
2.0446773 0.14648309 0.055616558 8951225
2.0462155 0.14954776 0.055935383 8951226
2.0237205 0.11835936 0.059664011 10528440
2.0252302 0.12044307 0.05945462 10593976
2.0254467 0.1224079 0.059087813 10659765
2.0276585 0.12483421 0.058606565 10199732
2.0294278 0.12733467 0.058225572 9936820
2.0306816 0.13027942 0.057731986 9739443
2.032568 0.13277456 0.057421148 9410738
2.0344968 0.13534592 0.056985736 9345202
2.0360339 0.13784479 0.056274772 8950706
2.0375674 0.14040904 0.055681109 8227503
2.0393083 0.14301212 0.055622458 8622004
2.0161443 0.11150314 0.059691012 10462390
2.0174811 0.11440994 0.059358835 10396850
2.0195038 0.11649823 0.059394002 10462644
2.0209575 0.11877646 0.059093237 10068146
2.0225613 0.12084889 0.058443844 9805234
2.0240011 0.12346885 0.058035195 9871028
2.0255313 0.12587555 0.057897329 9673908
2.0271595 0.12844241 0.057443082 9213875
2.0290158 0.13048406 0.057142377 8687796
2.0307007 0.13320997 0.056775928 8556209
2.0323021 0.13618444 0.05621928 8293551
2.0075929 0.1031925 0.060135067 10265525
2.0090194 0.10513602 0.059673846 10199475
2.0112844 0.10792229 0.059363842 10396850
2.012677 0.10987209 0.059184253 10133682
2.0139732 0.11215404 0.058756471 10002354
2.0155737 0.11445282 0.058674157 10002609
2.0169363 0.11711729 0.057992995 9279153
2.0188582 0.11926916 0.057748377 9344945
2.0202336 0.12205397 0.057578564 8950192
2.0226672 0.12536426 0.057246685 8687792
2.0007136 0.096519373 0.060630679 10396854
2.002248 0.098551489 0.060310185 10462386
2.0041773 0.10075873 0.060102999 10199730
2.0058239 0.10316181 0.059622586 10133937
2.0073209 0.10578339 0.059194744 9870768
2.0087981 0.10843301 0.058843136 9607856
2.0107684 0.11070099 0.058628798 9213616
2.0123181 0.11323039 0.058404505 9805232
2.0136321 0.11613934 0.057902813 8819376
1.9902017 0.084325388 0.062010944 10660284
1.9923376 0.086646743 0.061720252 10594233
1.9939057 0.089486167 0.061261654 10594231
1.9955813 0.091981225 0.060571551 10397108
1.9972655 0.094352968 0.060377598 10265522
1.9986711 0.096615002 0.059958637 10002608
2.0002933 0.099107936 0.059541225 9805233
2.0018427 0.10144293 0.059101701 9410480
2.0034647 0.10400575 0.058770001 9344943
2.0051351 0.10609903 0.058483958 8950192
2.0065548 0.1076816 0.058258772 8884656
1.9816538 0.074661151 0.06227386 10923200
1.9835713 0.077864923 0.061852455 10791862
1.9853706 0.080494411 0.061588109 10791863
1.9868575 0.082825929 0.061506927 10660022
1.9888661 0.085055485 0.061004043 10594483
1.9902793 0.087580003 0.060403824 10265779
1.9918119 0.090231843 0.059968114 10134193
1.9933165 0.092441536 0.059530437 9673905
1.9948236 0.095099814 0.059624672 9673905
1.9967229 0.097412348 0.059164047 9147824
1.9983677 0.099675506 0.058889508 9082032
1.9720312 0.064124845 0.063456893 11055043
1.9732125 0.065913983 0.062854946 11055036
1.9752197 0.068766221 0.062711895 10988988
1.9770787 0.071549959 0.062178791 10791867
1.9782516 0.074108519 0.062060297 10857657
1.9801171 0.076444611 0.061585009 10660279
1.981758 0.078814983 0.061294198 10463158
1.9835837 0.081198506 0.060867846 10134197
1.9848006 0.083852202 0.060358226 9871284
1.9866186 0.086277254 0.059948921 9936817
1.988252 0.088835895 0.059372127 9476529
1.9899367 0.091032699 0.059319735 9345202
1.9619968 0.052597836 0.064970016 11120837
1.9634328 0.055004887 0.064492583 11055300
1.9656595 0.05789458 0.064239442 10923714
1.9668962 0.060219742 0.063544631 11252417
1.9680345 0.062496122 0.063395381 11120830
1.9695203 0.064737469 0.062975109 11055038
1.9713446 0.067256361 0.062516391 10857916
1.9733225 0.069458187 0.061968446 10660539
1.9746045 0.072212614 0.061788321 10463417
1.9768498 0.074718513 0.061170578 10002873
1.9783039 0.077504568 0.060906529 9739959
1.9800845 0.079773724 0.060682952 9805494
1.9811604 0.081648298 0.06045562 9674164
1.9565227 0.048628088 0.064224482 9607858
1.9583554 0.051162481 0.064183652 11055300
1.95955 0.053456679 0.063933313 11055299
1.9613303 0.055977885 0.063597262 11252674
1.9632033 0.058525097 0.063251555 11055297
1.9645579 0.060857125 0.062694848 10923712
1.966437 0.063265391 0.062315166 10726591
1.9681227 0.065755717 0.06207937 10660798
1.969606 0.068246469 0.061588705 10134716
1.971064 0.070373826 0.061266303 10266300
1.9529767 0.047575302 0.063389003 7700633
1.9546372 0.049583938 0.063749552 10595008
1.9563017 0.051488541 0.063649118 11252679
1.9578254 0.054135039 0.063298762 11121350
1.9596436 0.056737047 0.06289947 10989507
1.9611112 0.058747474 0.062622428 10595526
1.9494172 0.045894869 0.062215567 6383212
1.9509729 0.04740097 0.062886477 7239821
1.9524062 0.049559649 0.063029528 10003396
1.945883 0.044126235 0.060868561 6512726
1.9471951 0.045596652 0.061693549 6053474
1.9378256 0.035221461 0.060079455 8879982
1.9387647 0.036826685 0.059888244 8748910
1.9407736 0.039681487 0.0596506 8617325
1.9419796 0.04208624 0.059613168 8156519
1.9436312 0.043929264 0.060186088 6775382
1.9352512 0.03526964 0.059595704 9274999
1.9370012 0.03791951 0.059307635 9209205
1.9386035 0.040144764 0.059149742 8880242
1.9399307 0.042392328 0.059057832 8156522
1.9332863 0.036246438 0.059331596 9406586
1.9353607 0.038647506 0.058929026 9340793
1.9367177 0.040972609 0.058556557 8683123
2.0584109 0.15743926 0.061110318 10790315
2.0603356 0.15946949 0.061235189 10790574
2.0621874 0.16152224 0.060871959 10987955
2.0639024 0.16438094 0.059831381 10660027
2.065299 0.16691519 0.059427679 10660028
2.066592 0.16916086 0.05871594 10265532
2.0682297 0.1718834 0.057757676 9804981
2.0691133 0.17455681 0.057205677 9344176
2.0716951 0.17745304 0.055071235 8225164
2.0523798 0.15047878 0.060644805 10592935
2.0532908 0.15300299 0.061003745 10790058
2.0553858 0.15556921 0.060446441 10724783
2.0571616 0.15787679 0.05990237 10725561
2.0586812 0.1606728 0.059135973 10791871
2.0601535 0.16305165 0.058897078 10397375
2.061837 0.16503668 0.058139086 9609152
2.0632017 0.16735317 0.057765007 9083328
2.0644183 0.16965571 0.057766318 9083584
2.0668275 0.17257671 0.057329535 9148353
2.0704114 0.17666785 0.055158377 8161191
2.0710504 0.17936538 0.053902805 7371680
2.072824 0.18191773 0.052994847 4279916
2.0744989 0.18497613 0.052327394 4278105
2.0764749 0.18688223 0.051222086 6116696
2.0776432 0.18999615 0.050353944 7102809
2.0794675 0.192385 0.049354553 7431503
2.0815551 0.19432425 0.048696995 7694415
2.082823 0.19721748 0.048659742 7826001
2.0450568 0.14468835 0.060233295 10526887
2.0460401 0.14692357 0.060543954 10527400
2.0483124 0.14863585 0.060647249 10592936
2.0504754 0.15134026 0.060362577 10658989
2.0515664 0.15363215 0.058950901 10660025
2.0530329 0.15614562 0.058304906 10397372
2.0548015 0.15869437 0.058056235 10134460
2.0562985 0.16112089 0.05755049 9740221
2.0577905 0.16345549 0.056924582 9017279
2.0600407 0.16624571 0.05722028 9017534
2.0712903 0.18196993 0.052612782 7175086
2.0731776 0.18516368 0.050899684 3492472
2.0742517 0.18747458 0.049493611 4543867
2.0759912 0.19014362 0.048344612 5856625
2.0773411 0.19320768 0.048176527 7170415
2.0794492 0.19520789 0.047862887 7169627
2.0811732 0.1971525 0.046230555 7301470
2.0823002 0.19963533 0.046302795 7432797
2.040292 0.14120562 0.060471177 10263713
2.0412452 0.1429226 0.060163558 10263970
2.0429692 0.14462066 0.060469091 10526629
2.0444109 0.14701334 0.060357928 10527400
2.0462825 0.14930005 0.057763457 10726074
2.0480435 0.15220122 0.057702541 10463163
2.0495296 0.1542954 0.057366133 9740219
2.0509584 0.15673882 0.056872725 9345723
2.0525844 0.15908441 0.056650817 9017275
2.0540192 0.16115381 0.05660516 9017276
2.0759125 0.19321294 0.046377122 6517141
2.0777619 0.19626911 0.045534074 6515846
2.0793583 0.19872223 0.044981301 6251887
2.0810065 0.20066495 0.044403315 6382693
2.0823903 0.20317842 0.043926239 6316898
2.0379083 0.14037918 0.057411313 10067892
2.0392427 0.1429746 0.05896461 10264234
2.0409954 0.14524701 0.057187498 10593975
2.0428801 0.14780529 0.056950331 10462905
2.0443215 0.15039584 0.056753159 10134202
2.0454278 0.15266979 0.056565642 9477051
2.0470557 0.15510987 0.056077003 9017276
2.0486259 0.15718965 0.056068063 9148606
2.0275228 0.12922032 0.058954954 10396597
2.0290256 0.13140488 0.058433592 10462389
2.0309861 0.13428532 0.057956159 10133682
2.0327954 0.13665202 0.057801127 10265268
2.0344031 0.13945659 0.057436228 10199732
2.0364161 0.14168443 0.056872308 10002357
2.0373905 0.14383225 0.056324303 9871029
2.0391402 0.14631286 0.056084991 9673909
2.0407805 0.14900415 0.055361092 9017014
2.0424027 0.15099439 0.055736423 9017016
2.0211976 0.12280287 0.059336603 9936561
2.0222354 0.12467233 0.058896065 10133682
2.0236771 0.12706003 0.058688939 10594229
2.025733 0.12976973 0.058044195 10002612
2.0272706 0.13256533 0.057600737 9673650
2.0289631 0.13487042 0.057326376 9673651
2.0307188 0.13731275 0.056841791 9607859
2.0322371 0.13959327 0.055894911 8819379
2.0338252 0.14225438 0.055430532 8556209
2.0352199 0.14491676 0.055190325 8424624
2.0368967 0.14667653 0.054996729 8622259
2.0130432 0.11448111 0.05915916 10331061
2.0141432 0.11618432 0.059038937 10528435
2.016016 0.11869614 0.058941185 10528434
2.0174053 0.12144405 0.058752775 10331060
2.019038 0.12354875 0.058419466 9804977
2.0203247 0.12593007 0.057736456 9147566
2.0222485 0.12846416 0.057583511 9213616
2.0233572 0.13091019 0.05732286 9476530
2.0257206 0.13368794 0.056727886 8424622
2.0273511 0.13633278 0.056384623 8359344
2.0037098 0.10469615 0.060185969 10199475
2.0053754 0.10709886 0.059727609 10396849
2.0073264 0.10973104 0.059080482 9936560
2.0088959 0.11210535 0.058874726 10068144
2.010406 0.11474867 0.058594644 10067889
2.0122492 0.11708035 0.058568418 10068144
2.0140479 0.1193773 0.057909548 9608114
2.0149972 0.12179175 0.057560503 9608113
2.0169046 0.12431947 0.057241142 9082033
2.0180206 0.1264092 0.057150066 8819121
1.995121 0.095964268 0.061015666 10397110
1.9972583 0.098468788 0.060503602 10396852
1.9986566 0.10081807 0.06031239 10199474
2.0004613 0.10299065 0.059916198 10133937
2.0018263 0.1055086 0.059633672 9936559
2.0035634 0.10797948 0.059363425 9870767
2.0053239 0.11041883 0.058951259 9673647
2.0069642 0.11303137 0.0585379 9673647
2.0084004 0.11505484 0.058334708 9147567
2.0098686 0.11743418 0.057864785 8884656
2.0120919 0.12025391 0.057215035 8884656
2.0140638 0.12359622 0.05664885 9082289
1.9856445 0.085457966 0.062213242 10594233
1.9872955 0.08710786 0.061900556 10528440
1.9886591 0.089553908 0.061210334 10528438
1.9905142 0.091694079 0.060979486 10594229
1.9921407 0.094296619 0.060460985 10331058
1.9933846 0.096650772 0.060121834 10133936
1.9950312 0.099164397 0.059789538 10133936
1.9968561 0.10145193 0.059373975 9739438
1.9983603 0.10418601 0.058892012 9673646
2.0001287 0.10652454 0.058407485 8950447
2.0018761 0.10869032 0.058391631 9016239
2.0026414 0.11049841 0.058502316 8818864
1.9801892 0.080310337 0.061719716 10791606
1.9813366 0.082621098 0.061608791 10791605
1.9832634 0.084849432 0.061681628 10725811
1.9847268 0.087771907 0.060872018 10528690
1.9864352 0.090079702 0.060233951 10331313
1.9882363 0.092666924 0.05974865 10068143
1.9898373 0.094772838 0.05961448 9673904
1.9913802 0.097411849 0.059390903 9607854
1.993366 0.099945106 0.059143186 9147823
1.9945698 0.10200682 0.058789134 9147566
1.9698176 0.068873584 0.063190937 10726079
1.9715791 0.071696244 0.062550664 10923195
1.9732422 0.073860981 0.062119663 10791864
1.975047 0.076161742 0.061854959 10528951
1.9763857 0.078688875 0.061656356 10594486
1.978165 0.080720857 0.061409295 10331316
1.9796796 0.083306991 0.060819685 10068403
1.9812931 0.08556398 0.060266078 9739698
1.98304 0.088231288 0.059754789 9608112
1.9846447 0.091318391 0.059309781 9345200
1.9865156 0.093795143 0.059013724 9476526
1.9615064 0.059920222 0.063897252 10791872
1.9630203 0.06240302 0.06357789 10923453
1.9646004 0.064412005 0.063236952 10989245
1.9663171 0.067225553 0.062953949 10989242
1.9682285 0.069677338 0.06234026 10791865
1.9698489 0.072350591 0.061794579 10463416
1.9712406 0.074715689 0.061772883 10463159
1.9729201 0.077162951 0.061496079 10068660
1.9749162 0.079499483 0.061095893 9805492
1.9766402 0.082697339 0.060453773 9673907
1.9777074 0.084489822 0.060135901 9673905
1.9527032 0.050802682 0.064544618 11252419
1.9547235 0.053352892 0.064255595 11186881
1.9562311 0.055519529 0.063800454 10989507
1.9577098 0.058297064 0.063453257 11055296
1.9594926 0.060667414 0.063135087 10857919
1.9610151 0.063311584 0.062777936 10660542
1.9627811 0.065728329 0.062570691 10726331
1.9647403 0.068146929 0.061907589 10134460
1.9662043 0.070685834 0.061495781 10200507
1.9674789 0.072526507 0.061400056 10003385
1.9478564 0.04740677 0.063617229 7700115
1.9491811 0.04941966 0.063988984 10594748
1.9508466 0.051741723 0.064016283 11252678
1.9529524 0.05433562 0.063699126 11252676
1.9543877 0.056851905 0.063170016 10989763
1.9560206 0.058999155 0.062859058 10529732
1.9442432 0.046143938 0.062570691 6054247
1.9457811 0.047611959 0.063236415 7569302
1.9474996 0.049454164 0.063384414 10003394
1.9480791 0.051846754 0.063479662 11252937
1.9405072 0.04432039 0.061323583 6052173
1.9420758 0.04566557 0.06188941 5790298
1.9437089 0.047361892 0.062655509 6320001
1.9367744 0.041606985 0.059650004 8222567
1.9385626 0.043953385 0.060250044 6840917
1.9397391 0.045759793 0.0611673 5526608
1.9316866 0.037719171 0.059445858 9012084
1.9332438 0.040075231 0.059293389 8814449
1.9350029 0.042348459 0.059448898 8090983
1.9365711 0.043822214 0.05952096 7235420
1.9282464 0.035942912 0.059590697 9340793
1.9297462 0.038463656 0.059405148 8880242
1.9305508 0.040330853 0.059166551 9274486
2.0586591 0.16180022 0.061937451 10987180
2.0603309 0.16395266 0.062023282 10921900
2.0618415 0.16617545 0.061977684 11052974
2.0638227 0.16860321 0.061566532 11052974
2.0657318 0.17097536 0.061124206 11053232
2.0669127 0.17283848 0.059736609 10790842
2.0679083 0.17493227 0.059870481 10198444
2.0693953 0.17796803 0.057749152 9146274
2.0539005 0.157378 0.061286449 10856108
2.0553181 0.15947621 0.061919987 10790316
2.0566549 0.16182882 0.062099993 10855851
2.0581479 0.16373378 0.060580611 10725303
2.0603158 0.16681938 0.059289515 10726079
2.0621016 0.16962029 0.059061766 10726080
2.063796 0.17165774 0.058652282 10200514
2.0653474 0.1739531 0.058277071 10200516
2.0670784 0.17604101 0.05748105 9674179
2.0680611 0.17962337 0.056878984 9147837
2.0701334 0.1813527 0.055741012 6911387
2.0713739 0.18402365 0.054360807 4806778
2.0728219 0.18603572 0.053973436 3490651
2.0744412 0.18892811 0.052596271 5395291
2.0473299 0.15049933 0.061211824 10790060
2.0483325 0.15270096 0.061163962 10724779
2.0499158 0.1552939 0.0611763 10724780
2.0518389 0.15759966 0.061062276 10790316
2.0530078 0.15996683 0.059380352 10856891
2.0550458 0.16255999 0.058838427 10660285
2.0567532 0.16522008 0.058511078 10397374
2.0581129 0.16767472 0.058273971 10003135
2.0598104 0.17011504 0.057371855 9149119
2.0614121 0.17272104 0.05760318 9477825
2.0635116 0.17552376 0.057481706 9083329
2.070049 0.1841473 0.053995788 7438511
2.0711772 0.18731105 0.052418172 6912938
2.072155 0.18973894 0.051518261 6977941
2.0742936 0.19159421 0.050255179 7435914
2.0765083 0.1941935 0.050902247 7827571
2.0778821 0.19703521 0.049925625 7366756
2.0795388 0.19862379 0.048728704 7235159
2.0813272 0.20155212 0.048016727 7694675
2.0830128 0.20339721 0.047385633 7826261
2.0405641 0.14522514 0.060666323 10329250
2.0434563 0.14884722 0.060378611 10658470
2.0446076 0.15139376 0.060628593 10790315
2.0460682 0.15343973 0.060231328 10790575
2.0481415 0.15589337 0.058861196 10857144
2.0497601 0.15850112 0.058258891 10725820
2.0515702 0.16131124 0.057662964 10397629
2.0530057 0.1635823 0.057134211 9806014
2.0546424 0.16592593 0.057009816 9148861
2.0568416 0.1689027 0.056671143 8951741
2.0747116 0.19464722 0.048716128 8291740
2.0759122 0.19721839 0.047973812 7699347
2.0773833 0.19976646 0.046865344 7041156
2.0786686 0.20245868 0.045687497 6646393
2.0802338 0.20500149 0.045451045 6842470
2.0821576 0.20701425 0.044274032 6710881
2.0835693 0.20939925 0.043686867 6776418
2.0374632 0.14293565 0.060106933 10263459
2.0378435 0.14487159 0.060303569 10197921
2.0397575 0.14702666 0.060057878 10329508
2.0410526 0.14951573 0.060285509 10461093
2.0428555 0.15187639 0.057352781 10923194
2.0446002 0.15432808 0.057448149 10988730
2.0460563 0.15704854 0.057049513 10331836
2.0480924 0.15976119 0.056547761 9871803
2.049289 0.16170019 0.056228936 9280189
2.0508952 0.16470458 0.056218803 8885952
2.079319 0.20544261 0.044481456 5792629
2.0806127 0.20770755 0.044183195 5726055
2.0820677 0.21026345 0.043550491 5988447
2.0835474 0.21260947 0.04310596 6250849
2.0348125 0.14345579 0.058530271 9869992
2.0359097 0.1445393 0.058507621 10067113
2.0374277 0.14790727 0.057293117 10462130
2.0393362 0.15002012 0.057058275 10594231
2.0409236 0.15276967 0.056383014 10002872
2.0423062 0.15519959 0.056236088 10003130
2.0438006 0.15747342 0.05539614 9214397
2.0449872 0.15995336 0.055366695 9148605
2.0240743 0.13155332 0.058598995 10528185
2.0254514 0.13368526 0.058247805 9673134
2.0277731 0.13641877 0.057994068 10067890
2.0291247 0.13884658 0.057590783 10462645
2.0308204 0.14178598 0.057283759 10396853
2.0323405 0.1438193 0.056968451 10133683
2.0338936 0.14586367 0.056399345 9936562
2.0356505 0.14824338 0.055930197 9608116
2.0372927 0.15085597 0.055200875 9148085
2.0386112 0.15307087 0.054890513 8885175
2.039958 0.15562855 0.055177867 8819640
2.0175896 0.12552013 0.059084356 10396597
2.0190542 0.1273182 0.058420181 10331059
2.0203049 0.12931387 0.05830574 9936303
2.0218368 0.13227746 0.058051825 9739441
2.0238657 0.1346027 0.057402432 9542064
2.0255342 0.13730943 0.057145715 9015981
2.0275226 0.13980608 0.056550622 8687790
2.0287895 0.1422748 0.05589211 8819631
2.0305328 0.144816 0.055396974 8884912
2.0320685 0.14711842 0.055005789 8622260
2.0339494 0.14875756 0.054933012 8622006
2.0353181 0.15080723 0.054491341 8688052
2.0109668 0.11856127 0.058608294 10462384
2.0120225 0.12073092 0.058457673 10462385
2.0138466 0.12362482 0.05847168 10528178
2.0150712 0.12592657 0.058019221 10265521
2.0168238 0.12786746 0.057712018 9936817
2.0185308 0.13030881 0.057401717 9608113
2.0201781 0.1328325 0.056877494 8884653
2.0215735 0.13560173 0.056328535 8227498
2.0235853 0.13805939 0.056084096 8490415
2.025291 0.14068024 0.055580437 7767209
1.9991418 0.10467023 0.060639203 10265269
2.0003107 0.10656113 0.060471117 10331061
2.0016854 0.10955472 0.060097992 10330801
2.0033984 0.11189596 0.059720635 10331057
2.0053411 0.11449873 0.058983684 9936561
2.0069664 0.11712945 0.058650076 10068143
2.0088634 0.11932427 0.058311403 9804975
2.0102634 0.12188604 0.057504296 9476270
2.0116427 0.12449447 0.057430744 9607856
2.0131209 0.12638 0.05664295 9016241
2.0147402 0.12870421 0.056730032 9147825
2.0167489 0.13118218 0.056364536 8950961
1.9917834 0.098204508 0.060595274 10528182
1.9938256 0.10063718 0.060617805 10331061
1.995084 0.10288928 0.060371518 10593970
1.9962825 0.10535107 0.060257196 10462641
1.9983413 0.10782384 0.05946207 10002350
2.0001276 0.11023371 0.059126377 9739439
2.0018909 0.1128059 0.058621168 9542061
2.0033755 0.11545106 0.058261454 9607853
2.0048368 0.11775123 0.05806905 9410734
2.0068724 0.12111327 0.057073712 8621741
2.00809 0.12266159 0.057119846 8555692
2.0097198 0.12535478 0.0565117 8819118
1.9851773 0.091477759 0.061226189 10528440
1.9871156 0.094298907 0.060986876 10462390
1.9884275 0.096559592 0.060627997 10528177
1.989849 0.099037074 0.059983194 10133935
1.9917135 0.10109622 0.059858799 10002607
1.9930091 0.1033433 0.059270382 9805230
1.9946978 0.10614912 0.058573067 9344941
1.9963233 0.10874347 0.058616996 9344941
1.9979724 0.1109944 0.058381021 8950190
1.9749467 0.080271982 0.06184721 10857392
1.9763755 0.082309425 0.061862409 10725811
1.9780269 0.08501523 0.06173414 10528435
1.9800726 0.087258101 0.061430335 10528433
1.981648 0.089823566 0.060672164 10331313
1.9830941 0.092446975 0.059967577 10199727
1.9847318 0.094886847 0.059703708 10068142
1.9863142 0.097116567 0.059356689 9673645
1.9877715 0.099676453 0.059617281 9673901
1.9898612 0.10284039 0.058890164 9279148
1.9911047 0.10495323 0.058375418 9278893
1.9645447 0.069289297 0.063536346 10660285
1.9664871 0.071180716 0.063092291 10857658
1.9680346 0.073630907 0.062666535 10857401
1.9696745 0.076144882 0.062020481 10331574
1.9713286 0.078477226 0.061913133 10594485
1.9728776 0.080884255 0.061615229 10331316
1.9743841 0.083442025 0.061344326 10134194
1.9761375 0.085825823 0.060729265 10002608
1.9780512 0.088120051 0.060282648 9805486
1.9792029 0.090726182 0.059917212 9805230
1.9805583 0.092878453 0.059370041 9673901
1.982164 0.095422916 0.059051037 9279406
1.9558553 0.059748806 0.064114869 10660285
1.9580894 0.062380049 0.06371063 10791868
1.9593461 0.06481652 0.063310564 10857659
1.9611436 0.067184441 0.063005328 10857657
1.9626623 0.069573805 0.062838137 10726074
1.9644816 0.071909264 0.062311351 10528951
1.9660531 0.074394695 0.061966419 10397110
1.9676973 0.076887868 0.06185776 10265781
1.9694155 0.079519391 0.061613798 9936821
1.9710315 0.081745885 0.061071515 9608370
1.9719988 0.083458625 0.060890496 9674161
1.9475068 0.051026832 0.064807892 11449796
1.9495801 0.053329729 0.064555168 11384001
1.950699 0.055691808 0.064312041 11186625
1.9525754 0.058122162 0.063989699 11055039
1.9545157 0.060622133 0.063496232 10857918
1.955767 0.06312675 0.063221931 10726333
1.957574 0.065588363 0.062881052 10660540
1.9594611 0.068133943 0.062667131 10397625
1.9605453 0.069893554 0.062120855 10134458
1.9626582 0.072938748 0.061603785 10002870
1.9427602 0.047933925 0.06415987 7963803
1.9440563 0.049492311 0.064455152 10726077
1.9458046 0.051623326 0.064312398 11186885
1.9473974 0.054184776 0.064055979 11252932
1.9488769 0.056652155 0.063473761 11055554
