# .PCD v0.7 - Point Cloud Data file format
VERSION 0.7
FIELDS x y z rgba
SIZE 4 4 4 4
TYPE F F F U
COUNT 1 1 1 1
WIDTH 1156
HEIGHT 1
VIEWPOINT 0 0 0 1 0 0 0
POINTS 1156
DATA ascii
1.8569374 0.48676842 0.061413348 10263196
1.8595572 0.48810783 0.061069727 10197661
1.8626297 0.48999953 0.060790598 10329248
1.8648484 0.49050841 0.060502172 10328996
1.8675063 0.49264875 0.059996426 10132122
1.8182909 0.47020811 0.068122983 8616279
1.8265085 0.47385225 0.066141129 7171185
1.8283099 0.47465366 0.066778302 8290187
1.8371415 0.47996199 0.063001275 10395290
1.8397392 0.48039892 0.062907934 10263196
1.8425193 0.48171341 0.062218785 10329247
1.8450003 0.48314026 0.061510086 10131869
1.8473911 0.48462445 0.061338067 10065820
1.8502388 0.48566553 0.061270058 9934235
1.8532206 0.48648629 0.060883582 10065820
1.855819 0.48858166 0.060112059 10131613
1.8575846 0.49000108 0.060116053 10263453
1.860899 0.49069172 0.059705257 10066329
1.8120198 0.46956399 0.066527903 8944979
1.8150725 0.46941057 0.0667575 8352588
1.8200622 0.4740912 0.063518643 7629421
1.8223759 0.47413501 0.063686371 6577758
1.824622 0.47546399 0.064773977 6842224
1.8288274 0.4773885 0.061710656 7565651
1.830833 0.4788056 0.062211871 9013113
1.8331478 0.47941342 0.061653256 9670806
1.8358228 0.48086739 0.060968876 9539986
1.8383888 0.48187339 0.060874581 9802906
1.8441849 0.48500746 0.060897589 10065816
1.8463726 0.4853023 0.059690535 9934756
1.8486164 0.48705256 0.059313059 10000036
1.8055906 0.46870604 0.064981163 9734492
1.8083404 0.46911711 0.065225601 9602649
1.8162016 0.47341663 0.062823176 7168864
1.8184714 0.47405347 0.063426793 7234405
1.8239677 0.47728094 0.061038554 7564383
1.8268324 0.47874421 0.060537159 6974047
1.8296957 0.47964746 0.059894264 7434345
1.832258 0.48096615 0.059352219 7368562
1.8342859 0.48170272 0.059192717 7763580
1.8038661 0.46906671 0.062928081 9602664
1.8077812 0.47136918 0.060872376 9142384
1.8124509 0.47426268 0.060745239 8813932
1.8148148 0.4743084 0.060888171 8156011
1.8178418 0.47665179 0.059098125 7958099
1.8203899 0.47724134 0.05951345 7497539
1.8232254 0.47886133 0.058775544 6643787
1.8255485 0.47981864 0.057656705 7431988
1.8278702 0.480674 0.057654738 6644295
1.8304883 0.48165405 0.05730623 5462361
1.8003497 0.46909598 0.0612638 9537392
1.80231 0.47190905 0.060897231 9537653
1.8056952 0.47154817 0.060888171 9142384
1.8093435 0.47355565 0.058944046 9537886
1.8138868 0.47602108 0.05774045 9734748
1.8163984 0.47698206 0.058103681 9207892
1.8191471 0.47881234 0.057269812 8024397
1.8220142 0.47987711 0.05673337 7365953
1.8241453 0.48061955 0.056279838 7365964
1.8266219 0.48151746 0.05537504 7430983
1.8000447 0.4718332 0.060749292 9537137
1.8020694 0.47206134 0.056729019 10393677
1.8048635 0.47404599 0.056523919 9933158
1.8073828 0.474536 0.056610703 10063719
1.8099607 0.47634879 0.056399643 9734248
1.8122942 0.47717658 0.056162119 9602913
1.8151503 0.47886735 0.055487216 9274222
1.8182908 0.48033533 0.05488354 9077363
1.8209305 0.48010913 0.054300725 9011314
1.793188 0.47059581 0.056946635 9865828
1.7952168 0.47013715 0.057409227 9865568
1.7978656 0.47287822 0.055819869 10129509
1.8005142 0.47341579 0.055767596 10195802
1.8030003 0.47488284 0.055402339 10195306
1.805667 0.47657552 0.054835916 9997934
1.8083565 0.47747311 0.05425334 9603186
1.8109996 0.47908032 0.053937435 9406068
1.8133873 0.47995409 0.05396688 9471351
1.8162555 0.48133999 0.052830577 9340022
1.7913495 0.47090194 0.05564934 10260835
1.7940905 0.4723514 0.054246604 9866596
1.7962887 0.47360861 0.054297566 10063205
1.799437 0.47500008 0.053888381 9931635
1.8022664 0.47695792 0.053196847 9734775
1.8052102 0.47769126 0.05321157 9603192
1.8064655 0.47893822 0.052805245 9143147
1.7881111 0.47201931 0.0536443 9536837
1.7907133 0.47283351 0.053190529 9932142
1.7927253 0.47406772 0.053745747 9997932
1.7955613 0.47564659 0.053463876 9800306
1.782963 0.47154284 0.052255452 6645605
1.787008 0.47285199 0.052569747 8943654
1.7885092 0.47355765 0.051704645 10062704
1.9460776 0.50820267 0.076010644 11579570
1.9417515 0.50720477 0.074094057 11908280
1.944925 0.50753695 0.074979663 11513783
1.9454311 0.5104202 0.074158728 12171440
1.9333929 0.50454074 0.07333535 11842226
1.9358872 0.50535285 0.073926687 11908019
1.9384018 0.50747609 0.073807657 12105397
1.9409015 0.50867575 0.073240221 12499885
1.9433874 0.50977606 0.072799265 12171440
1.9200205 0.50008643 0.073150873 2967296
1.9249518 0.50233376 0.072190166 11513502
1.9288324 0.50363773 0.072569311 11645097
1.9318659 0.5060097 0.072490454 11382447
1.9340832 0.50750774 0.072782278 11907755
1.9194697 0.50235993 0.071092129 1451306
1.9224668 0.50319493 0.071903706 7502965
1.9254334 0.50490957 0.071471572 11118997
1.9282215 0.50640261 0.071032524 10987687
1.9302964 0.50707257 0.071597278 11381669
1.9113588 0.50011992 0.07090044 10067638
1.9127814 0.50147772 0.071222723 9870003
1.9166664 0.50204927 0.069431603 9212583
1.918257 0.50366473 0.069742918 4083047
1.9202403 0.50506866 0.070429981 1570
1.8988178 0.49554855 0.071044207 10330806
1.9012951 0.49749166 0.070935369 10199988
1.9045423 0.49848706 0.071035326 10265781
1.9080486 0.50008744 0.069919169 10199990
1.9098917 0.50120968 0.069441199 10856622
1.9123113 0.50281775 0.06838131 11184810
1.9146839 0.50361669 0.068492174 10790317
1.9168613 0.5058651 0.068342984 9803425
1.9213538 0.50581795 0.066826642 2307927
1.8924946 0.49412072 0.069648743 10725301
1.8950174 0.49700719 0.069416761 10725039
1.897633 0.49724808 0.069460511 10724785
1.9012783 0.49867716 0.067113101 11447716
1.9016452 0.49911818 0.066676259 11118507
1.9065943 0.50115466 0.066090167 11118760
1.9090728 0.50264722 0.067000389 11118758
1.9108695 0.50399482 0.066558182 10855846
1.9134388 0.50453639 0.066210449 11119020
1.9166589 0.50684953 0.06600076 10461357
1.9197807 0.50850463 0.064395189 7437738
1.9241755 0.51054716 0.064860344 398080
1.8838177 0.49392536 0.068986058 10922943
1.8857197 0.49368632 0.068373322 10922686
1.8893133 0.49404564 0.069464982 10659769
1.8918418 0.49671915 0.068024814 10724518
1.8932664 0.49809471 0.067213237 10790317
1.8968413 0.49903372 0.066742182 10987432
1.8993084 0.49933788 0.066591203 10987177
1.9014951 0.50167948 0.065876424 11118762
1.904943 0.50275362 0.065470576 10987174
1.9070605 0.50394177 0.065398395 10921384
1.9098182 0.50608945 0.065562069 11316394
1.8775349 0.49245116 0.067669392 11184834
1.8793862 0.49332172 0.068372369 10988222
1.882472 0.49364901 0.067653358 10988467
1.8844875 0.49455953 0.065839767 10987951
1.8872774 0.49661842 0.065934658 10856100
1.8903068 0.49755874 0.065788925 10921643
1.892925 0.49863544 0.06522423 10987174
1.8950396 0.50018096 0.064886212 10921387
1.8980243 0.50164783 0.064537227 10921387
1.900074 0.50293505 0.063716531 10855593
1.9032896 0.50451982 0.063347399 10724006
1.9055419 0.50555217 0.063595235 10592167
1.8686973 0.48950335 0.067434788 11382973
1.8702879 0.48954096 0.067526639 11054270
1.8728386 0.49180427 0.066849172 10988475
1.8753011 0.492392 0.066710532 11185340
1.8783736 0.49417987 0.065251052 11119019
1.8804699 0.49487934 0.065642238 11184814
1.8834531 0.49655724 0.064550221 10790056
1.8861222 0.49771571 0.064090371 10724266
1.8889974 0.49925855 0.06397891 10855592
1.8917551 0.50130355 0.063864052 10789541
1.893357 0.50144261 0.063298583 10921637
1.8337296 0.47378561 0.072238386 11052961
1.8608721 0.48869616 0.066480339 10856375
1.863708 0.48861441 0.066558957 10856631
1.8655158 0.48942819 0.067250907 11054267
1.8689303 0.49177575 0.065987706 11185077
1.8715769 0.49225566 0.064780474 10987434
1.8747188 0.49441871 0.064419806 10855847
1.8772856 0.49534544 0.063446343 10658211
1.8797878 0.49680981 0.063164592 10789798
1.8821743 0.49771863 0.063073158 10855590
1.8848407 0.49928409 0.062601805 10789544
1.8875154 0.50075424 0.062260687 10724007
1.8901292 0.5009504 0.061876714 10987177
1.8290813 0.47439256 0.071053386 11447975
1.8309304 0.47506824 0.071388483 11316132
1.8340235 0.47623533 0.0717538 10987166
1.8513637 0.48504239 0.065793812 10658481
1.8541512 0.48652512 0.065740526 10856118
1.8570442 0.48740658 0.065130174 10855856
1.8595344 0.48906893 0.065515876 10856110
1.8653635 0.4916676 0.063569725 10856099
1.8676755 0.49286711 0.062523782 10789799
1.8708603 0.49459195 0.062694192 10790055
1.8733256 0.49540198 0.061948955 10526626
1.8761755 0.49700093 0.061701894 10789543
1.8775276 0.49824619 0.06156534 11249837
1.8802534 0.49936906 0.061966598 10987432
1.81903 0.47186863 0.070868313 11447208
1.8212402 0.47288257 0.070772469 11710892
1.8244824 0.47379503 0.070809007 11381924
1.8276099 0.4744553 0.070705235 11381925
1.8290306 0.47665292 0.069046915 11316143
1.8320593 0.47720769 0.06895715 11184568
1.8345051 0.47939706 0.068163097 10855600
1.8371962 0.48124808 0.067148924 10724015
1.8392968 0.48107621 0.067129791 10658739
1.8425059 0.48052821 0.066868246 10724526
1.8454669 0.48508975 0.065154612 10592934
1.8482703 0.48531392 0.064668298 10526630
1.8508046 0.48763877 0.064374447 10724267
1.8532065 0.48781615 0.06390214 10724258
1.8563794 0.48988354 0.063004553 10592672
1.8589003 0.49035412 0.06152004 10460578
1.8613496 0.49189234 0.061713934 10526627
1.8642104 0.49331078 0.061530352 10526370
1.8670195 0.49440229 0.061099887 10592420
1.8697691 0.49568838 0.060826898 10526883
1.8720534 0.49771056 0.060309529 10855591
1.8145583 0.47231627 0.069625318 9604983
1.8173 0.47230476 0.070344329 11249820
1.8263605 0.47722539 0.067394137 11119283
1.8282948 0.47585353 0.067747831 10855340
1.8374513 0.480984 0.064342558 10461084
1.8393011 0.48341459 0.063925266 10132121
1.8420199 0.48425913 0.063431263 10329504
1.8444955 0.48536366 0.06331861 10329242
1.8468645 0.48672178 0.062767029 10197915
1.8501761 0.48780906 0.062040508 10263453
1.8523526 0.48965746 0.060989022 10066076
1.8549976 0.49062335 0.061222851 10263197
1.8577145 0.49202308 0.060606778 10328994
1.8600801 0.49301288 0.060588896 10329250
1.8627406 0.49389777 0.060139596 10131872
1.8652263 0.49610233 0.060286641 10066329
1.8114196 0.47219464 0.067889035 8617308
1.8131461 0.47181371 0.068595648 8288349
1.8198824 0.47664008 0.065368712 10525876
1.8222243 0.47667524 0.06551677 9802661
1.8244662 0.47793531 0.066565752 11185076
1.8298757 0.48110926 0.063174665 10460832
1.8324108 0.48215526 0.062981188 10395037
1.8350611 0.48313037 0.062678099 10460832
1.837683 0.48418111 0.062552631 10329247
1.8401275 0.48556343 0.062537551 10197920
1.8431594 0.48714912 0.061545908 9868698
1.8455328 0.48794118 0.060832858 9868186
1.8483331 0.4893271 0.060455799 9868699
1.8509192 0.49158257 0.059846222 10000025
1.8528622 0.49181834 0.059175074 10066074
1.8561363 0.49329314 0.059247494 9934752
1.8588474 0.49493882 0.05920279 10066329
1.8074561 0.47229326 0.066119254 9274467
1.8095673 0.47264555 0.066865385 8813906
1.8137598 0.47460651 0.063576162 6446672
1.8152866 0.47556823 0.064341247 6776416
1.8178046 0.47679323 0.065365076 10920621
1.8227382 0.47965413 0.062716067 9736853
1.8258851 0.48082167 0.062183857 10066330
1.8285843 0.48157254 0.06214869 10000281
1.8311484 0.48249841 0.061778188 10263454
1.8339769 0.48432603 0.060937941 10394786
1.8375968 0.48639816 0.061301053 10066593
1.8012111 0.47090286 0.065092921 9931867
1.8039877 0.47154811 0.065451026 9931875
1.8090923 0.4751808 0.063715398 7301977
1.8106389 0.47519714 0.063817382 7235438
1.8130686 0.47674221 0.062588096 6643557
1.8170766 0.47912461 0.061075091 8419421
1.8197025 0.47935823 0.061380863 9736584
1.8220029 0.48106706 0.060744405 10066076
1.8244647 0.48182875 0.059622884 8224137
1.826895 0.48326564 0.059726536 9211799
1.829987 0.48445857 0.058911562 8422287
1.7975276 0.47166273 0.064231455 10063192
1.8022543 0.47315535 0.061788023 9340532
1.8053584 0.47414824 0.061917901 9406581
1.8077495 0.47756135 0.060413122 9340298
1.8098147 0.47677106 0.060216844 9209187
1.8140525 0.47845483 0.059420884 8747850
1.815721 0.47916019 0.059663236 7104855
1.8184452 0.4809325 0.058771908 7762797
1.8209757 0.48230767 0.058114469 8749405
1.822848 0.48181018 0.058063269 9604468
1.7937703 0.47172552 0.060361326 9471860
1.7963439 0.47217518 0.06082505 9603444
1.7989016 0.47267663 0.061327457 9471858
1.8030101 0.47591922 0.061504722 9603714
1.806523 0.47789389 0.058002234 9999209
1.8090465 0.47830331 0.057823896 9867622
1.8118246 0.47967178 0.057666302 9076835
1.8141727 0.48124915 0.056993365 8090975
1.8167605 0.48143867 0.057245612 8090705
1.8192041 0.48221475 0.056876481 8943635
1.7899258 0.47169536 0.060101092 9406316
1.7922677 0.47173038 0.06024909 9406067
1.7953249 0.47457567 0.06003511 9537910
1.8000405 0.47594401 0.057037175 10066783
1.8026803 0.47777155 0.05644834 9998702
1.8052233 0.47859356 0.056239247 10130022
1.8081185 0.47976506 0.055698395 9669486
1.8112522 0.48115191 0.055646122 9143161
1.8135204 0.48137113 0.055051625 9077107
1.7882237 0.47260606 0.056836545 10457188
1.7907701 0.47198269 0.057231903 10194537
1.7931036 0.47494701 0.056161702 10129507
1.7961249 0.47648272 0.055892229 10130270
1.7988629 0.4773187 0.055252254 10129007
1.8013668 0.47850803 0.05501461 10195054
1.8041573 0.48003435 0.054253876 9735029
1.8071601 0.48150939 0.053985059 9734504
1.8097061 0.48234367 0.053208053 9668217
1.784132 0.47258434 0.055856287 4801827
1.786865 0.47378093 0.055429995 8681260
1.789611 0.47511116 0.054897189 10326628
1.7921979 0.47632107 0.0538131 9931888
1.7952088 0.47795999 0.053824544 9997680
1.7979465 0.4789198 0.053689659 10063468
1.8004988 0.47999832 0.053442836 9866362
1.8034804 0.48143828 0.052959681 9801083
1.8055317 0.48282793 0.052468598 9866104
1.780493 0.47210979 0.054360688 9603964
1.7832432 0.47368968 0.053732932 4474178
1.7858183 0.47497469 0.053327739 6709031
1.7882955 0.47648343 0.053261042 9931115
1.7904911 0.47733521 0.053123534 9734266
1.7820603 0.47526973 0.051908493 7038821
1.784474 0.47676682 0.05173862 4671268
1.9438899 0.51047629 0.074477613 11514297
1.946259 0.51258779 0.075645804 11250352
1.9349297 0.50815666 0.074041486 12170663
1.93959 0.51079714 0.073875785 11514044
1.9427427 0.51151454 0.074379027 12105648
1.945152 0.51360577 0.073958695 11382449
1.9311345 0.50790966 0.072802484 11775644
1.9341706 0.5100404 0.071987152 11644846
1.9368275 0.51081157 0.073401988 11514041
1.9384662 0.51261151 0.072307229 12236458
1.9408619 0.51233876 0.072372913 12434091
1.9224725 0.50529128 0.072544575 5460247
1.9268734 0.50871134 0.071575046 10987170
1.9298037 0.50997949 0.070993662 11250083
1.9322045 0.51105553 0.071566522 11579041
1.9354879 0.51299739 0.071592093 11645103
1.9111106 0.50276411 0.072079897 9870009
1.9126736 0.50342488 0.072617173 8224413
1.9178901 0.50516343 0.071336627 3622755
1.9208549 0.50795782 0.070780158 461331
1.9235309 0.50794601 0.071501076 5989210
1.9272386 0.51010847 0.070835114 10986905
1.9304461 0.51262075 0.06983906 11053233
1.9403106 0.51613796 0.067848444 11448232
1.9055829 0.50135517 0.070730388 10528178
1.9095154 0.50504208 0.069926858 10066355
1.9115136 0.50492215 0.069366634 10724517
1.9141219 0.50624198 0.069989145 10921648
1.9169271 0.50754106 0.069361091 7304071
1.9184422 0.50846189 0.069568396 5264469
1.9379301 0.51743543 0.065648556 11513010
1.8991917 0.50121248 0.070254982 10396085
1.9020773 0.50173563 0.070749521 10462132
1.9052303 0.50473547 0.068650901 10987691
1.9078186 0.50449729 0.06905061 10658991
1.9103431 0.50607288 0.068000078 11053225
1.9129475 0.50752509 0.067663908 10987690
1.9148438 0.50851905 0.067031384 10856113
1.9258482 0.51459968 0.064610839 2172731
1.8928566 0.49982351 0.068888605 10593721
1.896058 0.4998754 0.069111824 10856372
1.8981378 0.50309372 0.067652583 10987949
1.9020029 0.50420153 0.06656909 11645342
1.9038223 0.50496125 0.066410303 11118764
1.9067218 0.50628138 0.06672585 11053486
1.9092462 0.50776255 0.066335618 10987430
1.9128829 0.50938082 0.066559911 11118764
1.918008 0.51309198 0.064584732 10396346
1.9195759 0.51247418 0.064682841 7698833
1.9228559 0.51377153 0.062932968 1911117
1.9247415 0.51613891 0.06278646 95
1.8773994 0.49502149 0.069509268 10988736
1.8815408 0.49732235 0.068923652 10856881
1.8836629 0.49719062 0.068917096 10922676
1.8868887 0.498941 0.068372667 10659768
1.8896652 0.50003296 0.067290127 10790583
1.8916447 0.50076771 0.067084908 10592677
1.8946662 0.50222802 0.066720009 10790567
1.8970891 0.50361121 0.065522194 11118506
1.8998141 0.50551492 0.065145671 10855592
1.9025953 0.50653338 0.064953864 10987177
1.9052565 0.50747192 0.064408839 10855594
1.9064577 0.50923151 0.064446986 10592162
1.871878 0.49426967 0.068702817 11054004
1.8750415 0.49434203 0.068925917 11054269
1.880067 0.49738947 0.067245662 10922162
1.8831456 0.49842113 0.065887332 11250863
1.8858237 0.50015622 0.065086782 10855844
1.8881624 0.50142127 0.064988077 10724260
1.8908786 0.50279713 0.064837933 10921638
1.8939793 0.50397432 0.064562201 10855336
1.8964139 0.50568604 0.064015269 10855337
1.8989177 0.50721085 0.063296854 10921383
1.9007173 0.50687182 0.06264621 10592171
1.9034172 0.50884545 0.063075662 10724009
1.8474413 0.48371431 0.070841253 10723991
1.8492723 0.4858574 0.070971668 10921372
1.8607763 0.4906044 0.067845762 11053497
1.8622787 0.49059936 0.067957997 11053754
1.8656249 0.49288157 0.067326427 11054017
1.8685319 0.49315819 0.067643404 11053754
1.8706355 0.49582711 0.065466702 10987431
1.8732448 0.49688312 0.065221906 11053226
1.8760636 0.49810874 0.065667689 10856101
1.8789958 0.49898133 0.064799011 10789798
1.8821397 0.50041783 0.06373471 10855847
1.8840351 0.50185108 0.063678205 10724006
1.8865774 0.50281501 0.063761771 10724004
1.8895707 0.50399411 0.063282251 10724008
1.892334 0.50523615 0.062824309 10921388
1.8330091 0.47852477 0.072144866 10987168
1.8352994 0.47917816 0.07213372 10790045
1.8379558 0.48280457 0.071570694 10723995
1.8408861 0.48338941 0.071485996 10789530
1.8440781 0.48354551 0.071394444 10658199
1.8467596 0.48580968 0.071285307 10789786
1.857675 0.48920524 0.066712856 10921655
1.8593822 0.49209616 0.066395521 11053232
1.8624158 0.49342951 0.067588091 11119034
1.8672719 0.49543807 0.064080298 10987433
1.8696522 0.49663842 0.06429261 10921385
1.8720952 0.49806786 0.064067781 10526880
1.8749887 0.49896064 0.062672138 10526882
1.8780296 0.50038123 0.062636554 10855593
1.8803163 0.50198019 0.062373638 10658215
1.8827007 0.50303239 0.061310887 10789541
1.8851953 0.50415242 0.06217885 10789539
1.8206707 0.4754771 0.0722574 11579562
1.8240672 0.4762806 0.071701407 11316390
1.8262913 0.47768748 0.071258664 11184802
1.8283846 0.4787887 0.071083903 11184545
1.8314364 0.48037216 0.07036972 10921382
1.8335582 0.48130426 0.069521785 10724271
1.8364199 0.48299149 0.07120198 10855838
1.8401129 0.48450577 0.06727159 10461360
1.8449893 0.48615971 0.066306889 10527658
1.8482187 0.48840693 0.065587819 10724273
1.8505646 0.48912513 0.066200256 10724788
1.8530042 0.4902609 0.06554991 10658982
1.8557259 0.49153462 0.065788388 10790582
1.8585646 0.49295011 0.064144969 10790303
1.8609015 0.49407762 0.063606262 10790304
1.8632686 0.49501452 0.062368095 10724005
1.8659313 0.49669218 0.062303543 10592418
1.8685807 0.4978539 0.061912715 10592420
1.8715371 0.49953511 0.061177611 10460836
1.8739376 0.50104207 0.061189711 10987179
1.8759277 0.50122547 0.061352313 10855338
1.8148563 0.4736129 0.070681155 11184287
1.8174369 0.47567043 0.071750939 11776939
1.8193944 0.4748821 0.071378469 11842477
1.8250935 0.47936338 0.069815814 10987948
1.8277187 0.4806619 0.068721354 10725042
1.8305169 0.48057079 0.06881398 10724527
1.8370199 0.48447311 0.067067444 10526896
1.8386105 0.48451078 0.067159414 10461103
1.8415649 0.48670655 0.065484703 10263969
1.8438501 0.48789605 0.064704418 10526880
1.8463244 0.48937201 0.064719558 10527136
1.8496397 0.49066681 0.064061344 10658719
1.8514379 0.49148801 0.062635064 10263708
1.8542391 0.49271363 0.062397778 10263457
1.8568876 0.49416006 0.061681092 10460837
1.859789 0.49559599 0.061635673 10460835
1.862221 0.49691945 0.061046481 10329249
1.8647125 0.49839604 0.060980499 10460578
1.8672829 0.49929258 0.06014365 10658215
1.8695751 0.50077438 0.059743702 10855852
1.8125044 0.47521225 0.06985122 11381669
1.8150431 0.4759236 0.070423722 11710893
1.8209696 0.47899997 0.067153156 11250614
1.8235632 0.47986364 0.067914367 10725039
1.8294849 0.48351991 0.064950287 10263196
1.8321292 0.48456067 0.0641132 10131610
1.8348165 0.48567724 0.06369096 10197404
1.8370591 0.48678958 0.063633263 10197403
1.839649 0.48834133 0.063179791 10263708
1.841906 0.48872784 0.062979817 10131868
1.8447933 0.49048483 0.061852038 10000284
1.84767 0.49119514 0.061812103 10131867
1.8503611 0.49347574 0.060894728 10263456
1.8530285 0.49428952 0.060642123 10329248
1.8553281 0.49570474 0.060133457 10131869
1.8585358 0.4969314 0.059808135 10132122
1.860235 0.49815473 0.060638845 10066329
1.8097287 0.47546312 0.067681968 9999486
1.8143595 0.47775865 0.065888464 10724520
1.817385 0.47907639 0.067012608 11316146
1.822032 0.48215532 0.063937008 10592163
1.8250482 0.48282576 0.063611448 10460579
1.8275862 0.48414016 0.063465476 10263453
1.8305461 0.48550311 0.062948525 10460576
1.8332993 0.48632061 0.0628497 10329245
1.8356867 0.48835704 0.062315345 10263711
1.8387653 0.48950788 0.061728895 9935002
1.8425398 0.49106166 0.061759531 9737114
1.8438133 0.49187163 0.060861528 9868698
1.8463919 0.49320573 0.059918046 9999770
1.8488984 0.49403036 0.059498549 9934234
1.8027129 0.47475821 0.065164506 10854284
1.8055917 0.47569799 0.065844715 10525325
1.8084455 0.47699842 0.065861583 9803133
1.8112504 0.47769597 0.065674901 10591908
1.8163354 0.48188201 0.062920809 10461084
1.8187678 0.48169735 0.062755167 10855578
1.8215239 0.48338535 0.062151134 10592163
1.8238766 0.48419926 0.062000573 10460833
1.8266063 0.48585519 0.061434448 10263203
1.8294017 0.48686001 0.060561836 10066080
1.8326161 0.4885897 0.060269296 9803168
1.8339117 0.48905748 0.061211467 9737639
1.7938912 0.47175863 0.06489104 10260572
1.7958057 0.47383276 0.064747214 10392934
1.7989649 0.47417188 0.064526677 10393200
1.8015532 0.47593662 0.065059841 11249813
1.8046203 0.47538736 0.064426064 10854024
1.8076936 0.47880766 0.061303973 8814759
1.8086342 0.47971293 0.062030911 7829618
1.8129752 0.48061043 0.061424971 10262136
1.814893 0.48222524 0.061071992 9868690
1.8179305 0.48346621 0.060463786 10131612
1.8197919 0.48420742 0.060644984 10132126
1.7902784 0.47201765 0.064025819 10194265
1.7920194 0.47421694 0.064129889 10194780
1.798318 0.47583333 0.061140239 9603708
1.800704 0.47588974 0.061278105 9406085
1.8022146 0.47871876 0.060962021 10328222
1.8052881 0.47939017 0.061680019 9407903
1.811123 0.48257041 0.05913192 9079418
1.8136855 0.48337066 0.058665037 8289663
1.8162203 0.48389041 0.058809161 9013643
1.7862867 0.47254989 0.06381321 9864764
1.7914164 0.47442538 0.059736907 9340771
1.7937064 0.47516131 0.060388625 9472117
1.796378 0.47722468 0.060801029 9604463
1.7991216 0.47868615 0.060757935 10131082
1.8022485 0.47963226 0.057609439 10130049
1.8047709 0.48139045 0.057474136 9934717
1.8074772 0.48227915 0.057252109 10262933
1.8099532 0.48329321 0.057209373 9013389
1.8120631 0.4835192 0.057037532 7829121
1.7821732 0.47151494 0.059542596 3679508
1.7852302 0.47436017 0.059328675 9534332
1.787572 0.47439525 0.059476674 9932134
1.7898607 0.47629136 0.059352696 9537645
1.7929711 0.47727576 0.059410691 9537651
1.7956213 0.47820792 0.05654192 10195555
1.7982893 0.4801327 0.056387663 10130029
1.8005377 0.48071575 0.056391895 10064761
1.8031226 0.48231244 0.055848002 10131069
1.80592 0.4837985 0.055391073 10196881
1.8086277 0.48379132 0.055125594 9407373
1.7806956 0.47402826 0.058344126 6578010
1.7834983 0.47501013 0.057504952 4801552
1.7871383 0.47645369 0.055262089 9273408
1.7887688 0.47742525 0.055842102 10326120
1.7913419 0.4785338 0.055848002 10261093
1.7940637 0.48015025 0.055196047 10063721
1.7968043 0.48103335 0.054921269 9932395
1.7990694 0.48278689 0.054233193 10195564
1.801957 0.48332751 0.053913116 9998968
1.8044708 0.48513433 0.053676963 9407101
1.8078667 0.48683861 0.054266572 10066074
1.781924 0.47617668 0.055223227 6710106
1.785298 0.47752485 0.054767311 6643240
1.7877034 0.4783805 0.054814279 9931372
1.7900972 0.48000571 0.054379463 10063225
1.7924893 0.48042586 0.053747952 9800569
1.7952286 0.48247269 0.054009914 9537906
1.7999159 0.48444697 0.053140998 9669752
1.7807508 0.4777852 0.053336322 9209976
1.7836056 0.47841138 0.05252099 4801316
1.7869211 0.48008755 0.053071856 10129238
1.9433968 0.51433778 0.075993121 11841701
1.9450837 0.51406467 0.075852215 11842217
1.9474519 0.51711929 0.074687541 11513520
1.9492707 0.51969534 0.073333204 11447994
1.939007 0.51530248 0.073234797 11514045
1.9411632 0.51572573 0.073389709 11842993
1.9430707 0.51707911 0.073230982 11645107
1.9242224 0.50942755 0.072558641 8027788
1.930236 0.51382732 0.072437227 11842206
1.9338303 0.51344573 0.070995927 10790579
1.9369895 0.5157696 0.071691751 11776426
1.9394631 0.51734746 0.071252942 11645357
1.9413295 0.51805383 0.070867002 11514025
1.9197677 0.50978625 0.072185934 332333
1.9225824 0.5115335 0.071819544 1315606
1.9248546 0.51204121 0.072081149 7105633
1.9277329 0.5136317 0.071663678 10526077
1.931222 0.51407546 0.070509136 11316134
1.9339275 0.51605493 0.070681155 11579048
1.9136195 0.50815928 0.072445691 6644868
1.9157816 0.50898522 0.070828497 8356760
1.9186009 0.51102966 0.07058835 3750989
1.9201562 0.5122292 0.071606159 1289
1.9298272 0.51587427 0.069536746 11119287
1.9097797 0.50829476 0.069518268 10461362
1.9124613 0.50902754 0.069648802 10527152
1.9147047 0.51087916 0.0692361 10724516
1.9173675 0.51257485 0.068102539 10593180
1.9202369 0.51371932 0.067532301 5132626
1.9253947 0.51647049 0.065820932 1647398
1.9416502 0.52390826 0.063358843 11710128
1.8975046 0.50485325 0.069080114 10527924
1.9003971 0.50628757 0.069134712 10067372
1.9030766 0.50793374 0.068217278 10790823
1.9057617 0.50849867 0.067370713 10724522
1.9087231 0.51002669 0.068067491 10527659
1.9110326 0.51043218 0.067455828 10987431
1.9128337 0.51313162 0.067146301 10921637
1.9159141 0.51462638 0.065107763 11052464
1.9218452 0.51652062 0.064630568 3160142
1.9233354 0.51724809 0.064418972 595519
1.8840115 0.50090951 0.069195271 10725303
1.8911735 0.50402534 0.068169534 10791354
1.8941007 0.50427872 0.068525851 10527929
1.8965348 0.5061391 0.067564785 11053739
1.8996203 0.50799394 0.066794336 10855846
1.902176 0.50900847 0.066067278 10855588
1.9045918 0.50966275 0.065814793 10855588
1.9070294 0.51118088 0.065665185 10724004
1.9098172 0.51273191 0.065390706 10987174
1.9133842 0.51509666 0.064465463 10789801
1.9148884 0.5143587 0.064525604 10920874
1.9186633 0.51689231 0.063821495 10461619
1.8740714 0.49818555 0.069237232 10988472
1.8770111 0.49863464 0.069681227 10922682
1.8816496 0.50077558 0.068999231 10790839
1.887695 0.50371945 0.067769825 10856378
1.890185 0.50549352 0.065908968 10921643
1.8928435 0.5066036 0.065173805 11052971
1.8950448 0.50764757 0.065107644 10921384
1.897958 0.50917363 0.064447165 10855335
1.9005517 0.51007164 0.064148903 10855589
1.9037848 0.51145536 0.063409746 10395044
1.9059546 0.51284307 0.063428223 10460578
1.8681198 0.49639112 0.067539871 10988217
1.8712173 0.497107 0.068208337 10922936
1.871438 0.4992964 0.067353725 10988475
1.8778287 0.50149727 0.065741003 11053224
1.8809392 0.501827 0.06541276 10922159
1.8841829 0.50373173 0.064039886 10987429
1.8865274 0.50555503 0.064630687 10855588
1.8888128 0.50606459 0.064128876 10723751
1.8916037 0.50795943 0.063904941 10789544
1.8946607 0.51017845 0.063461423 10723493
1.8964666 0.5102253 0.06273663 10657960
1.8992835 0.51119387 0.062356412 10723753
1.9017053 0.51313478 0.062084436 10395047
1.8408079 0.48569453 0.071298242 10723997
1.8428777 0.4865388 0.071714342 10723994
1.8454138 0.4879477 0.071397841 10855579
1.8484573 0.48868254 0.070644498 10790043
1.8504456 0.48995423 0.070370555 10921373
1.8522739 0.49104995 0.070265412 10921629
1.8592784 0.49337563 0.067394078 11184305
1.8609214 0.49626854 0.067047536 11184820
1.863348 0.49627841 0.06726414 11184827
1.8662 0.49775919 0.06724 10988219
1.8693238 0.49897131 0.066684544 10922420
1.871824 0.50054401 0.064588487 11052970
1.8744694 0.50192392 0.06444186 10790055
1.8766966 0.50242007 0.063743889 10855850
1.879844 0.50447106 0.062646568 10658213
1.882277 0.50540709 0.063137412 10724005
1.8846806 0.50641483 0.063156128 10657957
1.8877078 0.50777787 0.062874854 10592426
1.8935443 0.51053494 0.061579347 10789552
1.8276539 0.48103711 0.071389377 11184802
1.8300173 0.48270714 0.071855664 11118753
1.8334281 0.48422274 0.071500599 10987167
1.8366123 0.48525235 0.071356833 10855581
1.8391449 0.48682949 0.071215332 10789787
1.848123 0.49031511 0.066953242 10856114
1.8514526 0.49195278 0.065886497 10856115
1.8547268 0.49483678 0.065710545 11053241
1.8569846 0.49481827 0.066611171 10987191
1.8593307 0.4962309 0.066955626 11184820
1.8625841 0.49827254 0.063943684 10855844
1.8653094 0.49847385 0.063971102 10921639
1.8678299 0.5008797 0.063255668 10592417
1.8701082 0.5012089 0.063183069 10526628
1.8729638 0.50286406 0.061982691 10658215
1.8755565 0.5041784 0.061888278 10526626
1.8785739 0.50546408 0.061965406 10658213
1.8811233 0.50610626 0.061639607 10329250
1.8834131 0.50847518 0.061772764 10328745
1.8170923 0.47743618 0.07165736 11645352
1.8188915 0.47951928 0.07176882 11579560
1.821264 0.47976613 0.07224828 11447717
1.8240938 0.48092857 0.071952581 11381668
1.8266943 0.48303846 0.07072717 10922164
1.8293303 0.4829084 0.070444167 10725043
1.8328677 0.48446506 0.069370747 10592945
1.8345225 0.48690942 0.068711281 10593463
1.8373861 0.48712265 0.067806542 10527414
1.8401338 0.48859188 0.067797601 10527412
1.8456807 0.49171472 0.06605196 10593459
1.8482598 0.49314526 0.066583276 10790836
1.8510863 0.49451303 0.06498152 10790310
1.8531662 0.49530298 0.06467247 10856105
1.8555861 0.49693125 0.063327968 10724260
1.8581448 0.49753109 0.063252866 10790054
1.8614744 0.49913219 0.062355101 10658214
1.8644441 0.50080484 0.061394632 10329249
1.8668878 0.50207818 0.061417222 10460836
1.8694644 0.50271034 0.061080277 10658216
1.8714657 0.50460482 0.061071575 10526630
1.87357 0.50523651 0.06099534 10723746
1.876164 0.50739658 0.06004411 10723491
1.8131182 0.47752982 0.071092486 11842477
1.8155215 0.47886527 0.071277261 11645355
1.8179727 0.48226732 0.069354057 10987700
1.8203204 0.48166862 0.069061756 10921652
1.8234355 0.4817118 0.069260776 10790834
1.8359513 0.48902407 0.064332545 10066076
1.8393846 0.48977906 0.064228654 10592671
1.841537 0.49191684 0.06424123 10461085
1.8444947 0.49302483 0.063968062 10526876
1.8476529 0.4941048 0.063333988 10329753
1.8496006 0.49509445 0.062131166 10461086
1.8522035 0.49693081 0.061676979 10460578
1.8547425 0.49792069 0.061410725 10460835
1.85765 0.49912244 0.06094861 10328991
1.8599643 0.50034481 0.060658753 10263457
1.8628271 0.50133479 0.060501933 10460834
1.8659804 0.50315368 0.059950471 10855339
1.8091156 0.47747406 0.068739414 11250071
1.8112174 0.47960332 0.068785548 11710893
1.8141919 0.48026887 0.067709446 11184566
1.8172572 0.48092461 0.068359017 11119285
1.8238083 0.48534149 0.064700186 10065820
1.8273158 0.48681501 0.064447522 10328994
1.8300061 0.48742843 0.064061701 10394785
1.8325875 0.48936757 0.0636006 10328990
1.8352852 0.49017993 0.063309312 10263707
1.8375345 0.49150184 0.062992454 10132123
1.8408319 0.49286538 0.062306106 9935004
1.8436772 0.4941977 0.061063707 10066332
1.8458298 0.49580023 0.060713232 10000027
1.8484067 0.49657157 0.060751915 10066076
1.8514032 0.49815974 0.06007421 10000284
1.8535546 0.49932906 0.059861302 10066074
1.8558424 0.50111997 0.059104264 10263197
1.8622313 0.50397456 0.058851779 10132137
1.804948 0.47819036 0.067383945 10000776
1.807052 0.47897089 0.068208456 10789769
1.8104194 0.48110428 0.065636635 11381421
1.811159 0.48236942 0.066573441 11448242
1.8191342 0.48369408 0.063849926 10592163
1.8207464 0.48577067 0.063592076 10526371
1.8236527 0.48669231 0.063491881 10329503
1.8258991 0.48763421 0.063038647 10263455
1.8286029 0.48944932 0.062544048 10131866
1.8313695 0.49048316 0.062022328 10000284
1.8342447 0.49219385 0.060857654 9737121
1.8366823 0.49365187 0.061060727 9803165
1.8393033 0.49474305 0.060835123 9802647
1.8419317 0.49623248 0.060105741 9933975
1.8444978 0.49772871 0.059856951 9868695
1.846832 0.49829981 0.059372485 9540255
1.8492999 0.50010192 0.058846712 9868693
1.7988434 0.47768566 0.065328062 12369074
1.8011804 0.47792703 0.06588608 12368821
1.8082314 0.48199677 0.063670158 9803153
1.8110625 0.48266885 0.062354267 10855553
1.8145965 0.484584 0.06213975 10986921
1.8169458 0.48565996 0.062254906 10657956
1.819163 0.48666412 0.06212014 10395039
1.8222117 0.48814633 0.061514378 10066334
1.8246045 0.48915577 0.061872184 9868961
1.8268111 0.49102014 0.0613271 9868956
1.8295183 0.49087831 0.060230017 10000543
1.7916089 0.47577932 0.064881742 10919552
1.7944322 0.47674647 0.064887047 11578259
1.797204 0.47718787 0.064799309 11842206
1.8028581 0.48066336 0.06241256 11447229
1.8051646 0.48192155 0.063490808 8422548
1.8104393 0.48556811 0.060701847 10395280
1.8128906 0.4859339 0.060290039 10395038
1.8155458 0.48683339 0.060389519 10328991
1.8173848 0.48899007 0.059968233 10066329
1.7829973 0.47282428 0.063891351 5458452
1.7863863 0.47482041 0.063831031 10325072
1.788371 0.47551391 0.063725889 10588777
1.7896917 0.47672173 0.063948512 10919035
1.7927897 0.47848031 0.064342618 11973796
1.7952332 0.47863477 0.060507774 9472887
1.7990136 0.48210073 0.060795248 12171446
1.8013775 0.48214647 0.060938299 11973568
1.8028325 0.48281369 0.058931172 10132121
1.806834 0.48528257 0.058664918 9737623
1.809222 0.4857403 0.058560073 8816778
1.8117604 0.48689538 0.058978498 10000282
1.7806288 0.47512901 0.063358903 5459759
1.7842543 0.47560674 0.06336087 7496983
1.7921398 0.48006961 0.058946609 9340786
1.7944056 0.48106751 0.059796929 10855070
1.7977747 0.48253334 0.05870384 10855584
1.8003665 0.48340085 0.057414711 10328982
1.8026118 0.48548836 0.057122469 10986918
1.8053688 0.4858658 0.056734502 10789798
1.8075795 0.48663923 0.056819141 9408664
1.8093972 0.48848513 0.0564816 8553610
1.7827168 0.47744897 0.059219003 4209443
1.7859268 0.47758588 0.059263527 9143356
1.7880615 0.48007816 0.058194518 9867600
1.7912556 0.48214719 0.056753635 10327634
1.7934906 0.48185819 0.056306839 10064492
1.7963656 0.48394573 0.056122065 10394248
1.7990296 0.48481604 0.055872917 10657945
1.8011668 0.48581448 0.055244744 10263707
1.8034549 0.4873623 0.055027485 10460575
1.8066862 0.48859432 0.055444479 10066334
1.7814721 0.47822568 0.056854963 7762516
1.784467 0.48013225 0.056293011 6116623
1.7868963 0.48066017 0.055593133 9537095
1.7898278 0.48239937 0.055334508 10063724
1.7925992 0.48384258 0.055060983 9932922
1.7948658 0.48455274 0.054520428 9604227
1.7972996 0.48630628 0.05404532 9802376
1.8004373 0.48746887 0.054019809 10263449
1.7829638 0.48075536 0.05457294 4671287
1.7856103 0.48218289 0.053628266 7430705
1.7882489 0.48392498 0.053825796 10130505
1.7912214 0.48489514 0.053502023 9471864
1.7828509 0.48227 0.052772403 4934763
1.7866184 0.48625782 0.050897717 7562240
1.9456644 0.51882869 0.075060725 11973804
1.9493184 0.52077198 0.076039374 12105639
1.9449373 0.52032351 0.07339555 11644853
1.9477838 0.52201748 0.073055625 11382199
1.9503075 0.52261806 0.073125839 11448243
1.9355001 0.5170697 0.073035181 11841946
1.9391291 0.51950145 0.072320879 11908262
1.941972 0.52122086 0.071673751 11579313
1.943338 0.521577 0.073180616 12499887
1.9213769 0.51341593 0.072989821 198416
1.9245284 0.51523387 0.073412597 3618607
1.9267977 0.51449776 0.072698534 8683862
1.9296178 0.51748013 0.071988821 11184006
1.9321663 0.51784885 0.071190059 11710892
1.9350688 0.51944333 0.070720077 11381941
1.937407 0.52047312 0.070885062 11251134
1.9135979 0.51061022 0.07174319 9014431
1.915465 0.51255643 0.072437525 3619937
1.9178857 0.51350999 0.072308719 3685459
1.9208705 0.5143466 0.072741091 1314584
1.9232924 0.51638609 0.070791364 67337
1.9275932 0.51757598 0.070293963 7501441
1.9319249 0.52164209 0.069063783 10922423
1.9335567 0.52138877 0.069217086 11118524
1.910852 0.51230496 0.070855021 10263733
1.9142803 0.51345438 0.070325792 9606049
1.9157214 0.51458514 0.070580781 10987431
1.921801 0.51542616 0.068707228 988707
1.9271642 0.52007329 0.066526413 3421755
1.9423615 0.52683687 0.064211726 11842482
1.9042695 0.51065987 0.068766356 10001838
1.9077321 0.51297677 0.068222284 10067636
1.9105756 0.51378655 0.067658544 10987432
1.9138012 0.51478261 0.067977488 10921643
1.9143608 0.51711822 0.068012655 11118763
1.9179161 0.51586962 0.067540526 10790304
1.9207823 0.51832306 0.065923572 5397625
1.9248 0.52103871 0.066408455 1447182
1.8936565 0.50757378 0.068411946 10198712
1.8963928 0.50853097 0.068265617 10921905
1.8984458 0.50906539 0.067713797 11316385
1.9015886 0.51151985 0.067627311 10133157
1.903829 0.51284736 0.067400277 10395810
1.9066694 0.51351511 0.06637758 10527136
1.908914 0.51506329 0.066155732 10789798
1.9114356 0.51647675 0.066156328 10987173
1.9139615 0.51624262 0.065923691 10790052
1.9165748 0.51901561 0.065158844 10789801
1.919786 0.52102095 0.064789295 8948108
1.8734241 0.50032789 0.070749521 11119545
1.8758099 0.50038421 0.070887387 10987448
1.8782872 0.50232732 0.070778608 11053496
1.8807466 0.50270391 0.070347786 11185083
1.8846748 0.50447893 0.068228185 10987961
1.8864903 0.50738913 0.067929864 11053241
1.8888762 0.50744545 0.068067789 10856112
1.8918182 0.50870442 0.067231417 10987948
1.8944578 0.50986856 0.06709826 10987168
1.8970885 0.51179063 0.066114724 10592422
1.90008 0.51233661 0.065784991 10592682
1.9028097 0.51350313 0.064871848 10526624
1.9049628 0.51491833 0.064563215 10132127
1.9075704 0.5163784 0.064696193 10855588
1.9102889 0.51628572 0.064348102 10855594
1.9132679 0.51916713 0.063624084 11118764
1.8720374 0.50121975 0.068814516 10922681
1.8759469 0.50321436 0.07051748 11119543
1.8829385 0.50679958 0.06604594 11053482
1.8850759 0.50710559 0.066120267 11052721
1.888411 0.50917733 0.065527618 10855589
1.8906546 0.50993168 0.064998329 10987178
1.893532 0.51134193 0.064583838 10855077
1.8958344 0.51202852 0.06420207 10658212
1.8987215 0.51403821 0.063646197 10526630
1.9011774 0.51513278 0.063566625 10526629
1.904084 0.51642895 0.063310325 10591902
1.9056844 0.51795429 0.06262356 10395037
1.8445506 0.49013227 0.071733773 10921372
1.8463897 0.49002177 0.071610451 10987165
1.8497216 0.49246019 0.07050693 10921629
1.8526254 0.4940697 0.070976555 10987167
1.8546355 0.49467942 0.071380317 11053216
1.8650348 0.49919251 0.066907406 11053752
1.8711691 0.50357282 0.066775799 10856889
1.8790731 0.50637758 0.064839542 10922150
1.8818274 0.50738531 0.064559579 10592674
1.8845717 0.50901151 0.064048409 10592420
1.8870063 0.51015413 0.063780487 10724004
1.8899555 0.51164532 0.063338935 10657958
1.8918397 0.51249456 0.063156128 10460834
1.8946148 0.51401275 0.062105477 10592419
1.8973451 0.5155713 0.061798394 10198178
1.8350534 0.48766607 0.071614802 10987166
1.8379508 0.48855731 0.071537197 10855579
1.8410237 0.49002233 0.071453571 10921374
1.8425107 0.49127555 0.07142669 10921374
1.8452919 0.49317446 0.070987105 11118752
1.8479944 0.49314865 0.070850015 11053216
1.8594675 0.4990609 0.06658572 11119285
1.8626487 0.49913609 0.06676954 10987955
1.8640666 0.50277066 0.065769732 10922165
1.866925 0.50268883 0.065370977 10593200
1.8700068 0.50405765 0.064961374 10922157
1.8732184 0.50489116 0.063830554 10724518
1.8754649 0.50641739 0.063510001 10856106
1.8777525 0.50776702 0.062594235 10526627
1.8802198 0.50877905 0.06278187 10526629
1.8830516 0.51033944 0.06235081 10921130
1.8853538 0.51149869 0.062090755 10330029
1.8883455 0.51293552 0.062497973 10855590
1.8939812 0.51552069 0.061119854 10526635
1.818749 0.48139921 0.072379529 11645094
1.8205388 0.48291489 0.072986603 11447718
1.8243331 0.48352268 0.072025776 11250340
1.8260208 0.48468247 0.072263837 11250595
1.8291925 0.48594192 0.071235359 10987692
1.8313249 0.48815784 0.070734799 10987431
1.8335245 0.48798832 0.071068287 11052959
1.8370186 0.49040279 0.06963414 10724779
1.8397006 0.49121472 0.068456411 10593712
1.841713 0.49277773 0.068405211 10790836
1.8447762 0.4938947 0.066978097 10725044
1.8482679 0.49597919 0.066155016 10790836
1.8506944 0.49598908 0.06637156 10921911
1.8531605 0.49827766 0.065625548 10922167
1.8557942 0.49855262 0.06557411 10921908
1.8603876 0.50234765 0.064074814 10855848
1.8631644 0.50291216 0.062888622 10855595
1.8660886 0.50398839 0.062626719 10724004
1.8685231 0.50583887 0.062400639 10461091
1.8712131 0.50659442 0.06173104 10526372
1.8738791 0.50830257 0.0614205 10461091
1.8764278 0.50897813 0.061793566 10592164
1.8789251 0.51044691 0.061352432 10855334
1.8126204 0.48046121 0.071871281 11842474
1.8145815 0.48149854 0.071727037 11776682
1.8170537 0.48257479 0.071914017 11513769
1.8199893 0.48359719 0.071047187 11185072
1.8232735 0.4852736 0.070683002 10987439
1.8257425 0.48640394 0.070395529 11118776
1.834571 0.48969692 0.0683617 10593716
1.8353745 0.49254975 0.067979395 10724786
1.84641 0.49617016 0.063414276 10526881
1.848662 0.498 0.064222634 10724508
1.8513991 0.49897885 0.063961625 10790053
1.8535148 0.49939415 0.062735796 10526884
1.8565772 0.50178921 0.062380433 10658212
1.859412 0.50314033 0.06149137 10592418
1.8623142 0.50420165 0.061199963 10460832
1.8649154 0.5050571 0.060845554 10395300
1.8678486 0.50680912 0.060805559 10526630
1.8693478 0.50799388 0.061240196 10657698
1.8724195 0.5094564 0.060901582 10395039
1.8087419 0.48042455 0.069973648 11710624
1.8110099 0.48107919 0.071096778 11908266
1.8141083 0.48213825 0.069045782 11053751
1.8160207 0.48357525 0.069035351 11185081
1.8172501 0.48495841 0.068900287 11316917
1.8202635 0.4863151 0.070053518 10856370
1.834437 0.49281996 0.064379334 10592929
1.8376093 0.4939895 0.064290345 10592669
1.8399171 0.49528539 0.063156903 10329759
1.8425299 0.49664563 0.063237786 10460833
1.8450254 0.49779448 0.06207341 10395037
1.8473561 0.49908891 0.062251151 10592417
1.8502163 0.50044739 0.061367869 10197661
1.8529966 0.50191331 0.060963929 10394783
1.8556328 0.50322402 0.060590804 10197917
1.858345 0.50421137 0.060267448 10263712
1.8611743 0.50547862 0.059775293 10461091
1.8640411 0.50761169 0.059556842 10066086
1.8067232 0.48161802 0.069075584 11447184
1.8095683 0.48233187 0.066481531 11513532
1.8121027 0.4840591 0.067972898 11119540
1.814157 0.48492593 0.068696201 11053753
1.8223246 0.48888969 0.063969254 10526626
1.8251473 0.4906545 0.064028919 10131870
1.8278623 0.49147856 0.063681006 10329503
1.8303583 0.49301809 0.063486814 10395038
1.8331659 0.49348238 0.062854469 10197660
1.8359022 0.49581549 0.062042177 9934747
1.8380944 0.49703386 0.061475396 9803165
1.8410475 0.49799764 0.061030746 9934747
1.8436511 0.49899516 0.060801923 10000284
1.8466265 0.50056088 0.060049891 9737368
1.8485839 0.50142956 0.059871495 9934744
1.8514745 0.50317419 0.058967113 10065818
1.8001167 0.47976726 0.066598594 11974321
1.8028066 0.48164082 0.067185938 9474432
1.804908 0.48157403 0.067799985 9934190
1.8088493 0.48447743 0.065640509 10790579
1.8104122 0.48513815 0.066177845 10988728
1.8164439 0.48817596 0.063529015 10790056
1.8190931 0.48913285 0.063192904 10526626
1.8214419 0.49091658 0.062987387 10329249
1.82424 0.49141634 0.062377155 10197919
1.8262191 0.49334601 0.062273622 9934495
1.8294574 0.49373996 0.061282396 9934488
1.831959 0.49534976 0.060826898 9737625
1.8343202 0.49656549 0.061111033 9868701
1.8383763 0.49889034 0.060329437 9802392
1.7969403 0.48029244 0.065644324 12632507
1.7993503 0.48170155 0.065847933 12105908
1.8035743 0.48531783 0.063455462 7304559
1.8073962 0.48581713 0.064025164 10658729
1.8122098 0.48810887 0.06199187 10789796
1.8150401 0.48927549 0.061781406 10395041
1.8173219 0.4906978 0.061688364 10131868
1.8201456 0.49137577 0.061318696 10000539
1.8231688 0.49406376 0.060341418 9934748
1.8284627 0.49552059 0.059955537 9934743
1.7897068 0.47879425 0.064252853 12302500
1.7920439 0.4810878 0.064105451 12829627
1.7953949 0.48152292 0.064795196 12829630
1.7973951 0.48268634 0.061148822 12237498
1.8004327 0.48433408 0.062524796 10001586
1.8027866 0.48469919 0.062924623 6976915
1.8063885 0.48690489 0.06078279 10000778
1.808833 0.48812553 0.060243547 10526356
1.8108647 0.48946056 0.060121179 10526621
1.8134091 0.49058512 0.060448468 10066076
1.7807243 0.47745371 0.063474357 4670496
1.7835425 0.47856367 0.063100755 6709022
1.7859077 0.47903186 0.063682735 11642989
1.78904 0.48126376 0.064232469 13026488
1.7958684 0.48485082 0.060163558 12040383
1.7981985 0.48553908 0.060766518 12106692
1.8014718 0.48676145 0.058340669 10263708
1.8047156 0.48871398 0.058208227 9803154
1.8071718 0.48953098 0.058117688 9144968
1.8090135 0.49095896 0.058519423 10591893
1.7849865 0.48181266 0.059848905 10592880
1.7871168 0.481655 0.059823036 11250569
1.789674 0.48313478 0.059420824 11447721
1.7927933 0.48414561 0.059489965 11710903
1.7955894 0.48591387 0.056954563 11381930
1.7979896 0.48722303 0.056989908 11052968
1.8005953 0.48853001 0.057065487 11316141
1.8032167 0.48949131 0.056547999 10592420
1.805845 0.49068838 0.056260884 8750471
1.7811583 0.48067629 0.058451533 5328186
1.7834364 0.48164666 0.058435678 6447144
1.7864273 0.4836182 0.057949066 9669719
1.7890799 0.48499754 0.056380153 10788739
1.7916142 0.48598817 0.056040108 10854807
1.7943437 0.4870421 0.056208313 10855587
1.7968405 0.48861277 0.055404127 10855591
1.799288 0.48961687 0.054931879 10790055
1.8016894 0.49124843 0.055392265 10461355
1.7823639 0.48394006 0.056040525 5130292
1.7851627 0.48423171 0.055469513 7038012
1.7873343 0.48603603 0.05509752 10457986
1.790186 0.48733789 0.054142475 9999752
1.7932631 0.48898745 0.054334879 10395039
1.7950047 0.48928639 0.054016352 10197403
1.781306 0.48515218 0.053847909 6973793
1.7841896 0.48561889 0.053078234 5327400
1.7866344 0.48774627 0.052747071 9142609
1.7891386 0.48898113 0.052772284 9932938
1.7833076 0.48839504 0.051831484 4146499
1.9509798 0.52428311 0.076206803 12105128
1.9474736 0.52432436 0.074144185 11908529
1.949712 0.52481508 0.07415694 11710895
1.9520078 0.52764243 0.073308527 11184828
1.9380602 0.52260202 0.07358259 12039582
1.9406753 0.52204502 0.073431134 12170916
1.943684 0.523893 0.073428512 11776947
1.9455662 0.52477145 0.073790014 11448761
1.9513398 0.52957588 0.071998596 11382959
1.9217882 0.51639748 0.07462132 726540
1.9232018 0.51679993 0.075527549 854277
1.926918 0.51920235 0.074458897 8221026
1.9285352 0.51836777 0.073578119 10064235
1.9299799 0.52144074 0.072995245 10986102
1.93678 0.52301747 0.070867062 11579313
1.9393413 0.52392495 0.07170248 11579317
1.9453363 0.52740157 0.071903408 11382968
1.9150136 0.51449561 0.074702799 2629693
1.917625 0.51611531 0.073678017 1448505
1.9199673 0.51623344 0.074001849 1250311
1.9220285 0.51812869 0.072152793 1776161
1.9286301 0.52049863 0.070086658 7107194
1.9338074 0.52296537 0.070652902 11907736
1.9352829 0.52444017 0.069810152 11118779
1.9368721 0.52612889 0.069416106 11250107
1.9402966 0.52690744 0.070651531 11383222
1.913918 0.5158093 0.072453976 6249851
1.9160361 0.51770937 0.070779502 7500664
1.918065 0.51836431 0.071316838 5657692
1.9233143 0.52194053 0.069229782 1841959
1.9265666 0.52182209 0.069643915 463115
1.9296669 0.52342129 0.069879293 7370878
1.9342718 0.52523935 0.068325698 10921655
1.9430172 0.52960259 0.066203892 11710384
1.9097177 0.51580238 0.070369124 10658483
1.9123862 0.51719403 0.070058882 10855601
1.9147152 0.51853311 0.069363296 10921643
1.9210858 0.5208267 0.067561567 1974862
1.9224594 0.52183086 0.067751229 1515293
1.925444 0.52310532 0.06729573 660226
1.9033561 0.51487494 0.069034636 10791344
1.9059198 0.51624268 0.068097293 11185067
1.9084353 0.51746076 0.06811285 10921902
1.9110322 0.5187636 0.067052484 10987435
1.9132056 0.5203259 0.067091525 11250347
1.9167925 0.52221841 0.065132439 10855845
1.9192177 0.5221532 0.065775275 8356230
1.8906693 0.51056015 0.068346262 11053468
1.8947293 0.51319838 0.067620456 10527135
1.8963881 0.51268846 0.067354381 10855310
1.8988959 0.51515943 0.067498863 10922153
1.9015167 0.51575738 0.06741184 10593715
1.9041286 0.5171845 0.0659284 10790055
1.9068439 0.51859272 0.065686941 10724011
1.9098043 0.52043855 0.065649986 11052968
1.9120246 0.52071559 0.064720511 11052973
1.915363 0.52284998 0.064844072 11184301
1.8727657 0.50313926 0.0703336 11053752
