# .PCD v0.7 - Point Cloud Data file format
VERSION 0.7
FIELDS x y z rgba
SIZE 4 4 4 4
TYPE F F F U
COUNT 1 1 1 1
WIDTH 1107
HEIGHT 1
VIEWPOINT 0 0 0 1 0 0 0
POINTS 1107
DATA ascii
1.9332128 0.71994632 -0.0092974901 11907519
1.9361053 0.7234115 -0.0096569061 12038851
1.9377233 0.72614735 -0.010457397 12105148
1.9397908 0.72989541 -0.01216352 11974325
1.9417567 0.73366052 -0.012045503 12039861
1.9445415 0.7366069 -0.011980176 11974325
1.9455125 0.73871416 -0.012026906 11908276
1.9470983 0.74027205 -0.011567831 12434619
1.9492879 0.74322265 -0.011650681 12105911
1.8652583 0.62448519 0.0033869743 12171958
1.8671272 0.62792498 0.0030913353 12171958
1.8696189 0.63087642 0.0031542182 11974836
1.8717753 0.63454199 0.0028263927 11777713
1.87362 0.63814431 0.0026823282 11514284
1.8759527 0.64091098 0.0028192997 11514541
1.8771708 0.64308912 0.00027740002 10591404
1.8793004 0.64550811 0.000426054 10591659
1.8813148 0.64886624 0.00024074316 10986414
1.8830786 0.65116352 -0.00039577484 11184046
1.8846257 0.65397441 -0.00039738417 11644853
1.8867301 0.65585166 -0.0010680556 11250348
1.8879602 0.65869069 -0.00084203482 11513262
1.8905529 0.66141003 -0.0014160275 11974324
1.8909011 0.66235059 -0.0013036132 11250091
1.8933418 0.6661616 -0.0019901991 11513775
1.8951201 0.66964132 -0.002227664 12303544
1.8960252 0.66997319 -0.0024077892 11513518
1.8975687 0.67302179 -0.00233531 11776945
1.8998058 0.67574722 -0.0021027327 11250603
1.9155655 0.69906998 -0.0066345334 12369083
1.9196951 0.70346355 -0.0081250668 11316396
1.9196995 0.70591295 -0.0080481768 12039863
1.924446 0.71010494 -0.009323597 12105912
1.9255775 0.71394485 -0.0083506703 11841980
1.9268018 0.71489841 -0.010896683 12369339
1.9278994 0.71735275 -0.010718465 11973558
1.9302241 0.7197867 -0.010786414 12105656
1.9325989 0.72258943 -0.011132121 11908279
1.9325757 0.72465897 -0.011509895 12171192
1.9347169 0.72708577 -0.011642694 12105655
1.9365302 0.73066676 -0.011670232 12434874
1.9375057 0.73175514 -0.012156546 11776691
1.9392915 0.73458081 -0.01207 11974324
1.9403341 0.73648441 -0.012134254 12170936
1.8564916 0.61558229 0.0035082102 11974579
1.8588746 0.61918718 0.0033804178 12106423
1.8611565 0.62219942 0.0033119917 12171958
1.8624783 0.62550777 0.0027958751 11842484
1.8643137 0.62852281 0.0032588243 12171959
1.8668113 0.63214505 0.0022066832 11777206
1.8694036 0.63460898 0.0016868114 11381683
1.8714812 0.63834471 0.00057816505 11051955
1.8733964 0.64194226 -5.5551529e-05 11381429
1.8762197 0.64491081 -0.00050854683 11184301
1.8769991 0.64756966 -0.00090801716 10921130
1.8793417 0.64976591 -0.0011138916 11513263
1.8809836 0.65259397 -0.00092613697 11842229
1.8822926 0.65434647 -0.0011819601 11513776
1.8837962 0.65697938 -0.00089484453 11250348
1.8856666 0.65938509 -0.0012900829 11776946
1.8883114 0.66352236 -0.0015521646 11184810
1.8909686 0.66710985 -0.0021457672 11776945
1.9143369 0.7011078 -0.0074987411 12369083
1.918413 0.70635951 -0.0091927648 11316396
1.9181664 0.70811605 -0.0099297166 12369083
1.9223977 0.7112819 -0.010283887 12369339
1.9224576 0.713884 -0.011044145 11842484
1.9238677 0.71623087 -0.010844111 12369083
1.9256837 0.71797103 -0.011688292 11513775
1.9275569 0.72074318 -0.01181674 11711153
1.9301043 0.72461468 -0.011995494 11842740
1.9328072 0.72930491 -0.012743175 11447982
1.935082 0.73344046 -0.013061941 11447982
1.8449864 0.60486978 0.0035556555 12500922
1.8474544 0.60763788 0.0035147071 12435387
1.8500168 0.61069256 0.0033790469 12435131
1.8521122 0.61298764 0.0037537217 12237751
1.8535402 0.61615497 0.0029331446 11645107
1.8554745 0.61959398 0.0029126406 11710901
1.8576975 0.62090248 0.0014851093 10788783
1.8586919 0.62345523 0.0025972724 11513266
1.86095 0.62761348 0.0015916228 11052209
1.8633703 0.63072956 0.0012357235 11118001
1.8649399 0.63400644 0.00030863285 11184048
1.8672154 0.63664573 -0.00020760298 11974073
1.8690909 0.64023119 0.00068318844 11051952
1.8699301 0.63985461 -0.0015187263 11908277
1.8718455 0.64287859 -0.0015477538 11645104
1.8734789 0.64577699 -0.0011457205 11315885
1.8751003 0.64893568 -0.0012007356 11579311
1.8775673 0.65111876 -0.0012184381 11184297
1.8794471 0.65363824 -0.0011187196 11447212
1.9167175 0.70931417 -0.010124803 11842739
1.9200068 0.71535742 -0.011737347 11316396
1.9224727 0.71957642 -0.012247324 11316396
1.8372881 0.5969944 0.0032046437 12698302
1.8394423 0.60080385 0.0026231408 12895681
1.8411114 0.60276932 0.0033175349 12698302
1.8427896 0.60550058 0.0029934645 12171450
1.8444173 0.60865217 0.0029246807 12171450
1.8472838 0.61110967 0.0027632713 11842487
1.849546 0.61375093 0.0037168264 12303544
1.8489032 0.61455023 0.0018002987 11118003
1.8508534 0.61788785 0.001594007 10986160
1.8528273 0.61977834 0.00083351135 11052206
1.8551862 0.62343794 0.00056618452 10920621
1.8572278 0.62574935 5.6922436e-05 11052460
1.8587539 0.62869185 -0.00060594082 11250092
1.8595402 0.62930709 -0.00028425455 11776439
1.8611256 0.63246244 -0.00145787 11579312
1.8635545 0.63508713 -0.0014170408 11842740
1.8649628 0.63783497 -0.0010703802 11710642
1.8670924 0.64011467 -0.0016589165 11447727
1.8680844 0.64184844 -0.0022349954 11184810
1.869807 0.64457017 -0.0017335415 11513519
1.8715456 0.6474368 -0.0017809868 11315629
1.8254501 0.5844394 0.0044187307 12501179
1.8282847 0.58784389 0.003818512 12698302
1.8298737 0.59111857 0.0035896301 12698301
1.8313823 0.5939039 0.0030154586 11842231
1.8348536 0.59814745 0.0027369261 12764351
1.8352435 0.59978223 0.0027923584 11973560
1.8375465 0.60183686 0.0021713376 12039610
1.8390803 0.60365975 0.0026677251 11776184
1.8407645 0.60643589 0.0020816326 11908281
1.8431396 0.60934705 0.00083309412 11710645
1.8448761 0.61259371 0.0010536909 11250097
1.8460854 0.61413479 -0.00017857552 11645106
1.8480527 0.61689353 -0.00024479628 11710898
1.8494099 0.61970431 -0.00041902065 12500669
1.8505323 0.6207642 -0.00033462048 11118506
1.8533278 0.62433052 -0.0015492439 11776947
1.8549285 0.62732816 -0.0013632774 11842484
1.8562107 0.62916529 -0.0014610887 11645361
1.8580577 0.6299578 -0.0017450452 11842740
1.8591397 0.63342577 -0.0015246272 11645361
1.861769 0.636406 -0.0017127991 11250603
1.8636196 0.64021319 -0.0020759702 11184810
1.8065925 0.56086582 0.0060573816 12961475
1.808104 0.56373143 0.0059916377 13027267
1.8104545 0.56662178 0.0058338642 12961219
1.8132643 0.57008761 0.0051306486 12895683
1.8154582 0.57385671 0.0044667721 12698304
1.816663 0.57629371 0.0038557053 11908281
1.8183267 0.57832283 0.0039091706 11908535
1.8200574 0.58141291 0.0041428804 12303800
1.8224671 0.58275318 0.0037008524 11842741
1.8231897 0.5857982 0.0036915541 11644850
1.8257408 0.58876163 0.0033220053 11776438
1.8281608 0.59155893 0.0036381483 12632508
1.8277196 0.59233642 0.0024367571 11051955
1.8298383 0.59493768 0.0029156208 11842231
1.8321973 0.59791237 0.0019922256 11842232
1.8339639 0.6005531 0.0011158586 11710389
1.8356473 0.60321647 0.00067389011 11776693
1.8371267 0.6058628 0.00020837784 11645361
1.8389845 0.60812765 0.00014913082 11710898
1.8403327 0.61063153 -1.2636185e-05 11842484
1.8417852 0.61282766 -0.00019168854 11316141
1.843672 0.61525875 -0.00010603666 11710899
1.844949 0.61755788 -7.5697899e-06 11842740
1.8494515 0.62168711 -0.0011882782 11250603
1.8510253 0.62530929 -0.0015944242 11908532
1.8526715 0.62864453 -0.0015823841 11908532
1.8003352 0.55609906 0.0060944557 13027265
1.8016783 0.55896372 0.0060691237 13027265
1.803506 0.56032026 0.0059242845 13027010
1.8047326 0.56283128 0.0056111217 12434623
1.8063204 0.56517464 0.0051502585 12171453
1.8083254 0.56740952 0.0051466227 12236989
1.8105075 0.57037354 0.0051140785 12500415
1.8114494 0.57281697 0.0041903853 12303291
1.8130097 0.57398957 0.0038547516 11776696
1.8145249 0.57742947 0.0037739277 11710902
1.8165218 0.57966232 0.0035332441 11513522
1.8184025 0.58146775 0.0035584569 10789040
1.819471 0.58435541 0.0023266077 11052718
1.8217034 0.58700126 0.0018571615 11250092
1.8237889 0.58971852 0.0012109876 11447471
1.8257589 0.59229124 0.0008225441 12171704
1.8269817 0.59458375 0.00077646971 12105656
1.8280201 0.59609002 0.00050020218 11184301
1.8297093 0.59854299 0.00021278858 11513776
1.8313124 0.6018585 -4.7683716e-06 11579312
1.8333519 0.60416991 0.00033485889 11776691
1.8348703 0.6068725 0.00017023087 11447725
1.7929449 0.5486756 0.0053067803 10000524
1.7946578 0.55154192 0.005338192 11381653
1.7959836 0.5543052 0.0049897432 11117715
1.7978966 0.55685091 0.0055177212 12631222
1.79986 0.55891669 0.0051721931 12236217
1.8011532 0.56165838 0.0051828623 12105147
1.8027487 0.56462854 0.0044791698 11381431
1.8044566 0.5664975 0.003600657 11513269
1.8064258 0.56933397 0.0030905008 11381430
1.808171 0.57116044 0.0033555627 11710901
1.8090961 0.57360047 0.0025267601 11579313
1.8108 0.5755558 0.0022917986 11579317
1.812717 0.57883334 0.0016739964 11908533
1.8129346 0.58014548 0.00028657913 10131116
1.8161079 0.58284336 0.00089436769 11250097
1.8170685 0.58563632 0.00032442808 11118770
1.8192782 0.5878039 0.00071293116 10921388
1.8212268 0.59040618 0.0011402369 11381934
1.823473 0.59336859 0.00088870525 11711154
1.8252687 0.59686369 0.00012588501 11382189
1.8257933 0.59694642 0.00058197975 11381677
1.8268905 0.60013819 3.4689903e-05 11382189
1.7869345 0.54407418 0.0051395297 8421756
1.7891655 0.54701132 0.0050225258 8290430
1.7908399 0.54963565 0.0050323009 8750460
1.7923203 0.55248052 0.0050830841 8881791
1.7940371 0.55536401 0.0049864054 9012862
1.7957323 0.55805182 0.003785491 11380883
1.7973158 0.5607264 0.0035202503 11445393
1.7992511 0.56255758 0.0020417571 11775663
1.8003409 0.56497651 0.0023723245 11907507
1.8022261 0.56774247 0.002417624 11513013
1.8040142 0.56989568 0.0021264553 11513522
1.8049285 0.57207119 0.0019480586 11447478
1.806769 0.57445675 0.0014266968 10855087
1.8084899 0.57721102 0.0013651252 11118258
1.810218 0.58075577 0.00093984604 10591660
1.8139522 0.5826804 0.00062954426 9999790
1.8130753 0.5838812 0.00040632486 11447730
1.8150223 0.58668804 0.00023591518 10394797
1.8166988 0.58894128 0.00034755468 9604524
1.7834716 0.54385805 0.0035704374 8751488
1.7852597 0.54619384 0.0036553144 8290173
1.7864125 0.54866827 0.0040020943 8158075
1.788096 0.55136597 0.004265666 7895160
1.7901996 0.55324435 0.0023880005 8355191
1.7920892 0.55665171 0.001980722 9276286
1.7930108 0.55885243 0.0021133423 9868419
1.7951287 0.56136751 0.0018448234 9209718
1.7969245 0.56448644 0.0017316341 10656653
1.7982248 0.56646228 0.0018783808 11116703
1.8005812 0.56991535 0.0012657642 10853302
1.8010364 0.57073355 0.0014492273 11579568
1.8048892 0.57561219 0.0010441542 10262703
1.7819486 0.54536408 0.0027029514 7502196
1.7830822 0.5481891 0.0019279718 7633282
1.7836924 0.55050737 0.0024228096 8290943
1.7858109 0.55232686 0.0016456246 7960956
1.7874951 0.55469364 0.0014828444 8881791
1.7893904 0.55738473 0.0010447502 8487293
1.7908072 0.55959034 0.0009894371 7894648
1.7925375 0.56227064 0.00063455105 6775147
1.7790897 0.54662478 -2.5987625e-05 11646137
1.7806866 0.54815471 0.00056356192 9409698
1.781935 0.55152172 0.00073182583 7962515
1.7842197 0.55341524 -0.00058811903 8225146
1.7856324 0.55601352 -0.00020641088 8816258
1.7869391 0.5585112 -3.7074089e-05 9868431
1.7883811 0.56138194 -0.00021213293 8420486
1.7766287 0.54811412 -0.0014199018 13421770
1.7787926 0.54991889 -0.00077176094 11908290
1.7800064 0.55336702 -0.00049805641 10922166
1.7817268 0.55495751 -0.0015377998 9606308
1.7834593 0.55772209 -0.0018402338 8619657
1.7849318 0.55964309 -0.0020907521 7830137
1.7852793 0.56246144 -0.0020591021 8487289
1.770046 0.54307795 -0.0026627183 11709312
1.7724677 0.54619491 -0.0033826232 10852734
1.7748072 0.54888791 -0.0025384426 12894395
1.7765582 0.55171251 -0.0022253394 12499391
1.7778311 0.55371457 -0.0026756525 12631490
1.7797167 0.55629438 -0.0034279823 12303037
1.781243 0.55874074 -0.0038762093 9737901
1.7823236 0.56135833 -0.0036645532 8685723
1.7652886 0.54046541 -0.0037446022 10851960
1.7668343 0.54232961 -0.0034449697 10918264
1.7690117 0.54525334 -0.003621757 10391668
1.7709064 0.54770869 -0.0036045313 11050365
1.7720006 0.55018324 -0.0033164024 11380102
1.7736669 0.55268526 -0.0037727356 12103826
1.7754126 0.55504078 -0.0041975379 12828340
1.7774844 0.55700207 -0.0046723485 12631740
1.7787735 0.56014812 -0.0052606463 11908031
1.7806238 0.56275481 -0.0051224232 10789825
1.7818667 0.5641669 -0.0043632388 7501235
1.7649796 0.54424101 -0.0039530993 10588790
1.7665551 0.54602671 -0.004581809 10720370
1.7685885 0.54865384 -0.0046424866 10720629
1.7699933 0.55092418 -0.0051055551 10918258
1.7708652 0.55312145 -0.0057705641 11576696
1.773267 0.55650806 -0.0056610107 11379840
1.7750951 0.55861765 -0.0070647597 12039074
1.7769136 0.56120276 -0.0067150593 11907767
1.778615 0.56401396 -0.00616467 11380427
1.7642381 0.54732549 -0.0057318807 11312499
1.7660618 0.54882467 -0.0057663918 11312500
1.7678839 0.55203247 -0.006942153 10983538
1.7694149 0.55533928 -0.00772053 10917999
1.7719069 0.55771977 -0.0078189373 10655597
1.7731975 0.56061637 -0.0077152252 10985082
1.7750371 0.56234694 -0.0073820949 11380376
1.7761471 0.56422901 -0.0069172382 11842730
1.7640952 0.55139494 -0.008110404 10456938
1.7658873 0.55416 -0.0082218051 10720366
1.7678185 0.55719823 -0.0084726214 10259817
1.7693548 0.55948448 -0.0082425475 10457195
1.7642906 0.55580622 -0.0085258484 9797728
1.7661085 0.55818421 -0.0088115931 11709054
1.9541097 0.73685038 -0.0035864115 10460302
1.9573565 0.73841935 -0.0039986372 9868163
1.961103 0.74718153 -0.0061149597 10457970
1.9053417 0.66926116 0.004480958 11316906
1.9080937 0.67239791 0.0045181513 11382700
1.9101374 0.67614442 0.0042175651 11579822
1.9143691 0.68160063 0.0025593042 11514029
1.944346 0.72696829 -0.0050458908 11645871
1.9462168 0.73061019 -0.0048325062 11579821
1.9493401 0.73409575 -0.0048474073 11580077
1.9511712 0.73573381 -0.0036107302 11316389
1.9571688 0.74575651 -0.0069555044 12234406
1.9585305 0.74753869 -0.0068057775 11444349
1.9620256 0.74996638 -0.0072757602 10129275
1.896582 0.66031826 0.0043823719 11645614
1.8984051 0.66359317 0.0043882132 11711408
1.9000361 0.66702998 0.0045859814 11514028
1.9020913 0.66679639 0.0042377114 11448235
1.9031353 0.67070091 0.0041046143 11448235
1.9059491 0.67400175 0.003909111 11514029
1.9076596 0.67735803 0.0039421916 11579823
1.9102887 0.68003303 0.0013536215 11446713
1.9120154 0.68302006 0.0019394755 11579314
1.9157548 0.68659431 0.00078320503 11644092
1.9184252 0.69224584 -0.00057268143 11644347
1.9366893 0.72068453 -0.0051853061 11514028
1.9404254 0.72376478 -0.0051299334 11645869
1.941185 0.72740072 -0.0047226548 11711663
1.9443187 0.73117232 -0.0048120618 11580077
1.945888 0.73432207 -0.0043820143 11711406
1.9515865 0.74407768 -0.0076192021 12827331
1.9538078 0.74517626 -0.0073257685 12432055
1.9560835 0.74773395 -0.0078421831 11642773
1.9575319 0.74938798 -0.007871151 10261091
1.8891742 0.65440202 0.004547596 11711407
1.8919735 0.6576823 0.004537344 11514286
1.8928025 0.66131985 0.0044916868 11645614
1.8944209 0.66059291 0.0045379996 11645615
1.8955299 0.66439545 0.0044255257 11777199
1.8980875 0.66771495 0.0044006109 11514283
1.9009949 0.67218488 0.0027672052 11316144
1.9036448 0.67554343 0.0033746958 11645615
1.9043458 0.67577833 0.0013526678 11315126
1.9062953 0.67968529 0.0018385649 11579059
1.9082828 0.68302578 0.000859797 11512503
1.9110601 0.68671572 0.00027394295 11579059
1.9152381 0.6902703 -0.00053930283 11513523
1.9150846 0.69329578 -0.0020957589 11711406
1.9185326 0.69797093 -0.0032039881 11644348
1.9298322 0.71397495 -0.0049722195 11580078
1.9329529 0.71760434 -0.0052406192 11514286
1.935205 0.72165775 -0.0054087639 11645615
1.9366674 0.72509342 -0.0051705837 11645614
1.9385271 0.72432685 -0.005109489 11711662
1.9441338 0.73592007 -0.0086842775 12104898
1.9459288 0.73890805 -0.0083086491 12236227
1.9487572 0.74080014 -0.0083532333 12367812
1.9513808 0.74630868 -0.0097829103 12434359
1.9535811 0.74725193 -0.0097877979 12104875
1.955236 0.74939066 -0.0099742413 11577740
1.8808796 0.64623976 0.0036845207 11908787
1.8820579 0.64906073 0.0042077303 11777457
1.8850303 0.65266889 0.0039384961 11842994
1.8865646 0.65559423 0.0043401718 11777457
1.8890024 0.65844262 0.0046702623 11580078
1.8914856 0.66193646 0.0012457967 11183795
1.8931916 0.66484278 0.0014970899 11249588
1.8961397 0.66839004 0.0011245608 11051955
1.8988433 0.67128211 0.00095462799 11117748
1.8987738 0.67396122 0.0013890862 10986417
1.900558 0.67587024 -0.0011922121 11315629
1.9021375 0.67797661 -3.2782555e-06 11776182
1.9048057 0.68099016 5.364418e-05 11841975
1.905848 0.68128574 -0.0012866259 11512751
1.9077233 0.68585795 -0.0015268326 11579058
1.9096997 0.68836367 -0.00015950203 11513523
1.9104507 0.69052011 -0.0029166341 11447727
1.9130076 0.6926325 -0.0021077394 11710896
1.9145045 0.69382358 -0.002028048 11446969
1.9156795 0.69860899 -0.0029541254 11645870
1.9180703 0.69862241 -0.0033825636 11711662
1.9189643 0.70286208 -0.0043393373 11710899
1.9232206 0.70767546 -0.0049625635 11777199
1.9248741 0.71119457 -0.0049154758 11645869
1.9274719 0.71141332 -0.0054657459 11711406
1.9267519 0.71479666 -0.0049220324 11645613
1.9298501 0.71834344 -0.0050397515 11580077
1.9328368 0.72172678 -0.0051311255 11645613
1.9387119 0.73050594 -0.0091400146 12104640
1.9408866 0.73415005 -0.0091450214 12104641
1.9424005 0.73721808 -0.0087018013 12105152
1.9441895 0.74000096 -0.0081070662 12170690
1.9457686 0.74132621 -0.011391938 12236985
1.9473399 0.74428177 -0.010835528 11974325
1.9492867 0.74598044 -0.010311365 12302775
1.9502077 0.74983603 -0.010257363 11446942
1.8742228 0.64147413 0.0027993917 11711663
1.8765092 0.64419872 0.0032382011 11843249
1.8781729 0.64704287 0.0036814213 12106422
1.8795886 0.65021271 0.0039665699 11974835
1.8818872 0.65285623 0.0043296218 11842993
1.8834841 0.65524346 0.00089740753 11315127
1.8858159 0.65754062 0.0011426806 11051957
1.8875976 0.66050833 0.0013395548 10920371
1.8894305 0.66369718 0.00072473288 10986416
1.8919053 0.66655159 0.0013731718 11118003
1.8937285 0.66982675 0.0013790727 10986161
1.8974893 0.67401862 -0.0014051795 11184044
1.8985257 0.67684186 -0.0017204285 11579311
1.9009812 0.68002611 -0.0021331906 11579567
1.9027756 0.68135279 -0.0015308261 11513519
1.9029144 0.68387526 -0.001758635 11644848
1.906601 0.68730789 -0.0023754239 11710898
1.9052528 0.68884152 -0.0030908585 12369338
1.9086621 0.69257438 -0.0033919811 11250603
1.9102657 0.69401193 -0.0036039948 11908275
1.9133927 0.69664407 -0.0047366619 11513518
1.9139844 0.69882685 -0.0034558773 11579315
1.9165707 0.70415461 -0.0056648254 11711152
1.9170384 0.70572966 -0.006028235 11512760
1.9204928 0.70766026 -0.0044534206 11711663
1.9222341 0.71085852 -0.0060278177 11710900
1.9279182 0.71881717 -0.0091199875 11841722
1.9303658 0.72340375 -0.0096975565 11907261
1.9328053 0.7258845 -0.0093687177 11973311
1.9344186 0.72923517 -0.0099061728 11907513
1.9363786 0.73289251 -0.0099807978 11973562
1.938347 0.73524421 -0.010423839 12236988
1.9409729 0.7388556 -0.012136996 12106167
1.9422131 0.7409305 -0.011248529 12171448
1.943615 0.74366856 -0.010991216 12302777
1.9449487 0.74517882 -0.011005044 11974069
1.8667526 0.63551611 0.0031976104 12106422
1.8697891 0.63855261 0.0030571818 11974836
1.8715239 0.64233857 0.002830863 11842993
1.8729517 0.64505851 0.0034029484 12106166
1.8750131 0.64723039 0.0040037632 12172215
1.8798076 0.65447086 0.00065088272 11183797
1.8811162 0.6566534 3.2544136e-05 11578806
1.8831016 0.65948963 0.00027108192 11381169
1.8850563 0.66192013 -0.00024724007 11250093
1.8866692 0.66369718 -0.0013395548 11776946
1.8876774 0.66589838 -0.00083744526 11579055
1.8909118 0.66853499 -0.0011110306 11118249
1.8922311 0.67089236 -0.0021133423 12369081
1.8933346 0.67294616 -0.0018211007 11645103
1.8950143 0.67613137 -0.0020186305 11184554
1.8964643 0.6781587 -0.0018047094 11776690
1.8983032 0.68108672 -0.0018033385 11776946
1.9005578 0.68465054 -0.0019730926 12369339
1.9048673 0.69046026 -0.0035039186 11710897
1.908214 0.69577515 -0.0048530698 11710898
1.9117225 0.701213 -0.006143868 11644848
1.9130104 0.70228314 -0.0068142414 11645108
1.9159242 0.70805669 -0.0076465011 11578803
1.9194417 0.7099967 -0.00877738 11776179
1.9203957 0.71273476 -0.008200407 11710139
1.9220961 0.71552598 -0.010202289 11776435
1.9237208 0.71683598 -0.0088441372 11775674
1.92536 0.72079796 -0.010083437 11973560
1.9281482 0.72245675 -0.010549009 12039606
1.9277234 0.72510815 -0.010572314 11841975
1.9301045 0.72795075 -0.010594606 12105403
1.9319111 0.7295205 -0.011400461 12171448
1.9335005 0.73195785 -0.011522174 12434875
1.9345241 0.73469782 -0.011398256 11973814
1.9361525 0.73709071 -0.012389898 11776946
1.9377519 0.73908401 -0.011945307 12171448
1.9398947 0.74161196 -0.011945069 11710898
1.8565485 0.62346214 0.0034389496 12237752
1.85896 0.62627059 0.0034115314 12237752
1.8609011 0.62979227 0.0031715631 12238007
1.8625757 0.63304591 0.0031766891 12238008
1.8632927 0.63664228 0.0031577349 12172216
1.8655726 0.63710648 0.0020298362 11644852
1.867368 0.64034051 0.0020422935 11579058
1.8688636 0.64340734 0.0027807951 11974835
1.8708627 0.64387387 0.00048398972 10986160
1.8715787 0.64713055 0.00024652481 11447220
1.8749032 0.64954823 0.00050836802 10920370
1.8762877 0.65205324 0.00019359589 11117744
1.8780448 0.65450251 -0.0011681318 11645105
1.8797464 0.65768087 -0.0010122061 11645361
1.8817939 0.66056252 -0.00098824501 12039863
1.8826208 0.66161484 -0.0010632277 11184810
1.8840168 0.6642611 -0.00095623732 11974325
1.8867717 0.66698301 -0.00095707178 12303545
1.8881048 0.67010915 -0.0019246936 11118761
1.8890747 0.67140579 -0.0016456246 12369081
1.8901192 0.6739257 -0.0027998686 11184810
1.8926249 0.67677462 -0.0025587082 11184810
1.9039624 0.69275963 -0.0046633482 11250603
1.9072998 0.69702566 -0.005746007 12369339
1.906494 0.6990447 -0.0064572692 11776946
1.9118204 0.70487601 -0.0087410212 11777202
1.9141786 0.70911235 -0.0084614754 11644591
1.9154315 0.71163768 -0.010974646 11777203
1.9176942 0.71415633 -0.010021448 11776177
1.9191762 0.71498024 -0.010011792 11974074
1.920845 0.71807754 -0.0099935532 11973815
1.9230936 0.72214746 -0.011081934 12171447
1.9248488 0.72322118 -0.012155294 11316396
1.9256089 0.72644776 -0.011385322 11842739
1.9281205 0.72941995 -0.011363566 12171448
1.9300015 0.73139358 -0.012756109 11382189
1.9310937 0.73253709 -0.011270463 12105655
1.9329057 0.73634112 -0.012824297 11711409
1.9372358 0.74194115 -0.012542486 11447982
1.8443515 0.61168361 0.003795445 12566715
1.8480231 0.61451972 0.0035749078 12435130
1.8485059 0.61737818 0.0040470362 12303545
1.8511676 0.61702514 0.0036255717 12106165
1.8521514 0.62093806 0.0030342937 11842486
1.8540604 0.62438935 0.0032380819 12435130
1.8548629 0.62774128 0.0031982064 12500923
1.8565311 0.62765115 0.0021067858 11710902
1.8578268 0.63099766 0.002348423 11974072
1.860317 0.63386995 0.0016601086 11513011
1.8621097 0.636868 0.0010788441 11052209
1.8638443 0.6400612 0.00096035004 10986418
1.8656778 0.64132178 -0.00089496374 12500669
1.8669544 0.64391828 -0.00021409988 11644853
1.8684859 0.6452927 1.5199184e-05 11052206
1.8696724 0.64779186 -0.00091862679 11579312
1.8725469 0.65091497 -0.00095415115 11513520
1.8741192 0.65400618 -0.0010027885 11645105
1.8756509 0.6566394 -0.00078296661 11250347
1.8773427 0.65800935 -0.0010405779 11645105
1.8788908 0.66061628 -0.0010428429 11776947
1.9063584 0.70254016 -0.0080533028 11250603
1.9104786 0.70711756 -0.009577632 11777202
1.913488 0.71310407 -0.01083231 11711154
1.9160254 0.71574354 -0.010999262 12369339
1.9172795 0.71761042 -0.011914253 11316396
1.9190588 0.719024 -0.010774791 12105654
1.9204743 0.72265738 -0.011779308 11710897
1.9229115 0.72500849 -0.012268245 11316396
1.9245626 0.72901732 -0.012219548 11382189
1.8368487 0.60434145 0.0030350089 12961474
1.8413146 0.61104482 0.0031654239 12171449
1.8430896 0.61312991 0.0029015541 11908280
1.844975 0.61487097 0.0038709641 12369336
1.8458723 0.61720681 0.0025939941 11513012
1.847581 0.61980975 0.0019835234 10789039
1.8498318 0.62206358 0.0027571321 11776440
1.8516603 0.62600708 0.0012542009 10986672
1.8527882 0.62872249 -0.00022852421 11381421
1.8548713 0.62989962 0.00072836876 11118257
1.8567075 0.63212579 0.0010924935 11052211
1.8579471 0.63458627 -0.00036323071 11579060
1.860037 0.63672161 -0.00100559 11776691
1.8616351 0.63987309 -0.00090235472 11776690
1.8631802 0.64296633 -0.00077205896 11776690
1.8654878 0.64432263 -0.0012429953 11842739
1.8660541 0.64674193 -0.0015069246 11184553
1.8677394 0.64891165 -0.00086438656 11579311
1.8702284 0.65265465 -0.0014536381 11184810
1.9090304 0.70915395 -0.010243773 11776946
1.9123073 0.71503258 -0.011417389 11250603
1.821008 0.58547807 0.0046143532 12435130
1.8223286 0.58826035 0.0047397614 12829631
1.8260841 0.59146535 0.0041362643 12698304
1.8281881 0.59539753 0.0033489466 12632510
1.8307792 0.59970045 0.0023728013 13027523
1.8319098 0.60104841 0.0037769079 12895681
1.8343225 0.60483336 0.0027455091 12368829
1.8366611 0.6066063 0.0030485988 11974074
1.838131 0.60952222 0.0031203032 11974073
1.8396249 0.61229765 0.0024223328 11183794
1.8412164 0.61533618 0.0016227961 10986671
1.8423638 0.61678916 0.00021123886 11250347
1.8434532 0.61819875 0.0014436245 10921131
1.8455805 0.62133586 0.00043809414 11250093
1.8477314 0.62369078 0.00020331144 11315886
1.8489473 0.62677133 -0.00028061867 11184299
1.8508692 0.62944961 -0.00078457594 11710898
1.8531539 0.63191074 -0.00085484982 11908533
1.8540454 0.63375247 -0.00099205971 11908277
1.855933 0.63586414 -0.00093156099 11579312
1.8575377 0.63930976 -0.0012970567 11250347
1.8598224 0.64202958 -0.0015243888 11250603
1.8060603 0.56768131 0.0059816837 13158597
1.814986 0.58120406 0.0041596293 12566973
1.8169324 0.58337724 0.0041577816 11842743
1.8181709 0.58602285 0.0043510795 11908536
1.8200332 0.58854955 0.0044186115 12171450
1.822381 0.59173638 0.003062129 10920625
1.8235455 0.59226942 0.0040928125 12829888
1.8251817 0.59517938 0.0031245947 11908026
1.8268983 0.59803528 0.0021612644 11513014
1.8286929 0.60062826 0.0025742054 12105659
1.8307133 0.60263896 0.0025404096 11118001
1.8317726 0.60532111 0.0016981363 11776694
1.8337905 0.60811377 0.0009701252 11842486
1.835938 0.61072993 0.00067865849 11315886
1.8367704 0.61321718 0.00039690733 11842484
1.8392497 0.61563098 9.8049641e-05 11842484
1.8400733 0.61803287 0.00034552813 11579312
1.8420866 0.61909485 0.00010102987 11908533
1.8432897 0.62253034 1.4305115e-06 11711153
1.8465188 0.62571263 -0.00069385767 12500925
1.8466473 0.62777591 -0.00097477436 11316396
1.8486358 0.63001108 -0.0010472536 11908532
1.7983311 0.56000865 0.0060020685 13289923
1.7995956 0.56270903 0.0061407089 13290182
1.8017588 0.56500483 0.0064264536 13290438
1.8033134 0.56822705 0.0055997968 12697794
1.804106 0.57089823 0.0055849552 12368832
1.8067627 0.57091016 0.0058928132 13224646
1.8084056 0.57402414 0.0050204396 12566465
1.8095908 0.57724482 0.0040156841 12105659
1.8112375 0.57862383 0.0041265488 11842232
1.8126454 0.58136231 0.0042247772 12039610
1.8144815 0.5846647 0.0038228035 11710647
1.8164067 0.58732283 0.0037106872 11776438
1.8187087 0.5900842 0.0034309626 10920626
1.8199148 0.59206778 0.0020306706 11644853
1.8210077 0.59419167 0.0017535686 11579059
1.8232554 0.59658313 0.0016264915 11908280
1.8244805 0.59890527 0.0019011497 11908279
1.8263631 0.60109198 0.00089049339 11645106
1.8277349 0.60365188 0.00042134523 11381934
1.8291948 0.60639346 0.00073134899 11645106
1.8314657 0.60920811 0.00067722797 11776948
1.8333143 0.61235505 0.00037372112 11381934
1.8370842 0.6162734 9.5546246e-05 12632256
1.792423 0.55540866 0.0055192709 10395274
1.7940857 0.55839771 0.0053448677 9999489
1.7959933 0.56107372 0.005523026 12170663
1.7974432 0.5633021 0.0056587458 12565176
1.7994869 0.56626296 0.0052775741 12236478
1.8010349 0.56934661 0.0052036047 12171198
1.8024845 0.57146734 0.0039756298 11776441
1.8044839 0.57351965 0.0035729408 11908024
1.80598 0.57498395 0.0043987036 12039609
1.8074729 0.57818013 0.0036582351 11908279
1.8092144 0.58040428 0.0028524399 11776694
1.8109689 0.58340424 0.0025651455 11447478
1.8131416 0.5858686 0.002358079 12303035
1.8147098 0.58857143 0.0012058616 12040119
1.8158019 0.59011692 0.0014016628 11381683
1.8176236 0.59256691 0.0016168356 11908534
1.8188763 0.59552145 0.0014147162 11447727
1.820781 0.59746945 0.0016041994 12040119
1.8228928 0.60052443 0.00070405006 11381934
1.8240039 0.60216111 0.0011680722 11381678
1.8247566 0.60494369 0.00041174889 11447982
1.7892218 0.55446488 0.0046275258 8552834
1.7907009 0.55723941 0.0048821568 8881793
1.7919421 0.5598681 0.0050444603 8947326
1.7936578 0.56278098 0.0043662786 9736322
1.7960756 0.56529212 0.0037187338 11315097
1.7974643 0.56797498 0.003136754 11577764
1.7986262 0.56978673 0.0026655197 12104628
1.8003542 0.5723241 0.0024798512 11710134
1.8012712 0.57477236 0.0027104616 12171449
1.8030355 0.57677382 0.0019459128 11579060
1.8054221 0.57913208 0.0016655922 11447479
1.8069377 0.58172435 0.0014382601 11118260
1.80862 0.58507466 0.0011872649 11513270
1.8108635 0.5875622 0.0012359023 11513269
1.8126905 0.58987916 0.00080251694 10460333
1.7854559 0.55398071 0.0030918121 9736848
1.7864503 0.55612028 0.0036576986 9539727
1.787446 0.55888486 0.0036671162 8750469
1.7895813 0.56162184 0.0030635595 8882046
1.7916906 0.56387824 0.0023163557 8947324
1.7935851 0.56629276 0.0020037293 8814961
1.7946261 0.5689587 0.0023747087 9538683
1.7965399 0.57144541 0.0016571283 10063747
1.7975924 0.57354587 0.001845479 11182752
1.8000674 0.57634836 0.0016695857 10985907
1.8031514 0.58011305 0.0015799403 10920881
1.8043034 0.58254826 0.0014905334 10262198
1.8092037 0.58931178 0.00054728985 10130609
1.7820486 0.55320603 0.0018232465 8423036
1.7836987 0.55509162 0.00194031 8027772
1.7848341 0.55786198 0.0023463964 8421766
1.7864316 0.56027108 0.0015138388 9276299
1.7880156 0.56263793 0.0011205673 9408136
1.7894402 0.56490612 0.00095629692 7302773
1.7912403 0.56800091 0.0014490485 7697003
1.7930491 0.56983638 0.0015461445 6972514
1.7807086 0.55581743 0.00025987625 9738394
1.7817572 0.55833763 0.00018811226 8620186
1.7835634 0.56139851 -0.00012242794 8817544
1.78532 0.56373769 8.4340572e-05 9079432
1.7871343 0.56594706 0.00014543533 8881542
1.7883596 0.56853193 0.00015991926 7237235
1.7778463 0.55564588 -0.0015261173 13290187
1.7785399 0.55765164 -0.0020518303 12170693
1.7796733 0.55991393 -0.0013979673 11645886
1.781496 0.56286842 -0.0011138916 9738160
1.7833778 0.56463224 -0.0020634532 8159367
1.7845221 0.5670867 -0.0018382072 7829630
1.7860199 0.56989378 -0.0015177727 8092289
1.7736542 0.55534416 -0.0029203892 13552565
1.7765568 0.55818498 -0.0027564764 13157830
1.7777414 0.56145638 -0.0031608939 13026245
1.7796328 0.56338733 -0.0029458404 12368833
1.7811636 0.56630725 -0.0035666227 10461364
1.7821275 0.56838518 -0.0038349628 9343137
1.7839153 0.57103324 -0.0035796165 8290694
1.7635701 0.5457834 -0.0033569932 11576701
1.7667761 0.548576 -0.0035386086 11510910
1.7691624 0.5521608 -0.0037763119 10655095
1.7711198 0.55467099 -0.0037862062 10721397
1.7725838 0.55745441 -0.0038043261 11313793
1.7741785 0.56005812 -0.004334569 11774600
1.7757463 0.56304419 -0.0042239428 12564640
1.7775042 0.56461501 -0.0043454766 12763065
1.7788794 0.56686431 -0.0055311918 11973826
1.7807467 0.56962317 -0.0047553182 11579584
1.7822663 0.57284611 -0.004840374 9474480
1.7648509 0.55073327 -0.0044826865 10786166
1.766583 0.55332208 -0.004427433 10918009
1.7681549 0.5552001 -0.0046114922 10654583
1.769744 0.55809981 -0.0050448179 10720629
1.7715535 0.56084281 -0.0052949786 11049844
1.7732637 0.56368202 -0.0062576532 11445634
1.7750603 0.56630576 -0.0069428682 11840405
1.7765398 0.56894207 -0.0068995357 12170671
1.7784052 0.57088363 -0.0066267252 12039103
1.780277 0.57316905 -0.0066891909 11579077
1.7814788 0.57523495 -0.0062096119 11842740
1.7646328 0.55490875 -0.0056866407 11246711
1.7665107 0.55619621 -0.0058218837 11378293
1.7680197 0.55977058 -0.0066488981 10917744
1.7697887 0.56263423 -0.0074309111 11115377
1.7708921 0.56512862 -0.0077630877 10786156
1.7729516 0.568012 -0.0075238943 11971964
1.7743723 0.5698784 -0.0081153512 9996649
1.7761734 0.57201022 -0.0081065893 11842449
1.7774429 0.57466948 -0.0078238249 11842720
1.764552 0.55885589 -0.0084365606 10391404
1.7660621 0.5615133 -0.0081824064 11049586
1.766804 0.56510615 -0.0083454847 10720368
1.7690918 0.566145 -0.0083953142 10259561
1.7712781 0.56821078 -0.0084308386 10457453
1.7722466 0.56968528 -0.0084418654 9206362
1.948782 0.7363916 -0.0024178624 10460562
1.9519707 0.73765361 -0.0027077198 9670786
1.9432287 0.73381668 -0.0035994053 11777455
1.9466022 0.73611778 -0.00309515 11316387
1.8965647 0.66848379 0.0042586923 11580076
1.9382925 0.72832531 -0.0047537088 11711407
1.9410012 0.73152238 -0.004524231 11711662
1.9412018 0.73433739 -0.0036209822 11777455
1.9488401 0.74477613 -0.006922245 12695484
1.9501448 0.74741387 -0.0062478781 11313305
1.9525667 0.7494697 -0.0071156025 10984068
1.8866515 0.65838915 0.0050161481 11711664
1.8892918 0.66136163 0.0050798059 11580077
1.8916854 0.66549885 0.004514277 11645870
1.8923539 0.66919678 0.0045436025 11579821
1.8946493 0.66916829 0.0042108297 11579820
1.8967409 0.67293572 0.0038624406 11579822
1.8991148 0.6730715 0.0033657551 11580077
1.9002614 0.67756987 0.0028092861 11645614
1.9005923 0.67884153 0.0014964938 11183793
1.903738 0.68179476 0.0020569563 11711407
1.9071491 0.68794215 8.8095665e-05 11645870
1.9309828 0.72269827 -0.0054112673 11580077
1.9340547 0.72655189 -0.0056311488 11711406
1.935498 0.72951669 -0.0049893856 11777200
1.9376998 0.73199463 -0.0041671991 11777199
1.9408467 0.7381894 -0.0084722042 11973312
1.9424675 0.74097157 -0.0078371763 12104640
1.9448357 0.74287927 -0.0072014928 12499137
1.9460598 0.74571991 -0.006362021 12366515
1.9483354 0.74843442 -0.0089384317 12695984
1.9492215 0.74986875 -0.009293437 11051141
1.8803859 0.65395218 0.0040378571 11842993
1.8827465 0.65639132 0.0045309663 11777455
1.8841264 0.65945899 0.0047882199 11645870
1.886425 0.66210252 0.0051512718 11645870
1.8889921 0.66656816 0.0043266416 11711406
1.8899431 0.66731662 0.0016275644 10854832
1.8920121 0.67100173 0.0014299154 10986414
1.8947629 0.67388439 0.0021576285 11184047
1.8975841 0.67752194 0.0010521412 10986673
1.8987749 0.68013906 0.0014992356 11447729
1.9025929 0.68301755 0.0010253787 11380916
1.9020884 0.68508542 0.00037527084 11579570
1.9061286 0.69030941 -0.0012617111 11513522
1.9090426 0.69171125 -0.0010854006 11380918
1.9099879 0.6962539 -0.0029750466 11711663
1.9124982 0.70088226 -0.0037856102 11777456
1.9186115 0.7080999 -0.0043645501 11711663
1.9207191 0.7119897 -0.0046437383 11711662
1.9226525 0.71567351 -0.004663527 11711663
1.9247408 0.7154395 -0.0048743486 11580077
1.9257957 0.71950758 -0.0050823092 11580078
1.9277484 0.72329372 -0.005142808 11645870
1.9301879 0.72781909 -0.0057549477 11711663
1.9375081 0.73682743 -0.0090556145 11973055
1.9381328 0.73937857 -0.008000195 11973312
1.9408627 0.74231076 -0.0078126192 12236227
1.9427826 0.74473494 -0.0096499324 12434618
1.9446151 0.74801075 -0.0097917318 12105137
1.9466636 0.74728638 -0.00999403 12500663
1.946314 0.75185585 -0.0096094012 10590319
1.8727325 0.64762604 0.0044065118 12171958
1.8748186 0.65118855 0.0042772293 12172214
1.8772891 0.65112108 0.0036841035 12303800
1.8778253 0.65455157 0.004144609 12237749
1.8799626 0.65737754 0.0045831203 11842992
1.8835409 0.66381568 0.0013386011 11183797
1.8869176 0.66611934 0.0011149049 10854832
1.8887136 0.66886228 0.0014896989 10789038
1.8902514 0.67176759 0.001781404 10986417
1.8923361 0.67557514 0.001652956 11118002
1.8960018 0.67894351 0.00092589855 11052211
1.8963554 0.68128073 -0.0016264319 11842484
1.8985782 0.68378049 -0.001087904 11315631
1.9000127 0.68681031 -0.0016194582 11776945
1.9005542 0.68864673 -0.00065469742 11315125
1.9042931 0.69216853 -0.0023927689 11711151
1.9048522 0.6930415 -0.0021857023 11380919
1.9073982 0.69742578 -0.003223598 11777455
1.9091705 0.6980083 -0.0038658381 11446710
1.9106956 0.70148599 -0.0038607121 11842992
1.9139814 0.70550513 -0.0044224262 11777456
1.9148934 0.70938826 -0.0044875145 11843248
1.9173229 0.70960599 -0.0049973726 11777199
1.9180059 0.71307898 -0.0047901869 11777455
1.9208884 0.71648169 -0.0048201084 11777455
1.9230347 0.72057629 -0.0051808953 11777455
1.9287255 0.72923207 -0.009218514 11775934
1.9304689 0.7325877 -0.0090479851 11775677
1.9321387 0.73314619 -0.0087566376 11841725
1.9339643 0.73427796 -0.0087924004 11973053
1.9357305 0.73771608 -0.0087724924 11841725
1.9381946 0.74301219 -0.010934055 12105911
1.9404827 0.74588859 -0.010113597 12171447
1.9421982 0.74744964 -0.010412753 11908013
1.8652843 0.63991809 0.0031231642 12238008
1.866658 0.64327228 0.0032370687 12171958
1.8695897 0.64645106 0.0031584501 12237751
1.8706359 0.64925098 0.0037497282 12172215
1.8732684 0.65216237 0.0037786961 12238008
1.8740858 0.65384942 0.0010409951 11117745
1.8763779 0.65579557 0.0023494959 11710902
1.879079 0.65922272 0.00094509125 11183543
1.8804882 0.66208661 0.0011948347 11183797
1.8816185 0.66305518 5.2988529e-05 11315886
1.8824114 0.66585296 0.00088685751 11249590
1.8847213 0.66804087 0.00017356873 11512756
1.8863106 0.67096364 0.00034999847 11052462
1.88858 0.67297369 -0.0011962652 11645104
1.889545 0.67558551 -0.001482904 11908532
1.8915398 0.67873383 -0.0016396046 11645105
1.8930603 0.67983598 -0.0017840266 11184810
1.8949697 0.6830402 -0.0018535852 11513518
1.8966345 0.68667299 -0.0021907091 11447215
1.8971997 0.68720764 -0.0025433898 12369338
1.8995101 0.69016093 -0.0032368898 11315884
1.902071 0.69286811 -0.0032638311 12106165
1.9025044 0.6950798 -0.0047447681 11316140
1.9046178 0.69841486 -0.0038994551 11579314
1.9069421 0.69857341 -0.0052205324 11578799
1.9088318 0.70207167 -0.0046847463 11645108
1.910008 0.70574117 -0.0076133013 11644592
1.9118917 0.7072022 -0.0062442422 11579061
1.9153798 0.71201569 -0.0080890059 11512758
1.9175688 0.71676433 -0.0087495446 11644089
1.9193522 0.7200796 -0.0086613894 11644091
1.9224336 0.72399545 -0.0092107058 11710137
1.9242831 0.72767919 -0.0092102289 11644088
1.9272659 0.73053473 -0.010319829 11776184
1.9288423 0.73359984 -0.0088735819 11709885
1.9292815 0.73403955 -0.011486769 12105655
1.9317917 0.73717445 -0.011343122 12105397
1.933189 0.73889869 -0.012159586 11447982
1.934551 0.74166417 -0.011811495 12039862
1.9367257 0.74489504 -0.01150465 11776691
1.8581623 0.63437194 0.0030024052 12369338
1.8607434 0.63728279 0.0031892061 12303545
1.8620793 0.64030999 0.0033841729 12106422
1.8634566 0.64423615 0.0032802224 12435127
1.8648975 0.64373708 0.0020970702 11513522
1.8665775 0.64690465 0.0034824014 12303543
1.868741 0.64953649 0.00093275309 10920623
1.8709549 0.65195614 0.0010611415 11052207
1.8725936 0.65510762 0.0010381937 11117743
1.874751 0.65739244 0.00059813261 11183793
1.8761839 0.65972883 -5.5789948e-05 11579060
1.8777876 0.66214043 -0.00059306622 11579312
1.8789902 0.66466492 8.72612e-05 11513265
1.8813431 0.6666432 -0.00098824501 11579568
1.8822439 0.66905528 -0.0006415844 12039862
1.8843048 0.67283964 -0.002024889 11579567
1.8870249 0.67660296 -0.0022696257 11776946
1.8886812 0.67891729 -0.0021166801 11184810
1.8931916 0.6843698 -0.0022420287 12369083
1.8959359 0.68973577 -0.0035434961 12369338
1.8975651 0.69084835 -0.004150331 11184810
1.9009007 0.69417435 -0.0050163269 12369338
1.9001122 0.69740081 -0.0064926744 12369338
1.9018205 0.69887865 -0.0063904524 11316139
1.9042568 0.70140219 -0.0065696836 11841976
1.9062626 0.70245349 -0.0067216158 11513006
1.9069779 0.70641726 -0.0067391992 11315382
1.9088316 0.70859599 -0.0084883571 11579055
1.9101737 0.71096808 -0.0077872276 11512761
1.9140077 0.71433735 -0.0085545778 11512762
1.9125755 0.7161274 -0.0087888241 11512761
1.9158967 0.71802521 -0.0098726749 11578805
1.9174747 0.72094661 -0.010196567 11908024
1.9193332 0.72431237 -0.010865688 12040118
1.9203979 0.72605222 -0.010717392 11447474
1.9224689 0.72832024 -0.011373162 12040118
1.9242014 0.73111576 -0.011510193 11974324
1.9253807 0.73355258 -0.012042522 11579311
1.9273295 0.73509043 -0.011307001 12105654
1.9293091 0.73863423 -0.012004673 11908275
1.93139 0.74211925 -0.013393402 11447982
1.9327538 0.7440812 -0.012116671 11447982
1.8417525 0.61501628 0.0044263601 12369336
1.8435202 0.61820954 0.0044454336 12500923
1.8473859 0.62182331 0.0038163662 12698302
1.8500683 0.62498075 0.003688395 12632510
1.8520765 0.62862521 0.0033598542 12566716
1.8536531 0.63198107 0.0032068491 12435387
1.8556019 0.63393295 0.0023434162 11776438
1.8570271 0.63698667 0.00080811977 10986415
1.8591015 0.63880974 0.0019503832 11710901
1.8601347 0.6412884 0.00087147951 10986673
1.8600737 0.64324707 0.0010358095 11052210
1.8628434 0.64572561 0.00059461594 11381428
1.8653166 0.64837986 -6.5922737e-05 11249840
1.8662233 0.65054852 -0.00013333559 10986666
1.8689826 0.65324193 -0.00064432621 11381422
1.8708775 0.6565479 -0.00080102682 11381679
1.8720033 0.6593768 -0.00070154667 11842484
1.873611 0.65916216 -0.001306057 11184810
1.8748294 0.66248679 -0.00076711178 11579569
1.8769093 0.66530079 -0.00077533722 11184810
1.8851324 0.67665529 -0.0023607016 11184810
1.8992008 0.70079076 -0.0082300305 12369339
1.900839 0.70275778 -0.0080372095 11315883
1.9043491 0.70483786 -0.0083296299 11908276
1.9046123 0.70739347 -0.0091508627 11381676
1.9072883 0.71088183 -0.010658145 11777203
1.9078066 0.71157449 -0.0094721317 11644848
1.9104459 0.71460259 -0.010771632 11908276
1.9115267 0.71750408 -0.010982394 12105911
1.9134127 0.72038543 -0.011198401 11710897
1.9155878 0.72213101 -0.011062205 12039862
1.9170517 0.72465187 -0.011953473 11842739
1.9184148 0.72675884 -0.011294365 11513519
1.9192426 0.72898823 -0.011379123 12434875
1.9209498 0.73169434 -0.012364745 11316396
1.924355 0.73630732 -0.013281047 11316396
1.9275045 0.73985517 -0.0135566 11382189
1.9293537 0.7431699 -0.013193369 11382189
1.8340758 0.60746819 0.0039254427 12895681
1.8355305 0.6104967 0.0038737655 12829887
1.8377008 0.61297631 0.0041944981 12303800
1.8395724 0.61614978 0.0041521192 12238006
1.8413364 0.61840194 0.0047518015 12500922
1.842078 0.61943465 0.0021762848 10394281
1.844256 0.62238091 0.0034051538 11908280
1.8465108 0.62588501 0.0026171207 11908025
1.8481967 0.627527 0.0025069118 11974073
1.8491623 0.62922287 0.0034787059 12632510
1.8513987 0.63216025 0.001239419 11183795
1.8529119 0.63500452 0.0014277697 11052208
1.8547513 0.63802809 0.00032019615 11381682
1.8568816 0.64041954 -0.00045847893 12105656
1.8581004 0.64287472 -0.00036764145 11513264
1.8599877 0.64500707 -0.00039416552 11381935
1.8608766 0.64723635 -0.00034809113 12500668
1.8627746 0.64977205 -0.00095570087 11381932
1.8646822 0.65234023 -0.0010685921 11052712
1.8665245 0.65459484 -0.0010695457 11776689
1.8686635 0.65760642 -0.0011764765 11842739
1.8974013 0.70208919 -0.0085225105 12434875
1.8990517 0.7049585 -0.0094941854 11184810
1.902001 0.70623887 -0.0095447302 12434875
1.9033399 0.70796132 -0.0098623037 11184810
1.9049296 0.71172804 -0.010817468 12434876
1.9064867 0.71426642 -0.010700941 11710897
1.9083351 0.71762556 -0.011331141 11250603
1.9118119 0.72172773 -0.012084007 11250603
1.9148908 0.72554141 -0.01252377 11250603
1.8276806 0.6024977 0.0036314726 13027266
1.828495 0.60413742 0.0028578639 11183795
1.830749 0.60671741 0.0037768483 12961474
1.8319604 0.60965019 0.0034924746 12434622
1.8338745 0.61114269 0.0035454035 11974073
1.836231 0.61443597 0.003011167 11579062
1.8390881 0.61701006 0.002524972 10855088
1.83764 0.61867803 0.0022215843 11052466
1.8398299 0.62082422 0.0015007257 10921133
1.8417599 0.62391394 0.0011229515 10921131
1.8441917 0.62638974 0.00095683336 11184303
1.8455312 0.62882006 0.00054359436 11645105
1.8478686 0.63157058 0.00017285347 11579058
1.8495321 0.6342445 -0.00013816357 11645107
1.8511119 0.63481724 -0.00014030933 11974070
1.851927 0.63809258 -0.00052523613 11776690
1.853991 0.64139593 -0.00072622299 11513775
1.856137 0.64435631 -0.00074404478 11184554
1.8575864 0.64683384 -0.00083196163 11250603
1.9007554 0.70839947 -0.010477364 12434876
1.8125167 0.58433324 0.0048317313 13224646
1.8137586 0.58695096 0.0051210523 13158854
1.8150748 0.58895999 0.004591465 12171454
1.8166306 0.59021294 0.0045479536 12171453
1.818469 0.59250009 0.0049237609 12961474
1.8212385 0.59634143 0.003855288 12303294
1.8220348 0.59957004 0.0040347576 13027269
1.8233629 0.5998441 0.0033893585 12105659
1.8252041 0.60298598 0.0028742552 12302782
1.8265717 0.60548705 0.0033707619 11776184
1.8287414 0.60773182 0.002733767 11974075
1.8300765 0.61028939 0.0016771555 11513267
1.8321795 0.61319327 0.0013568401 11908280
1.8341362 0.61584848 0.00072932243 11381934
1.8352485 0.61804992 0.0012307763 11513521
1.8376648 0.62038726 0.00081956387 11974070
1.8392742 0.6228767 0.00034785271 12566462
1.8396701 0.62536091 0.00077933073 11710898
1.8420544 0.62630069 1.5258789e-05 12566463
1.8433697 0.62984669 -0.00043827295 11711154
1.8456123 0.63301522 -0.00046056509 11908533
1.8469858 0.63543087 -0.00049412251 11316396
1.7972448 0.56596196 0.0065664649 13487302
1.798605 0.56870389 0.0066095591 13487562
1.8011568 0.57159472 0.0065488815 13487818
1.802736 0.57502699 0.0059953928 12763587
1.8052429 0.578071 0.0049276948 11381433
1.8056724 0.57870436 0.0053713918 13487818
1.8079976 0.58149439 0.0046739578 12500415
1.8093698 0.58432806 0.0047688484 12434624
1.8112416 0.58709389 0.0044710636 11908027
1.812945 0.5899294 0.0045229197 11973821
1.8143828 0.59232146 0.0034799576 11381428
1.8169061 0.59465897 0.0030189157 11579062
1.8190022 0.59740722 0.003303647 12303039
1.8198305 0.59983385 0.0024263859 11973816
1.8216445 0.60161585 0.0020239949 11645108
1.8226726 0.60423279 0.0023502111 12237500
1.82469 0.60667509 0.0014131069 11776435
1.8265059 0.60924715 0.0010011196 11776435
1.8279736 0.61081541 0.0012158155 11447726
1.8299363 0.61394906 0.00093334913 11710898
1.8319755 0.6175921 0.0011062622 11381423
1.8328857 0.61784375 0.00045204163 12698049
1.8343906 0.62074918 0.00060629845 12698049
1.7942231 0.56539291 0.0054240227 10986643
1.7953918 0.56859881 0.0058352351 12434092
1.7980719 0.57154226 0.0055074096 12762303
1.799706 0.57451218 0.0049034953 11709625
1.8010051 0.57675165 0.004596591 11644342
1.8029352 0.57853132 0.0042535663 12171452
1.8045616 0.58117872 0.0044313073 12303035
1.8055105 0.58276856 0.0045464039 11578805
1.8079835 0.58578402 0.0037897229 11908025
1.8095205 0.5887633 0.0032151937 11776694
1.8113344 0.59013337 0.0021466017 12105912
1.8127278 0.59277707 0.0023995638 12039863
1.8144554 0.59539348 0.0025359988 12171449
1.8160253 0.59797204 0.0017648935 11711155
1.8177705 0.60076928 0.0013035536 11447983
1.8186297 0.60313499 0.0011873245 11513520
1.8209641 0.60553443 0.0013232231 11447727
1.8222988 0.60774529 0.0013712645 11513008
1.7877097 0.56159484 0.0043367743 8685435
1.7902172 0.56443387 0.0045229197 8487031
1.7916653 0.56748021 0.004771471 9210495
1.79309 0.57015342 0.0044457316 10722955
1.7953651 0.57289559 0.0033529997 10525322
1.7970872 0.5746001 0.0032293797 11973029
1.7983847 0.57717538 0.00317204 11906995
1.8000929 0.57895678 0.0030750036 12039863
1.8020267 0.58172649 0.0020787716 11578807
1.8038836 0.58458519 0.0021409988 12171705
1.8053989 0.58661884 0.0018472672 11315637
1.8067889 0.58980745 0.0013823509 10855345
1.809088 0.59195942 0.0021078587 11579568
1.785175 0.56003338 0.0036327839 9606543
1.7865925 0.5634169 0.003105998 8355718
1.7884138 0.56622875 0.0032567978 7895667
1.7895939 0.56813914 0.0034987926 8224116
1.7916607 0.57155484 0.0024405122 9209977
1.7934897 0.57368326 0.0024849176 8683121
1.7954028 0.57555503 0.0020480156 10460043
1.7964048 0.57906961 0.0021424294 11117973
1.7987895 0.58121282 0.001986742 11446960
1.800324 0.58369893 0.001429975 10656432
1.8025656 0.58670276 0.001771152 10393774
1.7831944 0.5628866 0.0020054579 9738123
1.7851689 0.56497824 0.0021178722 8948111
1.7859464 0.56753987 0.0018005371 9145484
1.7877398 0.56964481 0.0021799207 8553083
1.789727 0.57200217 0.00096642971 6447713
1.7909464 0.5751546 0.0012623668 7959918
1.7925622 0.57716268 0.0014243126 8880248
1.7826166 0.56595212 4.1902065e-05 7896971
1.7842431 0.56812376 0.00012892485 8619910
1.7857771 0.57094848 9.4175339e-05 9671309
