# .PCD v0.7 - Point Cloud Data file format
VERSION 0.7
FIELDS x y z rgba
SIZE 4 4 4 4
TYPE F F F U
COUNT 1 1 1 1
WIDTH 1106
HEIGHT 1
VIEWPOINT 0 0 0 1 0 0 0
POINTS 1106
DATA ascii
0.29057479 0.32347748 0.0050317645 10394020
0.29327214 0.32416967 0.004565239 10787487
0.29622722 0.32530111 0.0038235784 10787485
0.29802132 0.32708487 0.0022998452 10656418
0.30151227 0.32861048 0.0010080934 10722983
0.30479518 0.32865676 0.0010130405 10788518
0.30674499 0.32910049 0.00069463253 10788519
0.26726216 0.31746256 0.0066052675 9342620
0.2703988 0.31752837 0.0064953566 9474208
0.27253854 0.32001418 0.0065432787 9276833
0.27807733 0.32220873 0.0034764409 10525091
0.28016862 0.32255536 0.0031352639 10656677
0.28349096 0.32345003 0.0033864379 10722209
0.28628051 0.32360893 0.0023639798 10722470
0.28929377 0.32519203 0.0018860698 10656676
0.29124916 0.32755613 0.0014520288 10722469
0.29464832 0.32791182 0.001296401 10722726
0.25475323 0.3145631 0.0066795349 8947865
0.2583369 0.31699675 0.0071427226 9210523
0.26092321 0.31734359 0.0068022609 9342108
0.26374191 0.31762809 0.00641644 9342108
0.26576549 0.32014507 0.0064871907 9408414
0.2689693 0.32087886 0.0050348043 9604508
0.27110732 0.32181019 0.003580749 9801369
0.27516103 0.32235363 0.0036172867 10130071
0.27771285 0.32388628 0.0032686591 10853527
0.27959824 0.325542 0.0026435256 10722467
0.28275335 0.32642221 0.0022426844 10525348
0.28563765 0.32714811 0.0016961098 10459554
0.25091982 0.31513858 0.0063064098 9013656
0.25344795 0.31747073 0.006790936 9079194
0.25627825 0.31734234 0.0056023002 9604246
0.25990719 0.31873035 0.0033358335 9997713
0.26255411 0.31974369 0.0027199984 9996942
0.26435614 0.32100219 0.0028368831 10063765
0.26693213 0.32258272 0.0031688809 10129812
0.27006736 0.32421201 0.0022245646 10261395
0.27197677 0.32494307 0.0017453432 10195602
0.23602638 0.31238592 0.0067440867 8751004
0.23865667 0.31365895 0.006896615 9079452
0.24152979 0.31479752 0.0069348216 9079451
0.24420729 0.3154062 0.0062618256 9079450
0.24772194 0.31675267 0.0061058998 9144986
0.25042817 0.31805462 0.0061667562 9079450
0.25225091 0.31874958 0.002876997 9603733
0.25536606 0.32009465 0.0030990839 9801111
0.25818563 0.32074589 0.0030570626 9866904
0.26188537 0.32175964 0.0031310916 9932696
0.22094488 0.30903226 0.0081453323 9276827
0.22389494 0.30929133 0.0078054667 9408413
0.22679764 0.31191772 0.0076021552 9079963
0.22997461 0.31203687 0.007515192 8948635
0.23258081 0.31333774 0.0068836808 8816794
0.23437794 0.31523752 0.0067173839 8882331
0.23723641 0.31466722 0.0071578622 9079453
0.24284139 0.31798434 0.0032188296 9801112
0.24645311 0.31864813 0.0026274323 9801111
0.24901864 0.31811708 0.0030559897 9735315
0.25178322 0.32025141 0.0029100776 9669265
0.25460237 0.32154375 0.0031431317 10129557
0.25751191 0.32265779 0.0024129152 10260625
0.26042151 0.32377177 0.0016826391 10129295
0.26242188 0.32453769 0.0011805892 10129295
0.21431816 0.3091436 0.0082041025 8947864
0.21754578 0.3091307 0.0081171989 9013656
0.22011036 0.31211936 0.0075576305 8948376
0.22334786 0.31214827 0.0075739622 9013915
0.23109066 0.31458014 0.0031337738 9801627
0.23642239 0.31798565 0.0028420687 9801370
0.2392104 0.3181451 0.0028002858 9735576
0.24227244 0.31840867 0.0018182397 9735824
0.24518204 0.31952262 0.0010880232 9801105
0.24786603 0.32221764 0.0018708706 9800845
0.20538032 0.30685472 0.007881999 9013659
0.20808661 0.30804306 0.0079887509 9079452
0.21103004 0.30901983 0.0082793832 9079450
0.21694325 0.31204203 0.0077478886 9145497
0.22112525 0.31367797 0.0036812425 10064798
0.22432247 0.31388047 0.0035828352 10130334
0.22734824 0.31450924 0.0030134916 10064798
0.22936149 0.31777927 0.0028773546 9472663
0.23290128 0.31804931 0.002202034 9538195
0.23544528 0.31904757 0.00056892633 9866898
0.23735471 0.31977868 8.9645386e-05 9801617
0.18889566 0.3034929 0.0087189674 8684950
0.19557144 0.30665588 0.008153975 9211032
0.19881921 0.30683991 0.0080097318 9277083
0.20121261 0.30832464 0.0077602863 9079706
0.20407033 0.30934399 0.0079935193 8882073
0.21157937 0.31286049 0.0040572882 9735319
0.21515037 0.31369814 0.0035690665 9801625
0.21770597 0.31346586 0.0037565231 9867418
0.22361365 0.31731892 0.0031557083 9669784
0.22693728 0.31753197 0.0029197335 9604247
0.18643278 0.30532598 0.0088597536 8684949
0.18979931 0.3052395 0.008191824 8816275
0.19226833 0.30663967 0.0081146359 9013653
0.19798993 0.30924422 0.0042105317 10064540
0.20074588 0.30924124 0.005400002 9998230
0.20399277 0.31105289 0.0050330758 9932437
0.20600311 0.31163335 0.0047262311 9997974
0.20874929 0.31228131 0.0042406321 9867156
0.21188793 0.31328112 0.0035184026 9669774
0.21484298 0.31441253 0.002776742 9800847
0.21779805 0.31554395 0.0020350814 9931920
0.21970746 0.316275 0.00155586 10063506
0.222708 0.31742385 0.00080275536 10063506
0.22561753 0.31853789 7.2538853e-05 9800591
0.16604583 0.29905665 0.01082015 8356498
0.16973338 0.29986304 0.010091186 8816532
0.17256829 0.30104977 0.0097584128 8750741
0.1746669 0.30326688 0.0093055367 8685204
0.17757142 0.30362204 0.0089312196 8685203
0.18072343 0.30380705 0.0086262226 8685204
0.18296544 0.30546075 0.0082503557 8619413
0.19160488 0.3088811 0.0049466491 9932692
0.19384763 0.30928564 0.004640162 9998742
0.19563 0.31091473 0.0042577982 9932950
0.19893736 0.31203055 0.0043483377 9735319
0.20136163 0.31205076 0.0043978691 9801112
0.16028857 0.30025735 0.0098702312 8093581
0.16336924 0.29946953 0.010425925 7961996
0.16630337 0.30153948 0.0097182393 8684947
0.16827708 0.30248535 0.010041833 8553619
0.1702269 0.3027021 0.0098153353 8553621
0.1742117 0.30414912 0.0059893727 9341075
0.17605065 0.30470169 0.0053954124 9340817
0.17817064 0.30630922 0.0055584908 9406611
0.18112952 0.30797267 0.0054246187 9406868
0.18449378 0.30823895 0.0049935579 9406612
0.18706656 0.30909795 0.0044311881 9603472
0.18815115 0.31062317 0.0034838319 9603210
0.16614071 0.30363151 0.0061266422 9538195
0.16875599 0.30535275 0.006026566 9472403
0.17145611 0.30624837 0.0058083534 9472404
0.1753006 0.30751932 0.005828917 9472661
0.14637317 0.29817989 0.0077854991 9604247
0.14842412 0.2988137 0.0072835684 9604502
0.15192708 0.30159479 0.0075170398 9275283
0.15362459 0.30247164 0.0068538785 9275024
0.15656458 0.30314314 0.0062270164 9011852
0.16000926 0.30340254 0.0061060786 9274766
0.16264552 0.30327696 0.0063394904 9406353
0.17118591 0.3073805 0.004778862 9406094
0.17414093 0.30851188 0.004037261 9735056
0.17714147 0.3096607 0.0032840967 9669261
0.18014196 0.31080955 0.0025310516 9669259
0.18205136 0.31154063 0.0020518303 9734794
0.13954479 0.29745686 0.0079590678 9735056
0.14240554 0.29879874 0.0077105165 9735316
0.14525871 0.29974607 0.0070490241 9735314
0.14860493 0.30122989 0.0068697929 9472402
0.15336539 0.30206719 0.0047659874 9273988
0.15635563 0.30328786 0.0040817261 9273473
0.15961775 0.30506736 0.0037263632 9405066
0.16224898 0.30634016 0.0032977462 9799827
0.16424933 0.30710602 0.0027956367 9471886
0.16619912 0.30789042 0.0023394227 9603216
0.1304695 0.29715961 0.0074982047 9537679
0.13300991 0.29760277 0.0073412061 9669264
0.13574964 0.29867116 0.0070695281 9800335
0.13848223 0.30068424 0.0077725053 9866646
0.14103895 0.30226815 0.0063531995 9734543
0.14403948 0.30341697 0.0056000948 8945541
0.14703999 0.30456576 0.0048470497 9340041
0.15004048 0.30571464 0.004093945 9537163
0.15194991 0.30644572 0.0036147237 9537163
0.15395027 0.30721155 0.0031126738 9537673
0.15595061 0.30797747 0.0026106238 9471880
0.11419196 0.29289314 0.0086570978 9472659
0.11680833 0.29313821 0.0085003376 9341330
0.12151379 0.29690936 0.0080239177 9340563
0.12379718 0.29748073 0.0074765086 9340820
0.12621123 0.29734573 0.0076866746 9537940
0.12829226 0.29776418 0.0074142814 9537940
0.10846484 0.29297024 0.0083043575 9603990
0.11092952 0.29293019 0.0084227324 9538453
0.11360932 0.29600152 0.0084483624 9472660
0.11703861 0.29625529 0.0084762573 9341075
0.11962488 0.29648864 0.0081819296 9340820
0.12407201 0.29735744 0.0061922669 9471370
0.12607232 0.29812333 0.005690217 9405577
0.12784706 0.30047029 0.006701231 9734798
0.13084757 0.30161911 0.0059481859 9866127
0.10527349 0.29341266 0.0076569915 9801111
0.10687346 0.29531288 0.0075093508 9735312
0.1097774 0.29544115 0.0076628327 9603729
0.11379986 0.2966018 0.005741179 9602958
0.11580022 0.29736766 0.0052391291 9537165
0.11880074 0.29851648 0.004486084 9405832
0.10942767 0.29818076 0.0038756728 9669006
0.38714996 0.34022272 0.004550159 11116683
0.39012492 0.34041584 0.0044284463 11050890
0.39229351 0.34284952 0.0043654442 11180670
0.37930116 0.34062278 0.0043432117 11051149
0.38348854 0.34059891 0.0041200519 11115134
0.38501802 0.34220707 0.0040127039 11050370
0.38863584 0.34350437 0.0035720468 11114618
0.37021154 0.33827591 0.004204452 10328480
0.37347415 0.33944982 0.0038034916 10393224
0.37598583 0.34104264 0.0032405853 11246202
0.37876803 0.3421579 0.002150774 11508077
0.3806774 0.34288904 0.0016714931 11244905
0.35805121 0.33641821 0.0037509799 10987190
0.3634842 0.33887833 0.0037351251 10855347
0.36675641 0.33960217 0.0038544536 10723504
0.36901966 0.34114975 0.0028170347 10852756
0.37167126 0.34174889 0.0026105642 10786439
0.34985825 0.3360815 0.0043353438 10921141
0.35184836 0.33623803 0.0041775703 10921395
0.35467598 0.33735928 0.0042273402 10855347
0.35720071 0.33881855 0.0040239692 10789811
0.36026689 0.33904642 0.0036613941 10789555
0.33905128 0.33368257 0.0042856932 10131882
0.34231406 0.33364534 0.0043020844 10329003
0.34437796 0.33632922 0.0043498874 10394795
0.34764588 0.3361426 0.0043778419 10789555
0.35095745 0.33869863 0.0043816566 10855347
0.35342413 0.33820391 0.0033761859 11182500
0.35600814 0.33959621 0.0017734766 11248552
0.35895979 0.34098434 0.00042378902 11183018
0.36187336 0.34160864 0.0006056428 11248810
0.36442116 0.34279272 0.00029349327 11314087
0.3250818 0.33060271 0.0050575733 10658481
0.33015102 0.3333779 0.0049491525 10329262
0.33333313 0.33323407 0.0049195886 9868711
0.33596009 0.33386117 0.0042924285 10000296
0.33803901 0.33643734 0.0044549108 10000040
0.34120095 0.33632362 0.004390955 10197672
0.34432375 0.3379727 0.0026972294 10787482
0.34709698 0.3390345 0.0020011663 11379622
0.34927538 0.34013253 0.00052434206 11183017
0.35450661 0.34300724 0.00011783838 11051434
0.31857604 0.33053362 0.005323112 10658226
0.32116604 0.33198035 0.0053606629 10658225
0.32340878 0.33204433 0.0051920414 10658481
0.32682264 0.33354121 0.0048639178 10658482
0.32994241 0.33329552 0.0026777387 10985634
0.33185184 0.33402658 0.0021985173 10656158
0.33470276 0.33589429 0.0015079379 10459037
0.33733121 0.33718508 0.0012418032 10459038
0.34055281 0.33936548 0.00075232983 10524831
0.34191227 0.33969629 0.00010043383 10656677
0.34557399 0.33966058 0.00017482042 11117226
0.30646572 0.32831687 0.0053976774 10395053
0.30889547 0.32852805 0.0051029921 10656934
0.31092983 0.329781 0.0052603483 10657195
0.31426388 0.33088714 0.0043471456 10920106
0.3244791 0.33445674 0.001085937 11051172
0.32723254 0.3361426 0.00089818239 10854308
0.33027983 0.33680496 0.00061178207 10525088
0.33216938 0.3392576 0.0002694726 10196122
0.33610895 0.33951747 0.00014901161 10261920
0.29646713 0.32630301 0.0049934387 10329515
0.29967758 0.32866907 0.0051807165 10329517
0.30194047 0.32870299 0.0050464869 10329517
0.30457598 0.32994002 0.0051646829 10395053
0.30718133 0.33139247 0.005053103 10394798
0.32144386 0.33582973 0.00028926134 11051691
0.32473189 0.33606708 0.00016796589 11051692
0.32679573 0.33920521 3.2007694e-05 10722727
0.28769845 0.32597291 0.0054850578 9802917
0.28996146 0.32600674 0.0053508878 10131882
0.29292411 0.32726783 0.0050564408 10197932
0.29530352 0.32888621 0.0051741004 10329516
0.29836532 0.32824159 0.004704833 10656675
0.30174011 0.32900351 0.0038301945 10918815
0.30449653 0.33085471 0.0038334727 10919071
0.307253 0.33270589 0.003836751 11050914
0.3084681 0.33294219 0.0018081665 10919845
0.31202656 0.33453357 0.0026386976 11116965
0.31468821 0.33534884 9.9599361e-05 11051689
0.31820649 0.33585757 0.00014102459 11051428
0.2751534 0.32298443 0.0061558485 9868708
0.27844667 0.32295871 0.0060920119 10066344
0.28038839 0.32473755 0.0060251951 9803429
0.28356647 0.32560182 0.0059838295 9671588
0.28597668 0.3261835 0.0050809383 9999004
0.28910965 0.32797635 0.0043774247 10459042
0.29147655 0.32874417 0.0041703582 10525349
0.29418552 0.32936406 0.0027632117 10853022
0.29685366 0.33129323 0.00099986792 10722982
0.29960188 0.33208036 0.00022357702 10788263
0.2628305 0.32000539 0.0068498254 9473950
0.26583919 0.3226724 0.0066925287 9671587
0.26829362 0.32247719 0.0069715977 9540259
0.27126372 0.32270628 0.0066663027 9671588
0.27405536 0.32544142 0.0064054132 9671587
0.27711129 0.32562762 0.0061575174 9737380
0.28227103 0.32722318 0.0035148263 10523800
0.28575176 0.32984224 0.0018786192 10261919
0.28787312 0.33020049 0.0016751885 10590884
0.29037806 0.3301003 0.0018624663 10722470
0.29350987 0.33076972 0.0013392568 10788519
0.29850894 0.33484203 0.00030106306 10788520
0.30169106 0.33526576 4.1842461e-05 10788519
0.25570938 0.3204568 0.006334126 9144730
0.25884208 0.32127899 0.0068144798 9473693
0.26108152 0.32289392 0.0064788461 9737122
0.26363713 0.32266158 0.0066663027 9802915
0.26765031 0.32480204 0.0037921667 10195609
0.27000889 0.32517552 0.0036807656 10195865
0.27288073 0.32604796 0.002979219 10327193
0.27561718 0.32749972 0.0024760962 10459037
0.27801743 0.32889867 0.0021961331 10261659
0.28158963 0.32923251 0.0023314357 9998749
0.28353938 0.32967633 0.0020129681 9998748
0.24326584 0.3175447 0.0066494346 9211035
0.24626607 0.3176719 0.0065276623 9211035
0.2491525 0.31983864 0.0073111057 9145244
0.25246644 0.32057756 0.0065242648 9210524
0.26279244 0.32460615 0.0031998754 10261918
0.26570553 0.32602537 0.0033871531 10130332
0.26846743 0.32806754 0.0030462742 10196127
0.27131653 0.32870418 0.0024423003 10327455
0.23777014 0.31767327 0.0068590045 9210781
0.24038073 0.31886268 0.0068050623 9210779
0.24243602 0.3205961 0.0062452555 9145243
0.24455744 0.32072717 0.0061337352 9079451
0.24769312 0.32139546 0.0029950738 9735319
0.25114554 0.32408154 0.0033202171 9867161
0.25335789 0.32424751 0.0031858087 9801368
0.25721365 0.32430524 0.0035185814 10064278
0.26018637 0.32508388 0.002966404 10326938
0.26220649 0.32604688 0.0026248693 10589593
0.26411593 0.32677794 0.002145648 10524057
0.22495262 0.31492087 0.0072424412 8882585
0.22840163 0.31627995 0.0070634484 8948121
0.23047756 0.31639379 0.006963253 8882585
0.23429026 0.3176651 0.0067849159 9079451
0.23848584 0.32029468 0.0066982508 9079450
0.24141537 0.32118604 0.0028595328 9867161
0.24465182 0.32257754 0.0029784441 9801112
0.24770129 0.32404894 0.003131628 9932698
0.25056028 0.32484087 0.0025848746 9932946
0.25256062 0.32560676 0.0020828247 9998739
0.20869975 0.31138322 0.0085158348 9342876
0.2109524 0.31148902 0.0084503293 9277084
0.21406886 0.31169844 0.0082598329 9277085
0.21546644 0.31458104 0.0079280138 9145755
0.21861847 0.31465253 0.0076689124 8816791
0.22192121 0.31625828 0.0072831511 8948122
0.22433478 0.31759936 0.0071139932 9079451
0.22624427 0.31787631 0.0068185925 9013914
0.2328344 0.32077581 0.0028811693 9801371
0.23571338 0.32074291 0.0029085279 9932955
0.23818196 0.32237035 0.0029574037 9867161
0.24101123 0.32292342 0.0021469593 9866901
0.24303921 0.32362258 0.0001193881 9931921
0.24573345 0.32624573 0.00083339214 9997711
0.20406309 0.31165117 0.0084168911 8882328
0.20658778 0.31299695 0.0082594156 9276828
0.20906189 0.31447476 0.0081018806 9276827
0.21246617 0.31445396 0.0080497265 9342621
0.2174409 0.31612867 0.0041333437 9603991
0.22024971 0.31693906 0.0034146309 9603992
0.22563198 0.32043952 0.0030311346 9604247
0.22827844 0.32046926 0.0031038523 9604248
0.2304402 0.32054019 0.003061235 9669785
0.23626693 0.32383245 0.0028162003 9735576
0.19091287 0.30922505 0.0081916451 8816532
0.19429871 0.31068683 0.0085019469 8750742
0.19733354 0.31023359 0.0080708265 8816790
0.20031589 0.31207019 0.0079293251 8684694
0.20771283 0.3150146 0.0048649311 10130589
0.21121284 0.31487924 0.0050194263 10064541
0.21351051 0.31727314 0.0042417049 9867418
0.21604002 0.3190372 0.0040841103 9604248
0.21920696 0.31956884 0.0037100911 9669785
0.22203594 0.32034904 0.0030257702 9735577
0.22540219 0.32004708 0.001516819 9669006
0.22740257 0.32081291 0.0010147095 9603471
0.23019934 0.32271749 0.0010410547 9669263
0.23319989 0.32386625 0.00028789043 9998227
0.17492215 0.30540979 0.0098670125 8750997
0.18001996 0.30655473 0.0094306469 8487826
0.18234533 0.30802643 0.0096935034 8553618
0.18526487 0.30850106 0.0093420744 8619412
0.18799293 0.30897772 0.0086691976 8816532
0.19033957 0.31112659 0.0090273023 8618898
0.19393447 0.31125176 0.0064518452 10063763
0.19584391 0.31198281 0.0059725642 9997970
0.19884443 0.31313163 0.0052195191 9866638
0.20136309 0.31482792 0.0044041276 9800852
0.20480117 0.31521088 0.0040802956 10129814
0.20792493 0.31725296 0.0038661957 10195609
0.20992526 0.31790537 0.0034101009 10064024
0.21261951 0.31840581 0.0017622113 9932178
0.21546176 0.3203277 0.0017769933 9866127
0.21746209 0.32109362 0.0012749434 9800333
0.22037169 0.32220766 0.00054472685 9866127
0.22325939 0.32414699 0.00054818392 9800592
0.22516881 0.32487807 6.8962574e-05 9603471
0.16506246 0.30466181 0.010632575 8619409
0.16701229 0.30487856 0.010405958 8553362
0.16979575 0.30530083 0.0098708272 8553364
0.17323416 0.30650485 0.010070443 8553362
0.17616397 0.30690753 0.00965029 8422034
0.17782971 0.30811381 0.0098012686 8224910
0.18744156 0.31179112 0.0046293736 9538196
0.1891247 0.31238559 0.0046468377 9735311
0.19165598 0.31421334 0.0043745637 9538196
0.19554082 0.31504565 0.0046171546 9341074
0.19781396 0.31500775 0.0044140816 9209488
0.15859297 0.30388689 0.010623097 8487826
0.16055846 0.30388218 0.010121405 8488079
0.16278103 0.30386278 0.0099641681 8553616
0.17408632 0.30978054 0.006193161 9340817
0.17744511 0.31030992 0.0059226155 9209232
0.18098578 0.31068188 0.0056983829 9406611
0.18292594 0.31119734 0.0050128102 9472403
0.18555629 0.31292447 0.0049815774 9472404
0.18836847 0.3147212 0.0049046874 9406611
0.15895629 0.30587715 0.0065621138 9340560
0.16257766 0.30601513 0.006521523 9406354
0.16534956 0.3076449 0.0064677596 9340818
0.16839391 0.30903873 0.0067011118 9406355
0.17208594 0.30969584 0.0064195395 9341075
0.18382613 0.31388754 0.0030628443 9800329
0.14710134 0.30398679 0.0079330206 8946062
0.15014736 0.30469888 0.0073522925 9340564
0.15354419 0.30589929 0.0072344542 9340817
0.15611669 0.30687177 0.0068441033 9340561
0.15873715 0.30867064 0.0066637993 9275025
0.16215646 0.30899617 0.0065425634 9275025
0.16391608 0.30944166 0.0050308704 9669001
0.16687113 0.3105731 0.0042891502 9669003
0.16982621 0.31170446 0.0035475492 9603212
0.17182651 0.31247041 0.0030454397 9537677
0.17482188 0.31365514 0.0023268461 9537674
0.17781729 0.3148399 0.0016080737 9734794
0.17981763 0.31560582 0.0011060238 9800329
0.13456276 0.30062136 0.0078353882 9801112
0.13881305 0.3030833 0.0083683133 9735575
0.14091086 0.30368486 0.0080041885 9734802
0.14368743 0.30441993 0.0074803829 9011593
0.14681441 0.30614683 0.0063601136 9405320
0.1498149 0.30729571 0.0056070089 9734798
0.15181525 0.30806154 0.005104959 9800591
0.15372467 0.30879259 0.0046257377 9668750
0.15672517 0.30994147 0.003872633 9602699
0.15972567 0.31109029 0.0031195879 9865871
0.12815374 0.30043736 0.0076537728 9735319
0.13227996 0.30073103 0.0076712966 9735575
0.13462107 0.30314302 0.0081899166 9735576
0.11953238 0.30008736 0.0076065063 9340562
0.12218907 0.30027217 0.0075187087 9406355
0.12530901 0.3014679 0.0079702139 9603989
0.1279953 0.30348116 0.0075029731 9735575
0.13041957 0.30372843 0.0074605942 9735833
0.1336225 0.30434898 0.0067082047 10260886
0.13562286 0.30511481 0.0062061548 10194585
0.11199693 0.29985046 0.0074575543 9538452
0.11510397 0.29933673 0.0072216988 9472143
0.11811984 0.30007505 0.006487906 9405837
0.12156539 0.30131826 0.005314827 9603212
0.12356576 0.30208412 0.004812777 9669005
0.12634063 0.30481401 0.0055727363 9866641
0.12934116 0.30596286 0.0048196912 9997714
0.10657778 0.29903522 0.0065321922 9735058
0.10944791 0.29970571 0.0065018535 9603986
0.11108963 0.30131817 0.0056432486 9603213
0.11406828 0.30329233 0.005623877 9537420
0.11705853 0.3045131 0.0049395561 9472140
0.11905885 0.30527896 0.0044375062 9537675
0.1210592 0.30604488 0.0039354563 9932689
0.10669548 0.30372256 0.0045112967 9734544
0.38808569 0.34591955 0.0044802427 10261631
0.3911157 0.34628552 0.004622221 10918010
0.37810761 0.34376198 0.0039384365 11116939
0.38139346 0.34488189 0.0037670135 11050114
0.38389212 0.34645104 0.0034813285 10457460
0.38588405 0.34806573 0.0031452775 10784101
0.38770258 0.34876204 0.0026888251 11244652
0.37156671 0.34371698 0.0041006804 10854297
0.37468103 0.34425279 0.0029389262 11640961
0.37720025 0.34640464 0.0032591224 11378560
0.37921458 0.34713709 0.0018853545 11771765
0.38101628 0.34862274 0.0021282434 11310963
0.38633165 0.34967303 0.00036931038 10851441
0.38849339 0.34997106 0.00023472309 11048826
0.35925972 0.34165183 0.0038422346 10460847
0.36212251 0.34274888 0.0039951801 10460848
0.36479753 0.34321842 0.0039032698 10460846
0.36806661 0.34396607 0.0039003491 10591655
0.37600023 0.34685016 3.3795834e-05 11772291
0.37844992 0.3484959 0.00032734871 11509634
0.38178599 0.3495217 0.0004312396 10654581
0.34757841 0.33899415 0.004296124 10789554
0.34988466 0.34131676 0.0045393705 10460847
0.35323843 0.34108728 0.0046249628 10526640
0.35671413 0.34113115 0.0040795207 10722727
0.35937011 0.34279206 0.0038304329 10525350
0.36176598 0.34291363 0.0026065707 10787484
0.36435187 0.3451907 0.0015941858 10721953
0.36735755 0.3458426 0.0016592145 10918296
0.36952627 0.34728587 0.00075799227 11181460
0.37224039 0.34845442 0.00064677 11575170
0.37518996 0.34941745 0.00028377771 11640963
0.34097692 0.33926654 0.004263103 10395052
0.34377408 0.34026277 0.0044388175 10460847
0.34698954 0.34131765 0.0041068196 10591658
0.34974575 0.34164023 0.0027266145 10985121
0.35165516 0.34237131 0.0022473931 10853535
0.35356459 0.34310237 0.0017681122 10853535
0.3570751 0.34561974 0.00053358078 10722470
0.36103964 0.34558663 0.00072300434 10854055
0.3665936 0.34877449 0.00054639578 10788001
0.32860371 0.33664665 0.0046470761 10461104
0.33175549 0.3366046 0.0046519637 10000296
0.33397728 0.3382884 0.0042415261 10263722
0.33658779 0.33959141 0.0041416287 10263467
0.34096825 0.34070033 0.0026909709 10787740
0.34287766 0.34143138 0.0022117496 10853533
0.3451719 0.34238482 0.00097584724 11051429
0.34794068 0.34246057 0.00029170513 11117484
0.35014138 0.34459102 0.0003323555 10854056
0.35359523 0.34561151 0.0004594326 10590885
0.3165122 0.3348543 0.0054441094 10658226
0.31938416 0.33513439 0.0054828525 10658225
0.32209802 0.33657736 0.0049126744 10724018
0.32539639 0.3364023 0.0048604012 10724019
0.33035445 0.3395133 0.0046025515 10724017
0.33359548 0.34113047 0.0015783906 10919073
0.33672217 0.34172219 0.0011354685 10656416
0.33846575 0.34261626 2.4974346e-05 10656677
0.34671611 0.34570187 0.00035727024 10788520
0.30940661 0.33372203 0.0054225326 10526383
0.31353614 0.33471078 0.0051988363 10592433
0.33149585 0.34221756 0.00012952089 10656677
0.29841334 0.33151621 0.0049251914 10395053
0.30081713 0.33122599 0.0052960515 10395053
0.30278599 0.33319166 0.0050380826 10395054
0.30654785 0.33406526 0.0052918792 10722984
0.30894712 0.3349461 0.0048018098 10854306
0.31181121 0.33604273 0.0040829778 11051429
0.32018438 0.33875459 0.00017124414 11051692
0.32275867 0.3403092 0.00053006411 11051689
0.32554853 0.34152943 0.00047069788 10920103
0.28561565 0.32839319 0.0056988001 9539746
0.28750274 0.33119863 0.0056659579 10197676
0.29073542 0.33126336 0.0054987669 10263468
0.29420736 0.33212602 0.0048726797 10591913
0.29665104 0.33252513 0.0041534901 10722728
0.2995646 0.33400097 0.0039545298 10854054
0.30243811 0.33570713 0.003472507 11050914
0.2711204 0.32530168 0.0067681074 9605795
0.27570558 0.32834485 0.0060165524 9342881
0.27899879 0.32831931 0.0059526563 9211550
0.28183627 0.32948244 0.0061055422 9540003
0.28452358 0.3305113 0.0054552555 9933727
0.28786975 0.3309963 0.0035330057 10787234
0.29072875 0.33212888 0.002848506 10919583
0.29235163 0.33398664 0.0020700693 10854053
0.29545498 0.33507502 0.0023648739 10985380
0.30405778 0.33817938 0.0001128912 10788520
0.30740634 0.33843994 4.8995018e-05 10985642
0.2610282 0.32461625 0.0075790882 9605794
0.2635895 0.32514262 0.0069747567 9605793
0.2673859 0.32634422 0.0064789653 9408417
0.2694118 0.32813001 0.0064659715 9277087
0.27266464 0.32827812 0.0062872767 9408415
0.27544561 0.32953024 0.003721416 10194839
0.2779943 0.33069676 0.0044818521 9867419
0.28052622 0.33200598 0.0029097199 10326421
0.2835061 0.3336392 0.0022289753 10524317
0.28599739 0.33458099 0.0020526052 10787745
0.28862286 0.33495522 0.0013988018 10853795
0.29102653 0.33693561 0.00085097551 10854056
0.29420349 0.33716828 0.00071793795 10854312
0.2523737 0.32304102 0.0066261888 9473951
0.25491905 0.3228806 0.0068824291 9408156
0.25735652 0.32506436 0.0072177649 9539744
0.26337868 0.32778573 0.0049085021 9802400
0.26528996 0.32791421 0.0068039298 9277087
0.27134481 0.3314411 0.0025673509 10130075
0.27355713 0.33160707 0.0024328828 9998747
0.27661306 0.33224744 0.0020013452 9866904
0.27984062 0.33257514 0.0017766356 9932699
0.28255194 0.33440882 0.0015733838 10327712
0.28506154 0.33631647 0.0011174679 10788262
0.28752619 0.33650351 0.0011440516 10854055
0.2423929 0.3224737 0.0071849227 9342622
0.24493366 0.32303026 0.0067639947 9342622
0.24891494 0.32401279 0.0065975189 9473951
0.2510384 0.32570976 0.0066918135 9408414
0.25333142 0.32552838 0.0067871213 9473950
0.25689161 0.3274942 0.0029373169 10196127
0.25920448 0.32739624 0.0032391548 10261920
0.262025 0.32852763 0.0034951568 10392990
0.26484647 0.32943165 0.003262043 10064278
0.26725927 0.33051956 0.0026304126 10064023
0.27002919 0.33118898 0.0020530224 10261145
0.23405086 0.32026172 0.0069438815 8882072
0.23657642 0.32001773 0.0069937706 9013402
0.23860985 0.32280356 0.0070758462 9211035
0.24715641 0.32618964 0.005102694 9736349
0.24990119 0.32678515 0.0033629537 10064284
0.25223929 0.3270753 0.0034810305 10064535
0.25492465 0.32870969 0.0031769276 10130329
0.25805715 0.3298713 0.0026627183 10327196
0.26021275 0.33043271 0.0031245351 10130077
0.21995045 0.31766129 0.0072680116 8948377
0.22330238 0.31993014 0.0074326992 9013914
0.226318 0.32017654 0.0071159005 8948122
0.22945362 0.32103741 0.0073381662 8816536
0.23159848 0.32209849 0.006839931 8816280
0.23467565 0.32307535 0.0067142844 9144988
0.23949176 0.32620448 0.0035082698 9998747
0.24293125 0.32638645 0.0034674406 10064283
0.24599741 0.32740903 0.0027834177 10261658
0.24841744 0.32894084 0.0016162992 10195858
0.21125676 0.31656569 0.0086433291 9211036
0.21486148 0.31810999 0.0078337193 9211549
0.21746427 0.31864011 0.007619381 9079962
0.21997872 0.3199442 0.007576704 8882328
0.23189285 0.32359552 0.0029932261 9538197
0.23444846 0.32359028 0.0030888319 9669783
0.23569873 0.32649276 0.0032958984 9801626
0.19957608 0.31413484 0.0085695982 8750486
0.20314607 0.31542695 0.0085513592 8947862
0.20513627 0.3155835 0.0083937049 9144984
0.20801923 0.31665042 0.0085811615 9079193
0.22174114 0.32334059 0.0029091835 9735577
0.22394323 0.32357842 0.0028436184 9669784
0.22703326 0.3253302 0.0027097464 9538198
0.22927606 0.32550767 0.0024952888 9538198
0.23285086 0.32642341 0.0027983189 9800851
0.23477091 0.32696888 0.0020782948 10062996
0.23777145 0.32811773 0.0013251901 10326168
0.24068099 0.32923174 0.00059497356 10260630
0.24268132 0.32999766 9.2923641e-05 10261396
0.18418184 0.31073684 0.0097523332 8684947
0.18767634 0.31234038 0.0094701052 8684946
0.1902817 0.31356579 0.0094504952 8553363
0.19315615 0.31390935 0.0089386106 8553108
0.19645447 0.31396142 0.0087943077 8684692
0.19840729 0.31652695 0.0088764429 8816276
0.20079695 0.31713891 0.0081570745 8816276
0.20398328 0.31767499 0.0050185919 9801625
0.20593306 0.31789172 0.0047920346 9932953
0.20871948 0.32145762 0.0042439699 10130333
0.21243179 0.32174394 0.0041347742 9999004
0.21557865 0.32219201 0.0037721992 9669784
0.21748811 0.32269603 0.0033848882 9603993
0.22032145 0.32400826 0.0028722882 9800854
0.22303379 0.32572806 0.0020612478 10129557
0.22577772 0.32672864 0.0018125176 9669265
0.2289439 0.32799086 0.00057792664 9800079
0.17192975 0.30736858 0.010572851 8421776
0.17813045 0.31016061 0.010397315 8027531
0.18078981 0.31232747 0.0099108815 8422032
0.18356401 0.31364241 0.0095321536 8684946
0.18547349 0.31391937 0.0092366934 8618897
0.19561043 0.31681392 0.0045245886 9339783
0.1969938 0.31776035 0.0044689178 9537934
0.20005906 0.31798846 0.0047602057 9735574
0.20239812 0.32009491 0.0034168363 9931922
0.20559242 0.32091528 0.0038112998 9801108
0.20743063 0.32133961 0.0015578866 10063251
0.21043114 0.32248843 0.00080484152 10063507
0.21311513 0.32518351 0.0015876889 9800077
0.21611565 0.32633233 0.00083458424 9800339
0.16039297 0.30718958 0.011220813 8553615
0.16423176 0.30669159 0.011295676 8553103
0.16576281 0.30866623 0.01105994 8553618
0.16910049 0.30874556 0.010493338 8355983
0.17224139 0.31036508 0.010250747 8356240
0.17428207 0.31061667 0.010001302 8159120
0.17759955 0.31294382 0.0061740279 9077645
0.17985222 0.31350383 0.0059247613 9472403
0.18198383 0.31356311 0.005744338 9603989
0.18467975 0.31527758 0.0057361722 9406611
0.18724445 0.31701741 0.0056818724 9340562
0.19026552 0.31779534 0.0048831701 9340562
0.193599 0.31816372 0.0047044754 9538197
0.15760434 0.30680323 0.011790276 8487826
0.16242197 0.30955699 0.011085153 8553615
0.17060915 0.31223482 0.0065996647 9011856
0.17307377 0.31219482 0.0067180991 8946059
0.17549992 0.31423521 0.0067895055 8946058
0.17879927 0.31575125 0.0064727068 9340560
0.18170376 0.31644711 0.0059605837 9471890
0.18960156 0.31776625 0.0030697584 9603466
0.19209483 0.31978193 0.0033708215 9800589
0.19529632 0.32153827 0.0030307174 9603213
0.19803524 0.32205641 0.0018798709 9931407
0.20129733 0.32383597 0.0015245676 9997713
0.2031965 0.3246389 0.00111413 10063506
0.20619702 0.32578772 0.00036102533 10194835
0.15147841 0.30725375 0.0077889562 9340817
0.16085115 0.31167674 0.0067457557 9340818
0.16320503 0.31174546 0.0065886974 9275026
0.1667788 0.31216782 0.0061350465 9208715
0.16960061 0.31328553 0.0050606132 9273991
0.17160097 0.31405142 0.0045585632 8682110
0.17460144 0.31520021 0.0038055182 8945025
0.17760199 0.31634903 0.0030524135 9997199
0.18060248 0.31749785 0.0022993684 9800332
0.18339927 0.31940243 0.0023255944 9471625
0.18539445 0.32020426 0.0018579364 9340039
0.18728717 0.32172471 0.0020780563 9471365
0.1445488 0.30656785 0.0080541968 9011854
0.14662987 0.30698627 0.0077819228 9143184
0.14905414 0.30700648 0.0078313351 9406355
0.15149733 0.3109706 0.0069614649 9406353
0.15353805 0.31144917 0.0066202283 9275281
0.15692286 0.31145817 0.006097734 9340043
0.15950009 0.31267136 0.0046326518 9601927
0.16150044 0.31343722 0.0041306019 9404549
0.1368617 0.30627298 0.0080885887 9275025
0.13933653 0.30638826 0.0080463886 9209233
0.14164172 0.30853343 0.0079418421 9077390
0.14494103 0.3098982 0.0076861978 9208974
0.14813344 0.31047708 0.0072663426 9340817
0.13255385 0.30647734 0.0076690912 9275026
0.13739757 0.30746177 0.0072171688 9536135
0.13939795 0.3082276 0.0067151189 9733767
0.14139827 0.30899349 0.006213069 9536388
0.14439881 0.31014234 0.0054599643 9537158
0.14739931 0.31129113 0.0047068596 9471628
0.14939964 0.31205702 0.0042048097 9537421
0.15139997 0.31282294 0.0037027597 9273991
0.11784361 0.30299914 0.0075109005 9275025
0.12049003 0.30325589 0.0074917674 9340818
0.12332243 0.3046819 0.0075871944 9472404
0.12613489 0.30647856 0.0072923303 9538197
0.12865007 0.30676067 0.0072271824 9472405
0.13111591 0.30830973 0.0058307648 9273480
0.13311628 0.30907565 0.0053287148 9404549
0.1112982 0.30298993 0.0072716475 9538453
0.11556084 0.30288172 0.0074386597 9341074
0.11606382 0.30610335 0.0073460937 9406867
0.11974096 0.30641383 0.0071337223 9275026
0.12492524 0.30919245 0.0044215918 9471628
0.12692556 0.30995834 0.0039195418 9536652
0.10698553 0.3034572 0.0065765977 9669782
0.11352877 0.3061918 0.0070210695 9472916
0.10645965 0.30537549 0.0060931444 9997458
0.10950562 0.30654171 0.0053286552 9669005
0.1125516 0.30770797 0.0045641661 9472140
0.11455197 0.30847377 0.0040621161 9274761
0.11755246 0.30962265 0.0033090711 9405835
0.12064393 0.31080627 0.0025331378 9603214
0.38936442 0.34917471 0.0057768226 10656644
0.38359863 0.34885734 0.0044491887 10195838
0.38700217 0.34940434 0.004675746 10458751
0.38934028 0.35094339 0.0042158961 11115647
0.39134449 0.3509925 0.0048268437 10722441
0.37377173 0.3463037 0.0043437481 10919567
0.37633026 0.34876096 0.0047020912 10393475
0.37969902 0.34865093 0.0048103929 10590851
0.38198721 0.35020822 0.0040332079 10720632
0.38471422 0.35136643 0.0037384033 10654319
0.38714141 0.35229397 0.0014590025 11245425
0.38997614 0.352584 0.00048816204 11049342
0.39267141 0.3540715 0.0010803938 10851709
0.36489224 0.34653646 0.0043760538 10329005
0.36684206 0.34652621 0.0042413473 10394538
0.3700811 0.34772938 0.0044121146 10657185
0.37251705 0.34907925 0.0044552684 10328206
0.37914699 0.35146454 0.0012065172 10917751
0.3810564 0.35196859 0.00081902742 10720374
0.38418168 0.35335547 0.00092637539 10785651
0.38723597 0.35456398 0.0013548136 11377790
0.38924661 0.35503086 0.00087589025 11246464
0.35352927 0.34354639 0.0049339533 10131627
0.35542846 0.34366813 0.0047990084 10000040
0.3582058 0.34503496 0.0045846701 10197419
0.36113423 0.34623277 0.0047147274 10526384
0.36315444 0.34617394 0.0047866106 10526383
0.36714867 0.34865028 0.0043212175 10722213
0.36988217 0.34920436 0.0033500195 10852509
0.3720451 0.35086447 0.0017924905 10851962
0.37515137 0.35137278 0.0015790462 10851696
0.37716672 0.35180396 0.0012836456 11049073
0.34647855 0.34417641 0.0045329928 10197676
0.34912571 0.34363818 0.0043995976 10591652
0.35159639 0.34464809 0.0044639111 10262693
0.35420802 0.34584996 0.0038784742 10261657
0.35678208 0.34683567 0.003338933 10196381
0.35982794 0.34800118 0.001945138 10721950
0.3623696 0.34905016 0.0014460683 10853539
0.36485434 0.35007751 0.0011549592 10722209
0.36818713 0.35127866 0.0010752678 10919580
0.33646977 0.3422344 0.0041975975 10395052
0.33974534 0.34293428 0.0042939186 10263468
0.34223193 0.3438361 0.0039646029 10394275
0.34433314 0.34411091 0.0037727356 10525861
0.34697407 0.34565252 0.0035007 10524312
0.35008463 0.34737402 0.0031834245 10327444
0.35264343 0.34827614 0.00073200464 10261406
0.35628274 0.34941792 0.00061458349 10524835
0.35854119 0.35174674 0.00016582012 10788263
0.3604705 0.3521072 7.6889992e-05 10788006
0.36295497 0.35169667 0.00058537722 10722212
0.32467157 0.33892691 0.0053857565 10789810
0.32756108 0.33904922 0.0050344467 10789811
0.32920104 0.34213817 0.0046684742 10789811
0.33329749 0.34219301 0.0044221878 10460846
0.33543727 0.34479237 0.0044242144 10197675
0.33824772 0.34492099 0.0028913617 10394275
0.34080249 0.34707314 0.0025500655 9800334
0.34271193 0.34780419 0.0020707846 10261141
0.34543139 0.34869274 0.00023925304 10525092
0.34896663 0.34864658 0.00045102835 10393250
0.31464052 0.33894563 0.0055426955 10724019
0.31800961 0.33894902 0.005387187 10724017
0.32163098 0.33897352 0.005392611 10789555
0.32333624 0.34182286 0.0053594112 10789810
0.32609448 0.3419705 0.0049620867 10789810
0.33519539 0.34530127 0.00051212311 10853539
0.33924529 0.34692851 0.00028806925 10656677
0.34206775 0.34853983 0.00018829107 10525092
0.30592999 0.33651677 0.0052552819 10526384
0.30865642 0.33778864 0.0053506494 10592432
0.31131446 0.33822656 0.0053620338 10592433
0.32218862 0.34160763 0.0028687119 11314088
0.32505274 0.34270424 0.0021498799 11183014
0.32796803 0.34469044 0.00058174133 11051176
0.33064818 0.34504837 0.00048625469 10853540
0.33288613 0.34714246 0.00032806396 10591142
0.33653218 0.34816068 0.00034075975 10525092
0.29914185 0.33686894 0.0050384998 10460848
0.30261147 0.33660841 0.0053191185 10460847
0.30484283 0.33905309 0.0049389601 10789292
0.30707699 0.33915061 0.0037646294 11116707
0.30994111 0.34024727 0.0030457973 11116709
0.31151506 0.34099925 0.00060462952 11117229
0.31566936 0.34244043 0.0016080737 11182500
0.31882161 0.34410137 0.00048798323 11116968
0.28708696 0.3339166 0.0055264831 10263724
0.29048136 0.33408105 0.0052790642 10329517
0.29248047 0.33598268 0.0050441027 10395311
0.29606122 0.33708915 0.0047125816 10722984
0.29802668 0.3381063 0.0037974119 10985121
0.30093625 0.33922029 0.0030671358 10985121
0.30836403 0.34138143 2.6106834e-05 11051692
0.31124756 0.34395051 0.00024330616 11117226
0.31439245 0.34437278 0.00012564659 11117228
0.27233979 0.33091739 0.0061708689 9802917
0.27418214 0.33200228 0.0064024925 9934760
0.27673268 0.33260065 0.0062301755 9934760
0.28080821 0.33359396 0.006090641 10263467
0.28322318 0.33470753 0.0051417351 10591141
0.28588164 0.33657765 0.0047835112 10657189
0.28862223 0.33753222 0.0040129423 10722982
0.29047212 0.33846676 0.0027304888 11050912
0.29238155 0.33919781 0.0022512674 10985120
0.29629773 0.34043139 0.00045573711 10854569
0.29942441 0.3409096 5.877018e-05 10920106
0.30245095 0.34225884 0.00037235022 10920105
0.30521017 0.34380823 0.00036436319 11051690
0.30733159 0.34416634 0.00016099215 11051691
0.25984013 0.32794636 0.0068302155 9408416
0.26485914 0.33073983 0.006549716 9605795
0.26833904 0.33052096 0.0067155957 9605794
0.27076799 0.33220842 0.0062595606 9934759
0.28062665 0.33582938 0.0015468597 10525091
0.28641307 0.33940879 0.0011410713 10920105
0.2895247 0.34010816 0.00058335066 10920105
0.29295909 0.34009904 0.00066876411 10920105
0.25332958 0.32825366 0.0067743063 9474207
0.25629976 0.32825553 0.0065608621 9408159
0.25811133 0.33103186 0.0064017773 9671587
0.2616719 0.33069259 0.0067054629 9737637
0.27044892 0.33246166 0.0034028888 10260885
0.27286744 0.33452374 0.0029658079 10524317
0.27517366 0.33525527 0.0022788644 10458781
0.27782315 0.33663362 0.0021204352 10787489
0.28068024 0.33861375 0.0016260147 10788519
0.28415012 0.3391479 0.0013670921 10854312
0.24140112 0.32553887 0.0070328712 9408158
0.24455313 0.32572398 0.0067278743 9408157
0.24810681 0.32791883 0.0071451664 9342622
0.24984458 0.3282814 0.0067346692 9342622
0.25119182 0.32940024 0.0037308335 9998747
0.25549185 0.33059508 0.0053770542 9999003
0.25793886 0.33092505 0.0035796762 10129304
0.26059079 0.33300075 0.0031146407 10261659
0.263578 0.33389252 0.0028220415 10130072
0.26594388 0.33463424 0.0022422075 10195865
0.26875278 0.3360765 0.0022324324 10590365
0.27068469 0.33792698 0.0019438267 10788262
0.27372053 0.33848375 0.0015238523 10788263
0.23490568 0.32539779 0.0072296858 9079195
0.23708817 0.32611972 0.0065099001 9145243
0.23986894 0.32824573 0.0070294142 9408413
0.24338943 0.32830721 0.0069084764 9474208
0.24518046 0.32921803 0.0044789314 9736092
0.24877781 0.32953525 0.0035206079 9998491
0.24990337 0.33197248 0.0029592514 10195608
0.25311002 0.33306849 0.0028373003 10195608
0.25625589 0.33414125 0.0028760433 10392988
0.25779641 0.33579081 0.0021089911 10590107
0.22001722 0.32238227 0.007724762 9013657
0.22208807 0.32241842 0.0077049732 9079450
0.22510478 0.32344776 0.0074183941 9013914
0.22845083 0.32508296 0.0073233247 8816279
0.23123878 0.32546946 0.0071896911 8882327
0.23894945 0.32947975 0.0032764673 9998748
0.24228239 0.32894003 0.0039011836 9998746
0.24414924 0.33245674 0.0035582185 10064540
0.24769473 0.3324523 0.0036553741 10130333
0.20782024 0.3190732 0.0088549852 9079193
0.21091647 0.31919929 0.0086760521 9342878
0.21324947 0.3207742 0.0083233118 9408414
0.21637061 0.32265085 0.0076274276 9079961
0.22151574 0.32522777 0.0075192451 8882329
0.23164648 0.32963455 0.0028982759 9735318
0.23466691 0.32995865 0.0027192235 9801112
0.24046567 0.33074093 0.0020393133 10261144
0.24342071 0.33187234 0.0012976527 10063763
0.24637574 0.33300379 0.00055593252 9997456
0.19506857 0.31653517 0.008951664 8947606
0.19791526 0.31898907 0.0091383457 8618898
0.20078969 0.31933254 0.0086263418 8487568
0.20425966 0.31929898 0.0085971951 8750225
0.2058388 0.32202417 0.0085294247 9276570
0.2097739 0.3225469 0.0079157352 9408414
0.21722855 0.32566327 0.0033716559 9669785
0.22011316 0.32650262 0.0025612116 9801370
0.22236924 0.32759485 0.0031375885 9735576
0.22566938 0.32876441 0.0029526949 9669010
0.22878841 0.32940999 0.0025615096 9669009
0.230638 0.33023113 0.0015429854 9866128
0.23263833 0.33099696 0.0010409355 9997716
0.23563889 0.33214581 0.00028783083 10063509
0.18609726 0.31571156 0.010074139 8553361
0.18955624 0.31711233 0.0099984407 8618898
0.19191912 0.31712115 0.0094206929 8684690
0.19475332 0.31887573 0.0092942119 8816276
0.19965759 0.32093966 0.005033493 9406355
0.20535308 0.32425728 0.004742384 10064536
0.20736367 0.32449725 0.0043552518 10196126
0.21077856 0.32508549 0.0037407875 10064798
0.21380913 0.32545137 0.0034468174 9801370
0.21570139 0.3287884 0.0031499267 9604248
0.21902087 0.32892355 0.0023404956 9866647
0.22081023 0.32972139 0.001046598 9932437
0.17128959 0.31257552 0.01070714 8619155
0.17439105 0.31277913 0.01044786 8421775
0.17702171 0.31405202 0.010382354 8224654
0.17977338 0.31537136 0.010431767 8356240
0.18235999 0.31605878 0.0097357035 8487567
0.19055599 0.32025468 0.0054101348 9603733
0.19271773 0.32055268 0.0052756071 9603990
0.19605127 0.32080743 0.005142808 9340819
0.1981301 0.32383782 0.0051216483 9208973
0.20064536 0.32411984 0.0050565004 9471890
0.20317087 0.324103 0.0050144196 9866902
0.15878484 0.30998105 0.011263013 8750737
0.1620964 0.31196949 0.011496425 8619157
0.16505666 0.31215668 0.011087835 8684948
0.16770378 0.31275368 0.010495126 8487569
0.17246844 0.31547397 0.0091627836 8684433
0.1806559 0.31888574 0.0063822865 9208974
0.18369684 0.31952018 0.0058819056 9274512
0.18692446 0.31996137 0.0056113005 9406354
0.1909585 0.32374007 0.0048814416 9406355
0.19443321 0.32389775 0.0049440265 9208975
0.20598172 0.32729685 0.0018053055 10260885
0.20898223 0.32844567 0.0010522604 10261141
0.21098259 0.32921159 0.00055027008 10063506
0.15532002 0.31009221 0.011211753 8750996
0.15776739 0.31220418 0.011696279 8816531
0.16618749 0.31459233 0.0070393085 9077646
0.16985902 0.31459844 0.0072168112 9143441
0.17195298 0.31763455 0.0072644949 9275026
0.17526126 0.3179554 0.0071316957 9077132
0.17728211 0.31857753 0.0064921379 9143183
0.18806174 0.32368875 0.0033400655 9734022
0.19106224 0.32483757 0.0025870204 9603213
0.19306256 0.32560343 0.0020849705 9142662
0.19606307 0.32675225 0.0013318658 9405574
0.1989727 0.32786626 0.00060158968 9734286
0.20097302 0.32863215 9.9539757e-05 10063507
0.15720238 0.31421667 0.0070374012 9340818
0.15950561 0.31441748 0.0068801641 9341074
0.16204134 0.3147828 0.006585598 9209490
0.16464639 0.31729507 0.006190598 9471631
0.16763209 0.31749183 0.0056062341 9471374
0.17016356 0.31925529 0.0041409731 9340291
0.17316413 0.32040405 0.0033878684 9208455
0.17516443 0.32117 0.0028858185 9734800
0.17816496 0.32231876 0.0021327734 9406089
0.18105264 0.32425815 0.0021362305 9471369
0.18305305 0.32502401 0.0016341805 9405576
0.14592886 0.31285125 0.0078010559 9472148
0.15019213 0.31365106 0.0071647167 9472403
0.15265667 0.31383827 0.0071912408 9472148
0.15486902 0.31400418 0.0070568323 9340820
0.13473871 0.30954829 0.0076938272 8222592
0.13795494 0.31119701 0.0076864958 8485509
0.14095923 0.3129915 0.0074951649 8748680
0.14316131 0.31300226 0.0075214505 9077388
0.14754562 0.31384853 0.0070000887 9472402
0.15217459 0.31478691 0.0049648285 9471627
0.15517505 0.31593576 0.0042117238 9602953
0.15717545 0.31670165 0.0037096739 9602953
0.16017601 0.31785047 0.0029565692 9272968
0.16295084 0.32058036 0.003716588 9602447
0.16495124 0.32134622 0.0032145381 9799826
0.12801683 0.30977407 0.0071101189 8420233
0.1320321 0.3097223 0.0072538853 8222593
0.13406801 0.31264737 0.0066819787 8090229
0.13689137 0.31218851 0.0058376789 9076862
0.13898262 0.31298918 0.0053128004 9076862
0.14198315 0.314138 0.0045596957 9340044
0.14498362 0.31528684 0.0038066506 9537165
0.14698398 0.31605268 0.0033045411 9668751
0.11918323 0.30934283 0.0071887374 9209490
0.12148652 0.30954355 0.0070315599 9209491
0.12406256 0.30984882 0.0068059564 9078162
0.12669995 0.31153938 0.0054326057 9010314
0.12970048 0.3126882 0.0046795607 8878462
0.11064988 0.30622452 0.0069938898 9604246
0.11518352 0.30951369 0.0068501234 9341076
0.10644755 0.30741578 0.0065281391 9735575
0.10953741 0.30901617 0.0066007972 9801106
0.11182047 0.30947408 0.0063172579 9537936
0.11432637 0.31005484 0.0055751801 9405833
0.11737235 0.31122109 0.0048106909 9537167
0.12041833 0.31238732 0.0040462017 9537678
0.12241866 0.31315321 0.0035441518 9340299
0.39152122 0.35335732 0.004902482 10787198
0.38154989 0.35250261 0.004914701 10590595
0.38512504 0.35387236 0.0048161745 10590850
0.38756546 0.3545225 0.0039191246 11048821
0.39088139 0.35641843 0.004685998 10523251
0.3719694 0.35159582 0.0047973394 10328465
0.37534839 0.35152745 0.004791081 10327684
0.37791824 0.35277715 0.0048860908 10656131
0.37976581 0.35405302 0.004991591 10787719
0.38647631 0.35722625 0.0015130639 11246461
0.3886483 0.35745245 0.0013097525 11049085
0.39196137 0.35751033 0.001452446 10983292
0.36299092 0.34902662 0.0047620535 10460333
0.36599922 0.3518073 0.0047767758 10394283
0.36969686 0.35117942 0.0047482252 10656161
0.37244007 0.35177535 0.0040982962 10719864
0.37526727 0.35357797 0.0040903091 10720894
0.37701628 0.35418266 0.0016835928 11048568
0.37998956 0.35527122 0.0017163754 11179893
0.38236579 0.35659766 0.0012662411 11048307
0.38424414 0.35743088 0.0012573004 11114618
0.35650221 0.34917831 0.0047751069 10262434
0.35936633 0.35032594 0.0045723915 10459556
0.36213088 0.35153654 0.004507184 10459558
0.3652491 0.35227525 0.0029400587 11050147
0.3703973 0.35417002 0.0011461377 10655370
0.37321973 0.35589486 0.0010005236 10785910
0.37644592 0.35701776 0.0013259649 11180411
0.34427425 0.34689111 0.004711926 9934503
0.34776372 0.34750879 0.0048775077 9867422
0.34982148 0.3487134 0.0046162605 9802141
0.35283586 0.34981745 0.0041422844 10130585
0.36338222 0.35432148 0.00081425905 10722211
0.36655915 0.35466775 0.00063538551 10919074
0.33326533 0.34479314 0.0045357943 10263724
0.33746594 0.3473869 0.0044146776 9671590
0.34068841 0.3474099 0.0043622255 9737125
0.34294969 0.3494122 0.0044487119 10196645
0.34528387 0.34992713 0.0037255287 9933215
0.34949982 0.3513121 0.00072598457 10195613
0.35203546 0.35145053 0.00052320957 10195613
0.35440922 0.35114866 0.00075638294 10261663
0.35627133 0.35481471 0.00018393993 10525091
0.35969043 0.35445908 0.00055634975 10656676
0.32302129 0.34450388 0.0053462982 10789811
0.32545587 0.34422517 0.0054190159 10789810
0.32815969 0.34551287 0.0048642159 10855604
0.33136466 0.34633702 0.0048686266 10592433
0.33423325 0.34743571 0.0045359135 10197931
0.34160042 0.35059553 0.0010240674 10261921
0.34457055 0.35116506 0.00058090687 10064541
0.34726274 0.35328194 0.00066047907 10064539
0.35055867 0.35444361 0.00051963329 10392992
0.35259932 0.3546952 0.00027018785 10392992
0.31319439 0.3419503 0.0052409172 10460589
0.31587547 0.34331822 0.005192697 10592432
0.31895667 0.3435519 0.0050080419 10724018
0.32076865 0.34462512 0.005319953 10789810
0.33152035 0.34677219 0.0019168258 10919074
0.33366781 0.34966391 0.0011540651 10458524
0.33679235 0.35000283 0.0011203289 10063764
0.33862996 0.35082072 0.0013636947 10064025
0.30168021 0.33935627 0.0053623915 10395309
0.3044565 0.34208572 0.0052506328 10066089
0.30657789 0.34221685 0.0051390529 10066088
0.309881 0.34211957 0.0052243471 10197674
0.31211132 0.34464025 0.0054673553 10197675
0.31830141 0.34583569 0.0030328631 10985121
0.32021081 0.34656674 0.0025536418 11050914
0.32321876 0.34770539 0.001303494 11182760
0.32615423 0.34910691 0.00064003468 11248812
0.32864937 0.34965402 0.00065851212 11116969
0.33077216 0.35072461 0.00058329105 10656935
0.29440737 0.33952272 0.0051218867 10461104
0.29784688 0.33959112 0.0051270127 10395055
0.30064428 0.34183609 0.0045795441 10196640
0.30272534 0.34225446 0.0043072701 10262433
0.30553991 0.3425746 0.0033019185 10787229
0.30829644 0.34442574 0.0033052564 10721436
0.31144005 0.3457039 0.0013478994 10919076
0.31424266 0.34666407 0.0012713075 11248038
