# .PCD v0.7 - Point Cloud Data file format
VERSION 0.7
FIELDS x y z rgba
SIZE 4 4 4 4
TYPE F F F U
COUNT 1 1 1 1
WIDTH 1113
HEIGHT 1
VIEWPOINT 0 0 0 1 0 0 0
POINTS 1113
DATA ascii
0.20632079 0.32350087 0.013283473 8292743
0.20957159 0.32569742 0.013017107 8095878
0.21086505 0.3287158 0.013226502 8161413
0.21411392 0.33271441 0.012454439 8095619
0.21614371 0.33332232 0.012474686 8095619
0.21838374 0.33657297 0.012313154 7898500
0.22592343 0.34421372 0.0078936256 9147027
0.23238076 0.35226095 0.0064259917 9081507
0.23410282 0.35321853 0.006054908 9081508
0.23675357 0.35661584 0.0057527758 9476005
0.23865339 0.35772809 0.0056355633 9541798
0.24071658 0.36088496 0.0047885291 9542053
0.24444413 0.3649787 0.0055137016 10002087
0.24690622 0.36765164 0.0042359307 9870759
0.24881858 0.36945581 0.0039772205 10068137
0.2509996 0.37157243 0.0037864298 10068136
0.25292766 0.37428349 0.0038569458 9936550
0.25436336 0.37694883 0.0039587207 10068135
0.25730741 0.37860918 0.0034460314 10133929
0.25928724 0.38045505 0.0036529116 10133929
0.26109776 0.38248408 0.0032367408 10265514
0.26236245 0.38528267 0.0028124042 10133928
0.2645829 0.38845301 0.0020834804 10331052
0.26627895 0.38949016 0.0024303757 10265516
0.26894376 0.39099199 0.0021572374 10397100
0.16384517 0.27915937 0.019149441 9736338
0.16654211 0.28097054 0.019387472 10131096
0.16794613 0.28250933 0.019121278 10131096
0.16941696 0.28412142 0.018842321 10262938
0.17152292 0.28642961 0.018442933 10262935
0.17369574 0.28881103 0.018030904 10460045
0.17535725 0.29167041 0.018473323 10722434
0.1779746 0.29350075 0.017219435 10656897
0.17937869 0.29503947 0.016953181 10722163
0.18112472 0.29729939 0.016874537 10787955
0.18321306 0.30028039 0.016983572 10656623
0.18537267 0.30260018 0.016539592 10590314
0.18753228 0.30491996 0.016095605 10327142
0.18893623 0.30645871 0.015829351 10327142
0.19115788 0.30823302 0.014926016 10261863
0.19269279 0.31115538 0.015064262 8948593
0.19577874 0.31296712 0.013808649 10393193
0.19791818 0.31531203 0.013402943 10524781
0.2000576 0.31765684 0.01299724 10525038
0.20133118 0.32043454 0.013288341 9211253
0.20317681 0.32206658 0.013128795 10721641
0.20534962 0.3244482 0.012716766 10590312
0.20745558 0.32675636 0.012317386 10590829
0.20959505 0.32910115 0.011911679 10525036
0.21173438 0.33144593 0.011505917 10459242
0.21313846 0.33298478 0.011239719 10327905
0.21776535 0.34076881 0.0080632754 8620419
0.2208541 0.34198526 0.008113604 8817798
0.22340131 0.34447986 0.0067797266 9212302
0.22444399 0.34759071 0.00738414 9541795
0.22711772 0.34913349 0.0071323924 9476261
0.22919369 0.35097903 0.0064647868 9344420
0.23108582 0.35358298 0.0056608133 9213093
0.23330835 0.35527396 0.0058577396 9147302
0.23439056 0.35822052 0.0054580458 9410213
0.23747551 0.35982114 0.0052113272 9607589
0.23883119 0.36284527 0.0048616976 9804966
0.24108866 0.36438856 0.004520487 9739173
0.24283017 0.36614877 0.0037648007 9607588
0.24480586 0.36863428 0.0037031509 9673381
0.24667794 0.37165901 0.003582228 9804966
0.24763942 0.3742865 0.0028050803 10068137
0.25077656 0.37563038 0.0030589886 10133930
0.2534188 0.37746185 0.0027321018 10199722
0.25521141 0.37855089 0.0027042069 10199722
0.26246494 0.38723609 0.0020233132 10265515
0.15538982 0.2723822 0.017815821 8814218
0.15749583 0.27469027 0.01741644 8748925
0.15961987 0.27767915 0.017495651 8814978
0.16298023 0.28191313 0.015517574 7634589
0.16694972 0.28683019 0.015178036 8095137
0.1700781 0.28823164 0.015324112 8029091
0.17169723 0.28928545 0.014966398 8094883
0.17546591 0.29629159 0.013022121 8554640
0.17722329 0.29761118 0.012563389 8488843
0.18303293 0.30407295 0.011530485 8620422
0.18432786 0.30738616 0.011874329 8686214
0.18792768 0.30945188 0.011246376 8554629
0.18960932 0.31045949 0.010951843 8423043
0.19258872 0.31575942 0.0099695064 8094333
0.19560185 0.31696016 0.0099248253 8620165
0.19975629 0.32283381 0.0089910962 8554372
0.20193733 0.32347322 0.0092013068 8554371
0.20285143 0.32555643 0.0091039166 8685958
0.2048182 0.32809958 0.0089345463 8751750
0.20711549 0.32988968 0.0081261508 8620420
0.20930752 0.33245072 0.0080639422 8620420
0.21061651 0.33541769 0.0072698556 8554629
0.21348235 0.33697221 0.0069157295 8685958
0.2145296 0.33945248 0.0068574026 8685954
0.21666628 0.34151915 0.005815696 9014660
0.21870551 0.34422296 0.0061673224 9212300
0.22067951 0.345743 0.0064321794 9409940
0.2224794 0.34821182 0.0061362684 9673121
0.22539604 0.34995347 0.0059477463 9673381
0.22974393 0.35524508 0.0058240481 8687267
0.2321009 0.35881847 0.0049901791 9673385
0.23658541 0.36272329 0.0046704598 9607847
0.14517084 0.26576039 0.016755924 6772282
0.14728117 0.26876581 0.016860764 7300167
0.14907192 0.27107453 0.016773611 8090465
0.15092039 0.27206215 0.015665617 8748390
0.15281036 0.27554941 0.016340218 8026501
0.15456763 0.27739462 0.016027261 6844553
0.15642677 0.27907249 0.016204238 7633030
0.15903023 0.28110287 0.01577029 7042706
0.16112623 0.28411561 0.015710123 8752804
0.16411948 0.28537199 0.015487872 8620962
0.16651596 0.29045767 0.01492602 8094881
0.16941056 0.29278779 0.014079276 8554911
0.17187512 0.29446456 0.013498582 8620442
0.17385572 0.29547656 0.013228334 8554644
0.17435223 0.29945001 0.012783628 8554632
0.17680353 0.30106515 0.012170974 8554631
0.17957556 0.30239251 0.011981476 8620166
0.18022439 0.30616194 0.011554632 8620678
0.18253031 0.30670923 0.011891127 8620678
0.1855725 0.30871612 0.011137992 8554630
0.18627004 0.31264365 0.010698806 8028541
0.18980739 0.3144592 0.010267001 7896956
0.19217329 0.31933263 0.0095012672 8554629
0.19507037 0.32056776 0.0094380789 8751751
0.1975304 0.32212535 0.0089330673 8620165
0.19893265 0.32546169 0.0091877282 8554372
0.2023049 0.32988259 0.0055909343 9211527
0.20506579 0.33182296 0.0063880011 8948613
0.20712009 0.33340994 0.0064116679 8883077
0.20763662 0.3368589 0.0054062121 9014406
0.21076687 0.33828944 0.0057302453 9014406
0.14528958 0.27010596 0.014104228 4475209
0.1467607 0.27162504 0.014866296 5133153
0.1491466 0.27363428 0.015398394 6580610
0.1513831 0.27567226 0.015702348 6778768
0.16370617 0.2904996 0.010605585 8817566
0.16560598 0.29161185 0.010488432 8620188
0.16741624 0.29317826 0.010157324 8752032
0.16992751 0.29843408 0.01000201 9014677
0.1723468 0.30030742 0.0095300563 9014413
0.1751757 0.30253217 0.0093056075 9080201
0.17763056 0.30450192 0.0087894164 9080200
0.17974867 0.3066074 0.0080718212 9080201
0.18522309 0.31485775 0.006932307 8619905
0.18722506 0.3164053 0.0067147277 8554111
0.18911605 0.31727883 0.0067490824 8488321
0.19172701 0.3191334 0.0063906722 8883077
0.19442235 0.32094604 0.0062349625 9146248
0.19426045 0.32498586 0.0058564655 8948611
0.19723246 0.32647195 0.0060606338 8948613
0.19977625 0.32851887 0.0056714229 9145737
0.20262192 0.33414108 0.0054528005 9014405
0.20548263 0.33581147 0.0053467788 9080455
0.14021635 0.26604173 0.015523996 6641456
0.14127301 0.26880652 0.0149903 5525567
0.14319691 0.27072114 0.01477433 5395024
0.14769447 0.27527609 0.014863405 8484973
0.15226971 0.28081268 0.010256581 6910096
0.15480077 0.28482798 0.01131596 7437211
0.15753441 0.28653067 0.011121627 8817569
0.16024157 0.28811014 0.010863554 9212064
0.16210094 0.28927246 0.010822948 9080479
0.1626409 0.29348913 0.01082975 8685983
0.165319 0.29515129 0.010502182 9014942
0.16687962 0.29690167 0.0099186897 9080475
0.1728933 0.30615383 0.0083426647 9014663
0.17470352 0.30772015 0.0080115013 9080456
0.17621997 0.30886999 0.0076672919 9145992
0.17893559 0.3106575 0.0074733086 9080457
0.18146402 0.31258321 0.0070901774 8948871
0.18332325 0.31374553 0.0070495047 8817283
0.1867913 0.32003284 0.0064626522 8554113
0.18929943 0.3219834 0.006117668 9014407
0.19191037 0.32383794 0.00575931 9080198
0.13558315 0.2660127 0.013140317 5722429
0.13774225 0.26815185 0.013489451 4474179
0.14509015 0.27704555 0.010173865 6974334
0.14814909 0.27857989 0.010327 7632788
0.14950621 0.28075498 0.010729995 6975630
0.15145853 0.28344116 0.01091668 6253196
0.13547796 0.2690478 0.0090940259 5985351
0.13888294 0.27386907 0.0099563114 4934737
0.14211553 0.27546936 0.010223333 5658723
0.14614978 0.28086892 0.010647383 6909842
0.13165748 0.26871103 0.0085604973 5919301
0.13334928 0.27130955 0.0093639977 4736058
0.1357345 0.27222696 0.0098919868 4736578
0.12761176 0.2666758 0.0075391419 6182220
0.12920681 0.26966515 0.0087760687 5590079
0.12487835 0.26615807 0.0066963769 5919567
0.12552357 0.26888758 0.0077326298 6050375
0.3354409 0.44380149 0.0046928562 10002592
0.33712453 0.44415259 0.0061357804 11381374
0.3391636 0.44638753 0.0057491064 11447425
0.32508835 0.43556157 0.00501398 10659472
0.32673499 0.4380852 0.0050150864 10790537
0.32944551 0.43947324 0.0048513226 10527880
0.33100054 0.44241697 0.0044309385 10461831
0.33286467 0.44343293 0.004357893 10593417
0.33445403 0.44642791 0.0040201582 10527628
0.33726025 0.44772947 0.0046496429 9871009
0.33911836 0.45101601 0.0046547689 10528937
0.30732471 0.41959053 0.0051774569 10463924
0.31183985 0.42373815 0.0048458241 10397617
0.31233445 0.42649731 0.0052604228 10134703
0.31562972 0.42728624 0.0051115416 9213853
0.31692556 0.43095675 0.0047645308 9345179
0.31995952 0.43160108 0.004768569 9476503
0.32038772 0.43461385 0.004720673 10199968
0.3218554 0.43802482 0.0045689158 10594469
0.3238323 0.43838602 0.0044615194 10594469
0.32843193 0.44249174 0.0043324865 9410967
0.33154809 0.44605947 0.0011591278 10725534
0.33329043 0.44707158 0.0027883239 10331296
0.33662772 0.45256779 0.0012784153 11054502
0.33949286 0.45435756 0.0010966398 11054504
0.28321847 0.39675248 0.0079259165 9740977
0.28850532 0.40212899 0.0069355033 9412016
0.29247192 0.40645641 0.0063271336 9938099
0.29493025 0.40981153 0.0063430406 10069683
0.29699591 0.41025013 0.006362427 10069938
0.2991598 0.41431263 0.00575969 10135475
0.30139071 0.41460913 0.0058288164 10201267
0.30221829 0.41832876 0.0052676909 10266803
0.30550086 0.4201014 0.0056114234 11120564
0.30741671 0.42226532 0.0053476505 10791858
0.30987033 0.42472291 0.0051995032 10660507
0.31270123 0.42663598 0.0048405044 10395742
0.31329784 0.42906547 0.0046756305 10331016
0.31514889 0.43001962 0.0045708232 10198670
0.31726491 0.43312696 0.0041107647 10527369
0.32042328 0.43509945 0.0033761524 11643500
0.32246235 0.43733439 0.0029894598 11709289
0.32696354 0.44514942 0.00011834875 10331028
0.32912615 0.44584301 0.00054476038 10593946
0.33058763 0.44987088 0.00076990202 10594206
0.33346817 0.45148546 0.0008415319 10528416
0.33963519 0.45764413 -0.0012415312 10922404
0.26953971 0.38481677 0.0079960041 9017521
0.27310669 0.38870305 0.0078575052 9412272
0.27461207 0.39167756 0.0081420913 9543600
0.27745223 0.39257717 0.0078111626 9609136
0.27914065 0.39559051 0.0081017017 9740720
0.28092504 0.39650202 0.0077936128 9740977
0.28274065 0.40037176 0.0073945783 9609391
0.28538504 0.402154 0.0071883015 9346223
0.28689009 0.40444157 0.0070513748 9346225
0.28935149 0.40648142 0.006579861 9674930
0.29181141 0.40917861 0.0063520148 9938099
0.29600745 0.41334692 0.0060343146 10069683
0.29960084 0.41718388 0.0049619451 10988979
0.30177304 0.4193317 0.0039838962 11776947
0.31787944 0.43726259 -0.00068990886 10264722
0.32068026 0.4422231 -0.00023766235 11185570
0.324018 0.44378683 -2.1919608e-05 10396568
0.3254132 0.44666129 -0.0024740174 10462106
0.3274838 0.44797096 0.0010283627 10593945
0.32987264 0.45150274 -0.0022441596 10593694
0.33200896 0.45266545 -0.0024001487 10462110
0.33315441 0.45491496 -0.0022882074 10659489
0.3353886 0.45715889 -0.001989875 11120040
0.25476712 0.37211403 0.00890553 9083055
0.26373127 0.38113156 0.0085181743 9936552
0.26557541 0.38382652 0.0081846602 9870763
0.26735437 0.38567105 0.0079816282 9608367
0.26962021 0.38766718 0.0079361089 10331312
0.27150625 0.39048743 0.0080219693 10068654
0.27365175 0.39203873 0.007137157 11382190
0.27576727 0.3948769 0.0074848123 10200238
0.2778638 0.39665514 0.0063384436 11316396
0.28032234 0.39944825 0.0066570528 10528686
0.28207576 0.40127161 0.0055396669 11119018
0.28424859 0.40365303 0.005127646 11119017
0.28565261 0.40519175 0.0048613921 11579568
0.29407662 0.41442469 0.0032638423 11711155
0.29581863 0.41680783 0.0017738827 11317168
0.29688451 0.41750222 0.0027313866 11776947
0.30906898 0.43220606 -0.0010508522 10002334
0.31143725 0.43392944 -0.0012119599 9804691
0.31384939 0.43705592 -0.00065705553 10396310
0.31482968 0.439275 -0.0015923865 10527640
0.31738633 0.44048467 -0.0010998808 10987933
0.32148802 0.44506046 -0.0024529323 10922400
0.32329449 0.44597596 -0.0026213564 10527899
0.32541203 0.45043957 -0.0027271993 10330776
0.32787877 0.45072544 -0.0022651516 10659486
0.22279617 0.340224 0.012513526 8359829
0.22504976 0.34344321 0.013424963 10526619
0.22715577 0.34575137 0.013025582 10395036
0.22967076 0.34809899 0.012250196 9541281
0.23401421 0.35270789 0.010523871 8294062
0.23727137 0.35602584 0.010593917 8294062
0.23885491 0.35910618 0.010719877 8491695
0.24121289 0.36022842 0.010315288 8754350
0.24323712 0.36373025 0.0096791945 8820398
0.24591447 0.36456606 0.0093042217 8885934
0.24764122 0.3683584 0.0087782256 8886191
0.24946921 0.36943483 0.0088643096 10265001
0.25114086 0.37199482 0.0085498951 9608364
0.25333011 0.37443906 0.008061897 10790054
0.25521943 0.37628746 0.0078056045 9542316
0.25732973 0.37771103 0.007443238 9871018
0.25910455 0.38039067 0.0072464831 10068139
0.2614907 0.3833276 0.0071604587 9542315
0.2651898 0.38708195 0.0076135732 8491440
0.2756668 0.39995056 0.0031515248 10462890
0.28015435 0.40205643 0.0027046092 10594219
0.28115278 0.40601736 0.002467718 9739687
0.28272277 0.40747508 0.0018195622 9739689
0.28549388 0.40885073 0.0017720945 10725549
0.28751415 0.4109295 0.0013034754 11119791
0.28982565 0.41423979 0.0010752305 11185583
0.29144856 0.41564798 0.00081399828 11185583
0.29419461 0.41658619 0.00060421228 10923183
0.29721597 0.42242694 -0.00057950243 10988978
0.30003896 0.4239566 -0.0007112138 11054771
0.30200619 0.42706111 -0.00098655373 11252148
0.30307904 0.42936933 -0.00091869012 11383478
0.30607978 0.43080389 -0.0010577254 10922928
0.30855384 0.43629238 -0.0022343397 10067618
0.31203741 0.43750376 -0.0021029375 9804436
0.31501597 0.44274262 -0.0026536398 11053982
0.31829432 0.44388035 -0.0024518557 11119521
0.3212997 0.44897681 -0.0028953403 10001812
0.32304811 0.45005772 -0.0032025091 9936274
0.19514583 0.31403381 0.015846901 7832707
0.20888013 0.32817698 0.013053942 8030084
0.21166654 0.33174998 0.012904365 8161412
0.21669264 0.33585808 0.012672331 7898497
0.21964213 0.33952552 0.012350995 8293776
0.22188623 0.34286472 0.012329493 8557223
0.22409064 0.34466121 0.012251765 8491179
0.22572827 0.34672219 0.011897653 8359854
0.22729683 0.34894654 0.011334818 8228269
0.22890772 0.35114986 0.010873366 8162734
0.23079078 0.35320365 0.010588139 8359854
0.23326695 0.35511628 0.010643266 8425645
0.23570497 0.35849643 0.010697391 8294062
0.24009547 0.36303231 0.0099802501 8885678
0.24387987 0.3670857 0.0091936998 8885934
0.24570036 0.36782771 0.0088850074 8885934
0.24752994 0.37152383 0.0083455816 8951982
0.25215301 0.3751632 0.008011613 8754095
0.25424123 0.37891385 0.0075730793 8754096
0.25570023 0.37969762 0.0071769767 8820144
0.26392475 0.38901877 0.0026721582 9804967
0.26895127 0.39362633 0.0029625967 10265513
0.26945472 0.39562446 0.0023774244 10397099
0.27192086 0.39681616 0.0026161335 10397099
0.27424192 0.39820299 0.002890043 10528428
0.27646908 0.40228066 0.0019188337 10594477
0.2769787 0.40495801 0.0015455447 10528941
0.27906841 0.40572608 0.001623325 10265771
0.28230041 0.40768504 0.00080577657 10528689
0.28429061 0.41108906 0.00060775504 10660272
0.28625023 0.41312668 0.0010269843 10594478
0.28716102 0.41541079 -0.00016189367 10857394
0.2893481 0.4182789 -0.00097220019 11055030
0.29168111 0.41947949 -0.00026516989 10923441
0.29414526 0.42127389 -0.00075978413 10923442
0.29649431 0.42694092 -0.0015639029 11186615
0.29868382 0.42778832 -0.0012894161 11186612
0.30656004 0.4355149 -0.0022553243 10659500
0.18598635 0.30574191 0.016243953 7964292
0.19018073 0.31020391 0.016168516 8620410
0.19238883 0.31309357 0.015986823 9014641
0.19570421 0.31696218 0.014420204 7766914
0.19823222 0.31944981 0.013734166 7701118
0.20158359 0.32361794 0.012905184 8161413
0.20438136 0.32621524 0.013749044 9868399
0.20627519 0.32844818 0.013504669 8883580
0.20833792 0.3304953 0.013340581 9277559
0.20976473 0.33329356 0.012980316 9080180
0.21150403 0.33469787 0.01252187 8686456
0.21423373 0.33684263 0.01229744 9146228
0.21673086 0.33932194 0.011992604 9409666
0.21888939 0.34214267 0.011677358 9738648
0.22064395 0.34405753 0.0099126138 10001306
0.22936492 0.35284582 0.009677615 10197658
0.23080935 0.35433444 0.0093348175 10197658
0.23291537 0.35664272 0.008935485 10395041
0.23508815 0.35902429 0.0085233934 10658466
0.23649214 0.36056301 0.0082571432 10855845
0.23859811 0.3628712 0.0078577586 10790052
0.240771 0.36525273 0.0074457303 10855845
0.24287701 0.36756095 0.0070463456 10790053
0.24498299 0.36986911 0.0066469572 10855846
0.24547325 0.37255287 0.0038418211 9870759
0.24796265 0.37482342 0.003669627 9871015
0.2502017 0.37529749 0.0040187649 10002343
0.25198948 0.3801066 0.0033818521 9607590
0.25379306 0.38196298 0.0039027259 9607847
0.25583398 0.38307914 0.0029754229 10002346
0.25804874 0.38534939 0.003061194 10134186
0.26014656 0.38732976 0.002959203 9870758
0.26154238 0.39029592 0.0025381483 9607849
0.26414102 0.39237177 0.0022897758 10199981
0.26615688 0.39344954 0.0021910928 10396844
0.26870847 0.39951342 0.0013972484 10594479
0.27184802 0.40121323 0.0013538487 10725808
0.27387708 0.40235266 0.0012871809 10726064
0.28198606 0.41334903 -0.00045527145 10528435
0.28419361 0.41411167 -0.00018114224 10660275
0.16077264 0.28234076 0.019756343 10394523
0.16368091 0.28552818 0.019204818 9999767
0.16578685 0.28783637 0.018805429 10197143
0.16795981 0.29021785 0.018393409 10393745
0.17013267 0.29259932 0.017981324 10656372
0.17153662 0.29413819 0.017715063 10853751
0.17367606 0.29648298 0.017309349 10722414
0.17581543 0.29882783 0.01690365 10787697
0.1779884 0.30120933 0.016491566 10787695
0.18009439 0.30351755 0.016092237 10721901
0.18156517 0.30512962 0.015813284 10590062
0.18367738 0.30805957 0.015227798 9473653
0.18614523 0.30958694 0.015247595 9014139
0.18724754 0.31222254 0.014996964 8883580
0.19010952 0.31355846 0.014936347 8161418
0.1916706 0.31669718 0.014097419 9014897
0.19369587 0.31822085 0.013733577 9474157
0.19530709 0.32133943 0.013173904 9079667
0.19803238 0.32270131 0.012937147 9277300
0.19979608 0.32583663 0.012621343 8949111
0.20232227 0.32696396 0.01247656 8030084
0.21406671 0.34216553 0.0084627606 8686214
0.21552509 0.34348071 0.0079795606 8949387
0.21843776 0.3436828 0.008731734 9081229
0.22098827 0.35007495 0.0070691518 9213348
0.22391003 0.35140449 0.0068918727 8950179
0.22627002 0.3538765 0.0061491765 8949923
0.22811052 0.35621688 0.0057191961 8884388
0.22987171 0.35825494 0.0053582005 9213093
0.23187745 0.36045316 0.0049779005 9213092
0.23464955 0.36178046 0.0047884621 9410469
0.23560168 0.36597008 0.0040507354 9739430
0.23813708 0.36712781 0.0041304044 9804966
0.24040568 0.36915934 0.0040416643 9673637
0.24177556 0.37120622 0.0040344708 9739429
0.24424243 0.37296927 0.0040954165 9739430
0.24520725 0.37689364 0.0038647614 9607845
0.24756786 0.37840229 0.0029472075 9870503
0.24996372 0.37985712 0.0025628172 9936552
0.25258777 0.38189292 0.0018748008 10002089
0.25535738 0.38776523 0.0015175566 10068139
0.2581377 0.38956636 0.0013489164 9739177
0.15640353 0.28213063 0.017587066 10395032
0.16197762 0.28786841 0.015466537 7963554
0.16360128 0.28904143 0.015033077 7832225
0.16989847 0.29681879 0.013526991 8489102
0.17204788 0.2977469 0.013662171 8489098
0.17827015 0.30527344 0.011888724 8620422
0.18192725 0.30940831 0.013268258 7963521
0.18353349 0.31111637 0.011103224 8028541
0.18716812 0.31619841 0.01074015 8291459
0.18979779 0.31773305 0.010209065 8159870
0.19424671 0.32319573 0.0096347034 8159869
0.19592829 0.3242034 0.0093401633 8357249
0.19776091 0.32848924 0.0090696327 8752006
0.19956744 0.32940474 0.0089012161 8752006
0.20244014 0.33087254 0.0084769093 8620419
0.20791715 0.33755898 0.0073825642 8488833
0.21064693 0.33890733 0.0070918016 8554369
0.211098 0.34228152 0.0064927824 8751746
0.21475151 0.34406254 0.0060795136 9277835
0.21513171 0.34705809 0.0076510571 9278879
0.21783213 0.34887436 0.0068857037 9410211
0.22015697 0.3510254 0.005811926 9673125
0.22279397 0.35373801 0.0062121786 9147043
0.22426531 0.35584953 0.0064558201 8884388
0.22598723 0.35680705 0.0060846694 8950181
0.2271986 0.36120516 0.0039752461 9410214
0.22909835 0.36231738 0.0038580932 9344421
0.23178943 0.36396408 0.0042986944 9278886
0.2345016 0.3656469 0.0042694993 9542055
0.23768467 0.37294129 0.0024808422 10002087
0.23910269 0.37430662 0.0020741932 10002344
0.24126104 0.37547332 0.0020579286 10068137
0.24418631 0.37686095 0.0022364669 10068137
0.24998181 0.38511965 0.0012609549 9804971
0.25245231 0.38605615 0.0015600957 10002348
0.14756432 0.27565673 0.015982877 6450056
0.1486899 0.27813464 0.016914845 5464449
0.15248142 0.27988511 0.016659766 6385300
0.15396629 0.28238529 0.016460154 8029344
0.15591842 0.28404105 0.016080137 8292513
0.1582619 0.28613347 0.0158167 8226467
0.15990721 0.28893402 0.01543976 8029090
0.16142353 0.29170728 0.015012544 8094880
0.16403946 0.29314971 0.014665347 8357531
0.16627663 0.29474905 0.01401522 8423319
0.16757545 0.29756296 0.013991114 8423306
0.1698841 0.30023921 0.013501242 8554630
0.17202309 0.30178824 0.012832351 8554630
0.17443833 0.3038691 0.011961091 8554630
0.17572725 0.30624783 0.011998847 8554629
0.17810012 0.30854321 0.011748776 8554629
0.1802187 0.30922857 0.011895929 8489093
0.18162818 0.31366313 0.011043243 8028286
0.18448299 0.31491941 0.010878656 8225920
0.18756455 0.32035828 0.01005524 8225664
0.19013432 0.32173291 0.009466622 8159872
0.19217014 0.32411274 0.0095058642 8094077
0.19389379 0.32672289 0.0092296563 8488833
0.19607922 0.32748157 0.0093641058 8620164
0.19884433 0.33332753 0.0080417134 8620421
0.20166342 0.33478376 0.0076620691 8620420
0.20375115 0.33667716 0.0067405216 8620420
0.20639995 0.33974922 0.0065197162 8685954
0.2087812 0.34089482 0.0063733906 8751490
0.2109682 0.34665576 0.0054548979 9409683
0.2141256 0.34797454 0.0056704693 9607326
0.22201252 0.35732666 0.0046912767 9344422
0.22368467 0.35862711 0.0044613332 9410213
0.2253077 0.36033154 0.0039408281 9410213
0.13892338 0.26764509 0.017972913 6576447
0.14109625 0.27002656 0.017560828 7300685
0.14215216 0.27224499 0.015968967 6119019
0.14471863 0.27414501 0.016559135 7631480
0.14684589 0.27632833 0.016470525 8222579
0.14901875 0.27870989 0.01605843 8748922
0.15119156 0.28109139 0.015646413 9538954
0.15259561 0.28263015 0.015380152 10131091
0.15820614 0.29056859 0.011184607 8554654
0.15975338 0.29196122 0.010828424 8554655
0.16975842 0.30341893 0.009131629 9014663
0.17197959 0.30550799 0.010439213 8817286
0.17923257 0.31297752 0.011011291 8028543
0.18272868 0.31763446 0.0066719986 8554114
0.19179702 0.32800522 0.0055842064 8882818
0.19459303 0.32936567 0.005712267 9014406
0.19759406 0.33106539 0.0057267062 9211785
0.19953786 0.33277839 0.0053701364 9145732
0.19948314 0.33624887 0.0054208823 9014406
0.20231268 0.33794218 0.0052835234 8948869
0.2080076 0.34490597 0.0053640194 9080710
0.13294263 0.26576325 0.01617809 6509359
0.13434663 0.26730201 0.015911829 6444346
0.13704082 0.27030104 0.014325362 4409428
0.13903195 0.27145725 0.015338283 4869985
0.14025551 0.27322024 0.015810039 5856888
0.15030879 0.28617644 0.011197478 8883105
0.15254281 0.28706253 0.011535447 9146530
0.15444264 0.28817469 0.011418302 9080993
0.15551162 0.29129392 0.011421431 8554654
0.15762474 0.29422301 0.011098389 8685983
0.1601689 0.29600424 0.010752674 8883100
0.16297589 0.29795939 0.010431908 8948885
0.16488907 0.29942945 0.010087434 8948880
0.16705383 0.30163342 0.0093953423 9014666
0.17341337 0.31187704 0.0070914589 9080199
0.17597514 0.31383932 0.0067018904 8751491
0.17865735 0.31559026 0.0065142252 8488320
0.18086928 0.31647211 0.0067126043 8488321
0.18442298 0.31953162 0.0060629807 8554112
0.18376589 0.32346645 0.0056224726 8685441
0.18566574 0.32457876 0.0055052675 8751235
0.18840158 0.32634112 0.0052730814 8685441
0.1940451 0.33335298 0.0053604506 9014405
0.19702597 0.3356702 0.0048943646 9080196
0.1299942 0.2665948 0.013521574 5130554
0.13178612 0.26912868 0.013756018 4013879
0.1344763 0.26969936 0.01388796 4080198
0.14034393 0.27757016 0.010656517 6645884
0.14259681 0.27946311 0.011129182 7040908
0.14376456 0.28224716 0.011556316 6318477
0.14704916 0.28353345 0.011860218 7304854
0.1485962 0.28492612 0.011503972 8159902
0.15238079 0.29050973 0.011675503 8752030
0.16691589 0.3065953 0.0085565411 9014663
0.16818185 0.30846065 0.0078728311 9080455
0.17071752 0.31033015 0.0072035454 9014919
0.17825899 0.3195796 0.0061745085 8817285
0.18099 0.32148838 0.0059747137 8817285
0.13353904 0.27441555 0.010174531 4803413
0.13709116 0.27658308 0.010935675 5921905
0.13901371 0.279468 0.011455622 6843528
0.12854962 0.27300769 0.0088541172 4670521
0.13155922 0.27346459 0.010013204 4671560
0.12262496 0.26851192 0.0068400577 6181961
0.12365344 0.27120388 0.0081033595 5064250
0.12646699 0.27215287 0.0087061636 4670007
0.11862431 0.26797223 0.0068780445 5919049
0.12148186 0.27027178 0.0078285001 5393213
0.33177301 0.44484821 0.0055989474 10855278
0.33345482 0.44768265 0.0060031451 11184494
0.33549392 0.44991761 0.0056164563 11513470
0.33722442 0.45214465 0.0055293404 11381629
0.33979005 0.45475772 0.0049768426 10527631
0.32632148 0.44198385 0.0044653974 9673883
0.32875699 0.44586647 0.0042546503 9805467
0.33084929 0.4464283 0.0043380298 10068384
0.3311919 0.44968772 0.004475493 10134177
0.33392248 0.45150849 0.0041587614 9739675
0.33602819 0.45384374 0.0043078177 10266274
0.33847976 0.45584327 0.0035526156 10265762
0.30630356 0.42160636 0.0074999444 11776947
0.30764067 0.42307183 0.0072463863 11711154
0.30974668 0.42538005 0.0068469979 11448738
0.31114537 0.42848554 0.0057482421 10857119
0.31325671 0.42922708 0.006181363 10987142
0.31453055 0.43242452 0.0049564354 10461323
0.31630903 0.43356356 0.0063256882 11841397
0.3191818 0.43691021 0.0054813363 11644286
0.320806 0.43949148 0.0051453374 11315329
0.32321927 0.44129431 0.0047598779 10855550
0.3251591 0.44405833 0.004540626 10593147
0.3267985 0.4452534 0.004318893 10790782
0.32860342 0.44778153 0.0042589977 10921851
0.33196828 0.45340633 0.0016667135 10462361
0.33382767 0.45456865 0.0016260408 11054500
0.33591479 0.45554277 0.0016981848 11054504
0.33739829 0.45987087 0.0018035956 10396828
0.29302922 0.4124777 0.0062071122 10069684
0.29687995 0.41713578 0.0053209476 10201267
0.29807967 0.41992697 0.0056949183 10135476
0.30101705 0.42104432 0.0052945726 10660787
0.30229446 0.42363527 0.0057098456 11383220
0.30454549 0.42560834 0.0057808459 11120564
0.30572134 0.42812151 0.0055401064 10858165
0.3081767 0.42924309 0.0055141188 11120564
0.30983862 0.43219486 0.005112309 10856875
0.31235954 0.43394217 0.0046458431 10593678
0.31381118 0.4369981 0.0039341412 10134446
0.31693003 0.43763104 0.0039250441 10463144
0.31772348 0.44039461 0.0043639131 10463143
0.32227418 0.44490412 0.0039446391 9871261
0.32516021 0.44753903 0.00047643855 10199443
0.32739753 0.45232269 0.00048559159 10659741
0.32944414 0.453347 0.00063427165 10265241
0.33695722 0.46120977 -0.0018539168 10265243
0.33760762 0.46411967 -0.0013250634 10528156
0.33960128 0.46489716 -0.0013040788 10856866
0.27228147 0.3940748 0.0081294999 10134447
0.27414674 0.396359 0.0082939714 10462894
0.27610376 0.39795679 0.0078671649 10266031
0.27883404 0.39977807 0.0074193329 10528686
0.28029522 0.40264282 0.0070338137 10199722
0.28253534 0.40387204 0.0068237297 9280688
0.2835862 0.40728408 0.0064512156 9740720
0.28637263 0.40817213 0.0061648823 9609136
0.28798753 0.41122949 0.006322436 9477810
0.28979465 0.41353324 0.0058987699 9675186
0.29179344 0.41581833 0.0055886358 9938099
0.29382592 0.41817054 0.0050563328 10069684
0.2964614 0.41982305 0.0048431568 10857394
0.29803574 0.42272732 0.0042954646 10923444
0.29940867 0.42419612 0.0050386935 10989235
0.31799409 0.44442612 -9.2994422e-05 11185569
0.3208614 0.44627538 -0.00031261146 10462362
0.3218995 0.44850174 -0.00011154637 10265238
0.32407489 0.45114627 0.00022026896 10593944
0.32878944 0.45546588 -0.0027975254 10527902
0.33044928 0.45906129 -0.00205395 10725535
0.33217132 0.46001884 -0.0024250932 11185834
0.33433038 0.46065426 -0.002354309 10922661
0.33535463 0.4638193 -0.0015338622 10462365
0.25458777 0.37779951 0.0092696287 10658466
0.25605857 0.37941161 0.0089907311 10658466
0.25816453 0.38171971 0.0085913502 10527137
0.26027057 0.38402799 0.0081919543 10066331
0.26243848 0.38657674 0.0075370558 9738657
0.26448247 0.38864437 0.0073932447 10987178
0.26651165 0.39068905 0.0073000155 9871535
0.26820904 0.39362824 0.0069468692 10331309
0.26974115 0.39539894 0.007119108 11184811
0.27121541 0.39792308 0.0076604001 10791087
0.27389398 0.40115061 0.0070485808 10594479
0.27590972 0.40227488 0.0064293407 10988463
0.27780762 0.40523118 0.0063124448 11119018
0.27989185 0.40667719 0.0063354336 10462894
0.28174192 0.40855202 0.0048433356 10987431
0.28405586 0.41085291 0.0049722455 10396584
0.28598741 0.41320512 0.0040382482 11184810
0.28812686 0.41555005 0.003632538 11776947
0.29024285 0.41784567 0.0032139756 11513775
0.29235896 0.42014134 0.0027954914 11513775
0.29376298 0.42168015 0.00252923 11579568
0.29542452 0.42453939 0.0029716529 11711155
0.30486724 0.43408543 -0.00051438808 11318203
0.30645928 0.4355472 -0.0010228716 10988982
0.30882257 0.43646055 -0.00063454732 10331050
0.31095868 0.43703064 -0.00027197972 10330522
0.31272763 0.44254893 -0.0020364039 11053984
0.31507745 0.44298074 -0.00016381964 11448484
0.3190659 0.44876295 -0.001713261 10462363
0.32229549 0.45314401 -0.0031378977 10396569
0.32554477 0.45436463 -0.0030056201 10856609
0.32627437 0.45764461 -0.0022851415 10264728
0.32794714 0.4584136 -0.002428174 10133397
0.23287158 0.35777566 0.010914598 8294319
0.2379673 0.36263973 0.0098976232 8754606
0.24023378 0.36601365 0.0097999908 8885934
0.24307153 0.36596486 0.010284808 8885934
0.24461424 0.37060854 0.0085814334 8951726
0.24965841 0.37522444 0.007830482 8688559
0.250386 0.37797582 0.0078504868 8556976
0.25207275 0.37857136 0.0075670592 8622768
0.25462937 0.38171095 0.0076453537 8820144
0.25726381 0.38280293 0.0073412284 9017264
0.25753149 0.38581151 0.0072114505 8622768
0.26060808 0.38676164 0.006841626 8491185
0.2617611 0.39001641 0.00688738 8623024
0.26533216 0.39342955 0.0071915351 9477808
0.28186083 0.41166356 0.00097416714 10199724
0.28918436 0.4194811 -0.00040852278 10791855
0.29481056 0.42587358 -0.0012313277 11054771
0.29658759 0.42713755 -0.0015126951 11054768
0.29853022 0.43144375 -0.0010850839 11252409
0.30022874 0.43215996 -0.0013978072 11186612
0.30303538 0.43313801 -0.0010572933 11252150
0.30492544 0.4361665 -0.0011929311 11186102
0.30617556 0.43887389 -0.0016957037 10791345
0.3085821 0.4401913 -0.0016361736 10330788
0.31072509 0.44153279 -0.0019057505 10593951
0.31261942 0.44583526 -0.0029385388 11251110
0.31539389 0.44636399 -0.0026038885 11185572
0.31689262 0.44762909 -0.0031635873 11053987
0.3183189 0.4515911 -0.0031099953 10330521
0.21202606 0.33823407 0.012050133 8030343
0.21367027 0.34094304 0.012320682 8359577
0.21609518 0.34346527 0.01221082 8425638
0.21897307 0.34502083 0.01218906 8425645
0.22014645 0.34737599 0.012006994 8162477
0.22351335 0.34929317 0.011527617 8162478
0.22317912 0.3525005 0.010949794 8425646
0.2268534 0.35372496 0.010585409 8491438
0.22816044 0.3568356 0.010610782 8294318
0.23016381 0.35732022 0.010567255 8425646
0.23145358 0.36143485 0.0095993839 8623022
0.23489992 0.36195886 0.0098999701 8623022
0.23685214 0.36550325 0.0095247366 8754606
0.23763739 0.3689476 0.0091214404 8820398
0.24153955 0.36903927 0.0089329779 9871018
0.2429052 0.37192875 0.0083828308 9805224
0.24475132 0.37341419 0.0080365241 9410986
0.24752431 0.37487042 0.0076759346 9936037
0.24845943 0.37759852 0.0073417351 9542056
0.25043106 0.37999535 0.0071399845 9542055
0.25258425 0.3823393 0.0075915344 9673641
0.25423679 0.38505313 0.0071444958 9673642
0.25671723 0.38678887 0.0073830076 10329501
0.25853762 0.38945055 0.0067319088 9410470
0.2609961 0.39147854 0.0065716021 10921383
0.26383752 0.39459279 0.006032709 11316397
0.26597697 0.39693767 0.0056270026 11250603
0.26630405 0.39760736 0.0033359043 10199977
0.26818079 0.40172863 0.0023469143 10331562
0.27046913 0.40239111 0.0024680682 10397098
0.273422 0.40399384 0.0020630248 10462890
0.27696377 0.40940365 0.0010006577 10002858
0.27932566 0.41071337 0.0006497018 10068397
0.27990046 0.41343498 8.5901469e-05 10265517
0.28271419 0.41603789 0.00038997456 10133930
0.28546411 0.41762689 1.7445534e-05 10462894
0.28717998 0.42008993 -0.00075461343 10923187
0.28842232 0.42292172 -0.00084210932 10923185
0.29094827 0.42396086 -0.0011036322 10988978
0.29269686 0.42621234 -0.0013496391 11054772
0.29468188 0.42965373 -0.0013569407 11120564
0.29681614 0.43046051 -0.0012157299 11120820
0.30064878 0.43656105 -0.0021411851 11317683
0.30271369 0.43753105 -0.0022086613 11317685
0.30825716 0.44455656 -0.0033591427 10922411
0.31057194 0.44534248 -0.0031742714 11185320
0.16493843 0.28888869 0.020412482 10393742
0.16711128 0.29127005 0.020000458 10590336
0.16928411 0.29365155 0.019588377 10590317
0.17068821 0.29519042 0.019322112 10853489
0.17282756 0.2975353 0.018916409 10854002
0.17924581 0.30456978 0.01769929 10458729
0.18071671 0.30618191 0.017420337 10392934
0.18285607 0.30852669 0.01701463 10458727
0.1849955 0.31087151 0.016608927 10590314
0.18787035 0.31402239 0.016063713 10459240
0.1892744 0.31556118 0.015797455 10458982
0.18932462 0.31699592 0.014100645 7964036
0.19286296 0.32129166 0.013417583 7635587
0.19666499 0.3252297 0.012846392 8029828
0.2011735 0.32895955 0.013220295 9671279
0.20321034 0.33102593 0.013029788 8751735
0.20548058 0.33306319 0.012851045 8620149
0.20652494 0.33557293 0.012619365 9014384
0.2093837 0.33787787 0.012423601 8621188
0.21126026 0.33992115 0.011978593 9803657
0.21260612 0.34372792 0.012156773 8557226
0.21385455 0.3434926 0.011859268 10592152
0.21685244 0.34670991 0.011557709 9869469
0.21886888 0.34898835 0.010908347 10329244
0.22092709 0.35130912 0.010723833 9935520
0.22314775 0.35367805 0.01009693 10329502
0.22490707 0.35565913 0.010316726 9344679
0.22707756 0.35765505 0.0091105513 10526880
0.2291649 0.36024192 0.0093028955 9936037
0.23097 0.36225134 0.0086135641 10592673
0.23320894 0.36474377 0.0085339509 10133416
0.23451337 0.366135 0.0079415925 10790052
0.23670644 0.36849147 0.0074912347 10855846
0.23836802 0.37135082 0.0079336502 10921641
0.24054086 0.37373224 0.0075216331 10724259
0.24252313 0.37575525 0.0056103952 10133156
0.24453449 0.37765154 0.0070640184 9542056
0.24621974 0.38020939 0.0056257062 10067105
0.24909012 0.38202313 0.0046904944 9804452
0.24980053 0.38388103 0.0057656206 10658467
0.25228626 0.38707525 0.0034186132 9673384
0.25555825 0.38836098 0.0032589883 9607590
0.25671354 0.39114448 0.0032225214 9147555
0.25836059 0.39344358 0.0028480142 9147557
0.26095656 0.39497286 0.0019106679 10068141
0.2637426 0.39665741 0.0016906559 10397101
0.26551101 0.39797914 0.00130165 10594222
0.26604891 0.40068534 0.002427157 10265770
0.26796156 0.40446451 0.0004399009 10660015
0.27070656 0.40637264 0.0010972284 10660014
0.27289003 0.4078306 0.00092510879 10528940
0.27443802 0.41077173 -0.00033564493 10397358
0.27688688 0.4141233 4.1387975e-06 10594222
0.27799737 0.41557246 -0.00075024366 10462896
0.28079617 0.41702318 -0.00087587908 10462898
0.28336191 0.41907427 -0.0011254922 10791861
0.28503439 0.42117038 -0.0010922439 10791858
0.28885365 0.4263204 -0.0012716912 10857653
0.29052582 0.42762083 -0.0015016384 10923703
0.29249188 0.42933786 -0.0017184727 10923441
0.15765406 0.28557777 0.018864959 9868948
0.16049118 0.28934807 0.018808994 10065031
0.16181976 0.29212573 0.019521158 10656384
0.1632906 0.29373789 0.019242261 10721901
0.17269692 0.3020649 0.016012263 10656623
0.17416769 0.30367702 0.015733365 10656623
0.17588288 0.306548 0.016131248 10458476
0.17841367 0.30926141 0.015712604 8620408
0.18032031 0.31144732 0.015592933 9211765
0.18222675 0.31341738 0.015342291 8752256
0.18445338 0.31514674 0.01479755 9343095
0.18611936 0.31753206 0.014757764 9671283
0.1883454 0.31962317 0.01360568 8686201
0.19086418 0.32132131 0.01303969 9277034
0.19192833 0.32416531 0.012741234 8686199
0.19419666 0.32622606 0.012687605 8489081
0.19693619 0.32825667 0.012053091 9079665
0.19847634 0.33169556 0.012444068 7832449
0.20066702 0.33204201 0.012589697 7832448
0.20268299 0.33553895 0.012671307 7701376
0.2034049 0.3377035 0.011635091 10328418
0.20557757 0.34008503 0.011223059 10657397
0.20775044 0.34246653 0.010810979 10789254
0.20915452 0.34400535 0.010544721 10723485
0.21275894 0.34643751 0.0073272511 9212829
0.21637058 0.35115826 0.0075152814 9015716
0.22059932 0.3537716 0.006664779 8950180
0.22346188 0.35968643 0.0078315251 10526880
0.22859138 0.36291462 0.0046367757 8950179
0.23254262 0.36788583 0.0045133308 9673382
0.23582305 0.36908352 0.0046771951 9673637
0.23662309 0.37288421 0.0044403709 9673638
0.23946206 0.37428486 0.0042381734 9673894
0.24017258 0.3785398 0.0037874542 9673638
0.24220662 0.37926719 0.0037318245 9476261
0.24420048 0.38004452 0.0037528127 9344677
0.24645533 0.38347894 0.0027600229 9541800
0.2488924 0.38511747 0.0028650351 9476008
0.2519598 0.39038044 0.0010821633 10067883
0.25482938 0.39199314 0.0010840371 9607591
0.25778329 0.39356396 0.0012883879 9607851
0.26018021 0.39974168 0.0007305108 10462894
0.26302108 0.40146762 0.00044697896 10528686
0.26521474 0.40240377 0.00086156651 10594223
0.15795738 0.28978804 0.015615169 7897763
0.18458094 0.31847736 0.011845741 8357765
0.18867376 0.32329518 0.013160583 8227206
0.19017807 0.32498795 0.0095798187 8028286
0.20457271 0.34032786 0.008116018 8423038
0.20645653 0.34320796 0.0078783147 8752266
0.20981941 0.34433457 0.0080669485 8883857
0.21067542 0.34744132 0.0072686486 9212829
0.21363188 0.34957132 0.0079576187 9147301
0.21696103 0.35428095 0.0059347935 9081508
0.21864229 0.35603809 0.0052364804 9213093
0.22072737 0.35843548 0.0059000738 9147300
0.22354664 0.35989165 0.0055205002 9213093
0.22529764 0.36270663 0.0047325753 9213348
0.22639601 0.36569571 0.0044008233 9344675
0.22897923 0.36685613 0.0039594583 9344676
0.23095652 0.36924559 0.0034825392 9739176
0.2336154 0.37134311 0.0038614236 9739430
0.23514299 0.37181216 0.0022701621 9936551
0.23609549 0.37650111 0.0020550229 10002344
0.2387581 0.37791836 0.0029902831 9870759
0.24142875 0.38032228 0.0013890378 9804711
0.24420233 0.38194439 0.0013339333 9673385
0.24387081 0.38600707 0.00098156556 9673387
0.24664655 0.38768888 0.00088861212 9739178
0.24990883 0.38923687 0.0010093562 10068140
0.13803439 0.26874748 0.019656572 7103573
0.14020731 0.27112901 0.019244488 7695711
0.14161125 0.27266788 0.018978287 7827561
0.14337531 0.27610138 0.017955467 7040377
0.14527901 0.27778089 0.01765402 7106947
0.14744902 0.28015563 0.017517116 8750997
0.15004298 0.28231728 0.016937729 9080735
0.15033174 0.28495631 0.016886923 9080736
0.15347925 0.28651085 0.016703155 8817823
0.15623085 0.28871125 0.016061995 7832227
0.15602046 0.2920312 0.015998539 7831962
0.1586054 0.29349655 0.015619759 8094614
0.16115496 0.29519248 0.014810152 8291730
0.16305032 0.29786026 0.014194872 8357514
0.16360256 0.3010883 0.013679501 8488837
0.16622786 0.30250368 0.013224166 8489092
0.16992389 0.3042942 0.012696564 8489092
0.16983834 0.30781829 0.012500051 8488836
0.17253253 0.30907032 0.012253452 8423300
0.1744262 0.31092289 0.011256345 8225664
0.177551 0.31196991 0.011305939 8160127
0.17802529 0.31590867 0.010937367 8357250
0.18112323 0.31709802 0.010879561 8620420
0.18197897 0.32097006 0.0105603 8423299
0.1847181 0.3222914 0.010161329 8291712
0.18739675 0.32368767 0.0098773278 8159872
0.18779527 0.32790712 0.0091544501 8357250
0.19019315 0.32924491 0.0086298846 8291456
0.19268882 0.33089879 0.0080806501 8356992
0.19530845 0.33312798 0.0079606436 8423042
0.19676478 0.33577797 0.0080834366 8554628
0.19971332 0.33726132 0.0077542104 8488833
0.20118509 0.33999598 0.0072634406 8291452
0.20470329 0.34367514 0.0048826821 8883330
0.20856535 0.34832188 0.0071461312 9344419
0.21019512 0.35092139 0.0047364719 9541538
0.21323879 0.35233429 0.0048956238 9344420
0.21871983 0.36105987 0.0033831559 9607590
0.22039191 0.36236033 0.0031531528 9541797
0.22339728 0.36417928 0.0030916519 9541541
0.22630504 0.36568233 0.0030548312 9278628
0.22915229 0.37248811 0.002192758 9870759
0.23094487 0.37357715 0.0021647327 9936552
0.23310766 0.37486315 0.0020726062 10002088
0.24197099 0.38489479 0.0010987781 9541801
0.13205373 0.26686561 0.01786169 6444343
0.13345766 0.26840433 0.017595436 6248264
0.13723931 0.27399096 0.016979624 5988987
0.13897888 0.27483329 0.016823899 6383495
0.14108434 0.27575323 0.016679879 6449544
0.16040021 0.2988115 0.014394183 8423302
0.16715722 0.30633169 0.013037883 8489092
0.17361152 0.31378931 0.011301354 7962749
0.1754804 0.31465894 0.011196095 8159872
0.18607324 0.32694954 0.0095255971 8554372
0.19078289 0.33210126 0.0049803592 8948613
0.19246073 0.33433399 0.0078018233 8422787
0.19661871 0.33942106 0.0047062598 8883074
0.19960412 0.34099939 0.0047264136 8685695
0.20263463 0.34264687 0.004594449 8817281
0.20199001 0.34687874 0.0043580011 9277838
0.20503582 0.34835136 0.0044792406 9409944
0.20810801 0.3499473 0.0046643354 9607330
0.21280661 0.35773796 0.0034815967 9278629
0.21454126 0.35899237 0.003314767 9410215
0.21663275 0.36008576 0.0033110827 9476262
0.12681535 0.26570296 0.015857179 6573343
0.1282194 0.26724178 0.015590925 6049585
0.13030881 0.27022576 0.015067134 4343627
0.13344243 0.27218813 0.015458543 4738907
0.13457632 0.27360472 0.016479839 5397097
0.14657497 0.28721112 0.011684749 9343906
0.14947788 0.28886038 0.011680134 9212320
0.15264896 0.29490668 0.01129042 8488604
0.1547918 0.29710653 0.010458671 8751514
0.15683845 0.29813078 0.010607351 8817302
0.15963665 0.29984719 0.010438208 8883087
0.16222498 0.30222905 0.0098532028 9014664
0.16402183 0.3034375 0.0097494274 9014663
0.16539073 0.30520678 0.0090523288 9014663
0.17630109 0.31863275 0.0061528422 8619905
0.18133396 0.32619724 0.0054252297 8685441
0.18318895 0.32724014 0.0054603852 8619907
0.18595594 0.32897973 0.0052596517 8553856
0.18886118 0.33098495 0.0049579777 8883077
0.1887036 0.33455163 0.0050222017 8751233
0.19123183 0.33647725 0.0046390034 8948613
0.19409898 0.33888859 0.0041165613 8948610
0.19921449 0.34493124 0.004494451 8883333
0.1248191 0.2667059 0.013493195 4473660
0.12688804 0.26823363 0.014303952 4145214
0.13465203 0.27706534 0.01164056 6316920
0.13775906 0.28108528 0.01260902 6383492
0.13917691 0.2824505 0.01220236 6186115
0.14179888 0.28430715 0.011913802 7370904
0.14444743 0.28628704 0.011689115 9014944
0.1443882 0.28963828 0.011815727 8949407
0.14676042 0.29167908 0.011274643 8620703
0.14981954 0.29321325 0.011427902 8488607
0.15769705 0.303747 0.0097354613 8948870
0.15925315 0.30537823 0.0092277117 8948870
0.16092521 0.30667874 0.0089976974 8948871
0.16332215 0.30881369 0.0083426572 9014406
0.1657235 0.31106803 0.0076117925 9014662
0.1672083 0.31250659 0.0071925037 8948614
0.16979912 0.31468242 0.0066130757 8685697
0.17221583 0.31676191 0.0061355419 8554111
0.1732122 0.31984612 0.0060794689 8817027
0.175791 0.32247967 0.0059781186 9080200
0.17765039 0.32364205 0.0059373938 8948615
0.17933139 0.32518113 0.0055558756 8751492
0.18532312 0.33327469 0.0046616308 8685697
0.12167339 0.26603761 0.013550486 5260848
0.12334185 0.26869184 0.014026348 3882042
0.13008133 0.27538937 0.010978054 5132637
0.13138494 0.27728727 0.01146907 6119535
0.13338187 0.28001201 0.011719313 6514567
0.12535045 0.27403596 0.009758424 4802893
0.1280987 0.27597168 0.01098736 5395553
0.11931282 0.27258366 0.0081749596 4275764
0.12201019 0.27327088 0.0090185218 4473664
0.11170712 0.26654893 0.0065424033 5722444
0.11430243 0.26739344 0.0069678277 5919559
0.1145195 0.27068377 0.0074107647 4867124
0.11636054 0.27249277 0.0070676394 4669230
0.1092297 0.26718229 0.0068669803 5656393
0.11249038 0.26954427 0.0074775629 5327678
0.33288404 0.45003045 0.0082806572 11380840
0.33422118 0.45149592 0.0080270953 11315070
0.33632717 0.45380419 0.007627707 11381117
0.33843318 0.45611241 0.0072283819 11315578
0.33638471 0.45692965 0.0043050051 10266022
0.33841687 0.45972022 0.0047268011 10265765
0.32412875 0.44510755 0.0070120208 11512174
0.32553267 0.44664624 0.0067457743 11577967
0.32748765 0.44887581 0.0057518445 10790015
0.32949105 0.45195067 0.0050359406 10592898
0.33070531 0.45412982 0.0043155365 9805469
0.33335751 0.45616806 0.0044465959 10002846
0.33397949 0.45922184 0.0044743754 10265764
0.33799034 0.46240279 0.0049666055 10397349
0.31323394 0.43783972 0.0061490983 11578508
0.31526589 0.44025445 0.0047914945 10856341
0.31747943 0.44249281 0.0053440072 11248232
0.319217 0.44435161 0.0043473467 10264718
0.32071221 0.44690156 0.0044908561 10724232
0.32319495 0.44928935 0.00417291 10068382
0.32489148 0.45171499 0.0042644851 10068382
0.32706442 0.45217678 0.0041946881 10068639
0.32802776 0.45491743 0.0046075545 10002848
0.33141342 0.45836911 0.00060710683 10922914
0.3335762 0.45906261 0.0010336526 10922919
0.33884546 0.46697378 7.9236925e-06 10988454
0.29995739 0.42699733 0.0051929243 10332852
0.30189857 0.42773134 0.0058680102 11054772
0.30335197 0.43081632 0.0053341202 10988979
0.30592749 0.43230894 0.0050633475 10988723
0.30747515 0.43497065 0.0046820678 10463152
0.30942595 0.4372161 0.0043508597 10528424
0.31067875 0.43984684 0.0034858473 10068918
0.31317952 0.44155744 0.0036861561 10134450
0.31576911 0.44334552 0.0040133037 10002857
0.31831113 0.44719011 0.004144948 9674142
0.32517934 0.45563126 2.2921711e-05 10528156
0.32705635 0.45667836 0.00019767508 10264982
0.32914352 0.45765239 0.00026981905 10397077
0.33297491 0.46375436 -0.0010491721 10725538
0.33587351 0.46622652 -0.00039681792 10857123
0.33647695 0.47001573 -0.00081704929 10791076
0.33878273 0.47056293 -0.00048055127 10659746
0.26947618 0.39613399 0.0083927102 9543601
0.27730629 0.40574303 0.0066272952 9872304
0.28228119 0.41049176 0.0058833994 9806769
0.28534198 0.41456735 0.00535357 9412017
0.28975657 0.41857454 0.0052566752 9806515
0.29095662 0.42195812 0.0051122308 10528432
0.29359522 0.42314905 0.0048762038 10463155
0.29478452 0.42592129 0.004560072 11120306
0.29694563 0.42754227 0.0042915009 10923443
0.29871184 0.42992315 0.0044926442 10792116
0.30327448 0.43434542 0.0044199564 10135221
0.30667648 0.43840429 0.0040158592 10003638
0.31109339 0.44276735 0.0036218464 10003639
0.31481284 0.44711673 -0.00052888319 10462359
0.31679267 0.44806775 -0.00036757067 10527897
0.32084441 0.45394462 -0.00024678931 10594201
0.32366186 0.45566794 -0.0010636412 10659485
0.32660151 0.46125162 -0.0014033578 10462101
0.32959527 0.46262479 -0.0013425834 10856865
0.33135268 0.46568486 -0.0016015172 10922404
0.33342218 0.46677405 -0.001744736 10791073
0.26314163 0.39308298 0.0070458613 9346225
0.26530266 0.39587027 0.0077338628 9477808
0.26740056 0.39923513 0.0082717612 9543602
0.2695649 0.40034693 0.0075758323 9674927
0.27180052 0.40165162 0.0067913048 9740720
0.27323511 0.40476015 0.0066894181 9872304
0.27697176 0.4095124 0.0057467557 9938097
0.27923372 0.41140926 0.0057644621 10003889
0.28142458 0.41340977 0.0056112893 9609391
0.28246838 0.41690844 0.0053089447 9872305
0.28547803 0.41775471 0.0051678009 9740978
0.28878132 0.42173293 0.0049605854 9674931
0.29307783 0.42630744 0.0043645315 10004150
0.3027027 0.43710926 -0.00076230988 11515581
0.30871245 0.44452542 -0.0011383556 10988721
0.31194997 0.44568306 -0.00064430758 10856867
0.31320134 0.4494876 -5.7261437e-05 10199446
0.31499034 0.45064184 -0.001697842 10462362
0.3178567 0.45260295 -0.00048843399 10725532
0.31989205 0.45546523 -0.0027905814 10593435
0.32109985 0.45766866 -0.0026155747 10593436
0.32298368 0.46025246 -0.002593942 10527643
0.32892632 0.46534896 -0.0021400042 10922660
0.25189927 0.38509092 0.0064735711 8622769
0.25512674 0.38872665 0.0066464283 8622768
