# .PCD v0.7 - Point Cloud Data file format
VERSION 0.7
FIELDS x y z rgba
SIZE 4 4 4 4
TYPE F F F U
COUNT 1 1 1 1
WIDTH 1116
HEIGHT 1
VIEWPOINT 0 0 0 1 0 0 0
POINTS 1116
DATA ascii
0.29418603 0.42835215 8.9851208e-05 10459268
0.296354 0.42979318 0.00062212092 10525312
0.30083865 0.43437243 0.00052655954 11249033
0.30304757 0.43662459 0.00047967513 11380622
0.14077362 0.25551686 0.0028404971 9537908
0.14971742 0.2634939 0.0023991382 8088919
0.15117715 0.26643327 0.0026647495 9668720
0.15292445 0.26923648 0.00385118 9998194
0.15430701 0.2708163 0.0038053798 9670011
0.18821585 0.30964467 0.0024959208 9669741
0.18864067 0.31312877 0.00099714845 9670262
0.19249545 0.31389481 0.0016711396 9604465
0.19470873 0.31620875 0.0015907073 9735539
0.19695324 0.31822011 0.0011789678 9933175
0.19890884 0.32113582 0.00032097567 9867379
0.20112954 0.32212541 0.00062175305 10064755
0.2032038 0.32449514 0.00055304472 9472896
0.21085772 0.33313918 0.00022531464 9999215
0.21293187 0.33550888 0.00015656371 9801590
0.21500622 0.3378785 8.786493e-05 9801599
0.22345929 0.34955266 1.6559847e-05 9802111
0.23080404 0.3566179 8.4034866e-05 9736305
0.23247994 0.35887888 0.00028815307 9670512
0.23452145 0.36121082 0.0002204706 9407090
0.23662856 0.36361808 0.00015071104 9406584
0.23952416 0.36808032 0.00076681725 9670248
0.24164647 0.37040582 0.00062235305 9736548
0.1379354 0.25475645 0.00095983827 8746834
0.14739253 0.26534531 0.00063938228 8352858
0.17307185 0.26443255 0.020065077 9474181
0.17437382 0.26743653 0.020852458 9474183
0.17638995 0.26898119 0.020370383 9408644
0.17818406 0.27071646 0.019768689 9342596
0.16196372 0.25509691 0.01834546 9539716
0.16565043 0.25900584 0.019939192 9408388
0.16747603 0.26061624 0.019803856 9276801
0.16949284 0.26271489 0.020120356 9342592
0.17071147 0.26585463 0.020776276 9474179
0.17202295 0.26695663 0.020435959 9473926
0.17932938 0.27208921 0.019165386 9342596
0.17857517 0.27541068 0.019257966 9211008
0.18057701 0.27729219 0.018504415 9408387
0.18297678 0.27870741 0.018274691 9473925
0.18440205 0.2798405 0.017856359 9473925
0.32683596 0.44346997 0.012601056 11709892
0.15912384 0.25539359 0.018485848 9473921
0.16131566 0.25728148 0.019102044 9408389
0.17526855 0.2736598 0.019505441 9276802
0.17668611 0.27466866 0.019154686 9276802
0.1819036 0.28334191 0.017333891 9408389
0.18475616 0.28547928 0.016705818 9342596
0.18724197 0.2868855 0.016469643 9342341
0.18871729 0.28784549 0.016183946 9342596
0.19270252 0.29417554 0.015543432 9342337
0.28346208 0.3958464 0.013179627 10000044
0.29283789 0.40756053 0.012547608 10657716
0.2945182 0.41140723 0.01255573 10065836
0.29738301 0.41326159 0.011704541 10262959
0.30139646 0.41746867 0.012055654 10591408
0.30501401 0.42201316 0.012091302 10854580
0.30723423 0.42538956 0.012187433 10788784
0.30895936 0.42612419 0.011663769 10986163
0.31232128 0.43049192 0.011640801 11446463
0.31611058 0.43501851 0.011663732 11578559
0.31815356 0.43562335 0.011680561 11578302
0.32062584 0.43879524 0.012319519 11578561
0.32254499 0.43937361 0.012273422 11709636
0.32371548 0.44280237 0.012268499 11709637
0.32749075 0.44831553 0.011509267 11841476
0.3298637 0.4485077 0.011843841 11972807
0.33313885 0.45359847 0.011212597 11052218
0.15443888 0.253764 0.015678976 8815479
0.15612459 0.25497645 0.016698919 9473403
0.18658386 0.29116252 0.015735943 9276543
0.19018783 0.2927936 0.015747011 9276544
0.19051689 0.2967501 0.015429144 9342591
0.19132639 0.29828277 0.014784106 9342340
0.27252623 0.38809139 0.011571007 9999280
0.27819297 0.39270502 0.011676227 10131366
0.27812034 0.39570245 0.011993391 9999529
0.28067523 0.39587194 0.012456128 10065322
0.28466958 0.40099326 0.011668476 10394796
0.28615147 0.40355989 0.011967537 10723246
0.28812045 0.40562794 0.012073713 10657713
0.29037893 0.4074519 0.012505668 10657716
0.29109871 0.41099909 0.012146547 10197679
0.29570392 0.41261154 0.011944163 10131629
0.29483452 0.41524211 0.012234778 10262956
0.29802722 0.41688743 0.011778981 10525617
0.30149451 0.4215565 0.011581242 10920630
0.30389279 0.42492315 0.012125422 10460078
0.30736122 0.42937815 0.011459364 11183286
0.31000641 0.4302507 0.01137156 11315130
0.31076801 0.43396974 0.011334185 11512257
0.31391156 0.43467969 0.011524767 11578304
0.31588769 0.43853486 0.011583158 11578303
0.31757504 0.43930867 0.011276372 11512512
0.32017103 0.44250679 0.011978208 11709635
0.32370239 0.44698557 0.011734124 11709891
0.32551342 0.44778591 0.011490245 11709891
0.32748964 0.45164093 0.011548646 11907786
0.33002958 0.45286164 0.01112512 11512769
0.33036909 0.45706889 0.010601946 8747910
0.33299485 0.45828062 0.010172087 7892346
0.33631203 0.46020749 0.0094330786 7167593
0.33993432 0.46506903 0.0090889214 7429190
0.34323618 0.46929488 0.0092427116 7496006
0.34485766 0.46999383 0.0089380722 7561544
0.34674558 0.47406152 0.0090806009 7363907
0.34854668 0.47486642 0.0086957235 7363906
0.15263905 0.25252044 0.014737121 8289651
0.16140068 0.26499504 0.012613447 9604484
0.16277252 0.26686797 0.013181004 9538947
0.16655864 0.2716625 0.013177509 9670532
0.17017388 0.273949 0.013209474 9539203
0.17189839 0.27666566 0.012255022 9539202
0.19223192 0.29972696 0.013987399 9342341
0.1945488 0.30127743 0.013626111 9408130
0.19657566 0.30307266 0.012938955 9473668
0.19739768 0.30599526 0.012480872 9539461
0.20307367 0.31195697 0.011211758 9671304
0.20675033 0.31711265 0.011192405 9605254
0.27567953 0.39556354 0.011452886 9933993
0.27991855 0.40068591 0.011215248 10262701
0.28343627 0.40406311 0.011538565 10723504
0.29809886 0.42112613 0.011133988 11051702
0.33572614 0.46409869 0.0090360837 7297610
0.33979601 0.46864092 0.0088978056 7495749
0.34367713 0.47309184 0.0090889921 7429701
0.14661631 0.25193214 0.012059636 9079168
0.14891091 0.25295115 0.013313594 8553082
0.1546517 0.25955257 0.010855214 9801600
0.15624405 0.26376128 0.011519968 9670274
0.15855472 0.2644096 0.011944897 9538690
0.16026096 0.26656115 0.013881019 9538946
0.16284473 0.26959366 0.013088842 9538946
0.16464372 0.27067703 0.013068008 9604738
0.16749972 0.27334559 0.012528158 9604996
0.16943705 0.27817857 0.013047186 9473410
0.17167962 0.28012276 0.011793932 9538946
0.17358682 0.28359812 0.011194491 9539203
0.17605393 0.28574857 0.010842481 9604739
0.17692935 0.28735635 0.010195182 9604739
0.18206969 0.29121837 0.0097456556 9473408
0.19525167 0.30687818 0.01252049 9539718
0.19805413 0.30918846 0.011759846 9671302
0.20033677 0.31076583 0.011295441 9671302
0.20135148 0.31414089 0.011618934 9605510
0.20333923 0.31603974 0.01104435 9605253
0.2071059 0.31903139 0.010166831 9605255
0.20853105 0.3201645 0.0097485911 9604997
0.20945781 0.32479587 0.0094816005 9671047
0.21089311 0.32592425 0.0092043206 9671046
0.21267158 0.32701713 0.0089015178 9736838
0.22283435 0.33925235 0.0087274266 9802374
0.22460747 0.34009209 0.0087004676 9802373
0.229358 0.34629238 0.0083558643 9736580
0.23591346 0.35382885 0.0077148033 9539455
0.24058186 0.35905617 0.008017703 9736578
0.24502076 0.36435029 0.0082680276 9671042
0.24760477 0.36626381 0.007864316 9736575
0.24822131 0.36913598 0.0086249961 9473407
0.25046408 0.37088165 0.0081689898 9276029
0.25218719 0.37189472 0.0080094347 9341820
0.27501526 0.3982853 0.0073344074 10065287
0.27730623 0.39894289 0.0074773347 10065285
0.28190976 0.40619326 0.0068234578 10591370
0.28412911 0.4105083 0.0071634669 10657425
0.28596798 0.41142339 0.0071342029 10591631
0.28897622 0.41264528 0.0071384963 10262921
0.29526123 0.41976702 0.006963837 10460043
0.29891375 0.42533925 0.0068182591 10722961
0.30085856 0.42616141 0.0067784628 10722961
0.30198371 0.42991021 0.0072837938 10657416
0.30478525 0.43124089 0.0070935842 11183510
0.3056927 0.43389937 0.0069754589 11183768
0.30782971 0.43629253 0.0073285308 11249303
0.31053445 0.43777588 0.0071858196 11249561
0.31180993 0.43966287 0.0076186918 11315355
0.31341508 0.44296977 0.0073660845 11315355
0.31566551 0.44483954 0.0068428367 11380892
0.31843016 0.447339 0.0068713315 11446938
0.32192689 0.45263326 0.0061955452 11644060
0.3244285 0.4542878 0.0058246581 11643805
0.32577127 0.45588613 0.0052149436 11578269
0.14135814 0.24801767 0.0094305668 8485728
0.14329059 0.2516596 0.0099814404 9407876
0.15071224 0.25865608 0.010005741 9275253
0.15303998 0.26138562 0.011668668 9736069
0.15414749 0.26279816 0.01128222 9670531
0.17880546 0.29044917 0.0099752815 9538945
0.18085505 0.29337421 0.010754349 9407359
0.18151642 0.29529679 0.0099199871 9407358
0.18316829 0.29774997 0.00913925 9473151
0.19020784 0.30411777 0.0080350395 9538942
0.20575589 0.32194394 0.0102526 9539459
0.20716508 0.32426703 0.0091303289 9670789
0.21142167 0.3310219 0.008413597 9736839
0.21307884 0.33195934 0.0082561886 9737094
0.21583624 0.3333964 0.0081080226 9802631
0.21733774 0.33619851 0.0079523902 9868423
0.21968503 0.33821467 0.0085264854 9868423
0.22296154 0.34443444 0.0078971721 9868168
0.22508024 0.34510973 0.0080527561 9868168
0.22724932 0.34561232 0.0083411299 9867911
0.22825752 0.35056716 0.0079371026 9868167
0.23102185 0.35179839 0.0077818064 9736580
0.23430391 0.35284731 0.0077964021 9671042
0.23470192 0.3567608 0.0080751171 9539454
0.23804316 0.35769635 0.008259058 9671040
0.23972124 0.36182141 0.0086312555 9539457
0.24230027 0.36301279 0.0083814245 9604993
0.24495737 0.36813182 0.0083978446 9670780
0.25238734 0.37662637 0.0076198671 9736576
0.25554439 0.37883204 0.0070788786 10065284
0.25771841 0.38030139 0.0064767115 10065542
0.25967354 0.38111857 0.0065778708 10131081
0.26054141 0.38554379 0.0065919459 9802369
0.26432031 0.38728327 0.0064523676 9867907
0.26492971 0.39140514 0.006545566 9999748
0.26752242 0.39265424 0.0064028781 9933956
0.27045304 0.3936145 0.0065105343 9999751
0.27025792 0.39724553 0.0066446634 10196615
0.27231088 0.39784575 0.0068024974 10065286
0.27467212 0.40230644 0.0072791735 10131079
0.27645293 0.40327042 0.007184715 10262406
0.2791881 0.40492043 0.0068325391 10525322
0.28164881 0.409749 0.0069598053 10657424
0.287108 0.41652852 0.0067258552 10131333
0.28911099 0.41730177 0.0067512617 10131078
0.29167813 0.41903186 0.0063781328 10196872
0.29294732 0.42272273 0.00694222 10854286
0.29477629 0.42364243 0.0067720627 10920337
0.29663107 0.42480576 0.006607973 10788755
0.29883459 0.42887238 0.0070827994 10328710
0.31475171 0.44569904 0.0043119113 11577740
0.31682605 0.44806871 0.0042431601 11577735
0.31890297 0.45086393 0.0051812492 11643536
0.32090887 0.45273262 0.0041079051 11644046
0.32298326 0.45510221 0.0040391712 11709345
0.32541758 0.46135008 0.0041797957 9866860
0.32781592 0.46322438 0.0036815633 8813146
0.33049914 0.46485624 0.0034388062 7891279
0.33300844 0.46663496 0.003000455 7298368
0.33465394 0.46833524 0.0035783495 7166751
0.33604968 0.47123036 0.0034334017 7561259
0.3382991 0.4732393 0.0030919439 7692330
0.34081119 0.47536886 0.0033744141 7626274
0.13431893 0.24481006 0.0087362761 6839339
0.13744819 0.24742687 0.0085536521 7761471
0.13811946 0.25083756 0.0089027006 9473659
0.14081618 0.25115332 0.009501962 9473662
0.14565724 0.25831139 0.0082605872 8091496
0.15849304 0.27257758 0.0075386362 9538413
0.15987574 0.27415738 0.0074927472 9735792
0.16195017 0.2765269 0.0074240938 9604476
0.16402435 0.27889657 0.0073553398 9736058
0.16540731 0.28047645 0.0073095625 9670266
0.17024747 0.28600544 0.0071492074 9736049
0.17232187 0.28837487 0.0070804963 9867903
0.17370467 0.28995457 0.0070346724 9736317
0.1750875 0.29153451 0.006988842 9538426
0.18514948 0.30122858 0.0078371409 9472895
0.18756798 0.3030934 0.0076208757 9538687
0.19127584 0.30699745 0.0066360077 9473151
0.19438906 0.3144882 0.0059538726 9736579
0.25731936 0.3842425 0.0065646712 9736580
0.26216161 0.39076155 0.0062241443 9999748
0.28953966 0.42199731 0.0028334558 10459519
0.29092246 0.42357701 0.002787625 10525321
0.29299697 0.42594653 0.0027189022 10459271
0.29670644 0.43019101 0.0020643785 10853511
0.29777113 0.43140039 0.0025607529 10984323
0.3005369 0.43455964 0.002469135 11314828
0.30261135 0.43692949 0.0024004471 11249554
0.30468541 0.43929902 0.0023316536 11315343
0.30669382 0.44159344 0.0022652084 11249040
0.30856046 0.44294304 0.0020001098 11380369
0.31015116 0.44554293 0.0021506227 11577488
0.31199402 0.44771349 0.0019854363 11511951
0.31488872 0.45069069 0.0017957613 11446159
0.31698948 0.45257169 0.0017209146 11511951
0.31841424 0.45417389 0.0014245478 11512210
0.32063651 0.45662242 0.0016673002 11643545
0.32257932 0.45964092 0.0016647023 11840931
0.32389635 0.46114537 0.0016211066 11446679
0.32639876 0.46390405 0.0011565867 11051146
0.32804498 0.46588454 0.0014836965 8288354
0.33039966 0.46875691 0.0020028595 7298855
0.332923 0.47070405 0.003212227 7692332
0.33329022 0.47297886 0.0010627126 7232028
0.33558917 0.47528413 0.00097596692 7560998
0.13066036 0.24191868 0.007930764 6707770
0.1319139 0.24306957 0.0075252065 6642232
0.14195962 0.25857824 0.0066878377 8289396
0.15415646 0.27193353 0.0056972122 9604472
0.1572724 0.27243355 0.0069820853 9604210
0.15890862 0.27431875 0.0067865746 9670004
0.1604733 0.27803877 0.0058057718 9604731
0.16350618 0.27956849 0.0057120677 9670266
0.16546148 0.28215414 0.0049142805 9670523
0.16767064 0.28440639 0.0048675551 9736060
0.16915952 0.28589296 0.0048111649 9604728
0.17137766 0.28820458 0.0048011974 9736062
0.17139859 0.29258549 0.0052285232 9801857
0.17290536 0.29419163 0.0052457675 9604220
0.17682467 0.29616183 0.00354345 9604218
0.18832536 0.31115046 0.0057770684 9538945
0.19006629 0.31228277 0.0056910645 9604738
0.19153513 0.31377876 0.0053526647 9736325
0.19481845 0.31660631 0.0048586847 9736323
0.196509 0.31791165 0.0046400847 9736578
0.19816795 0.32055295 0.0036879033 9802115
0.20068383 0.322595 0.0033641825 9736578
0.22786316 0.35499224 0.00194107 9933441
0.23546869 0.36422488 0.0020972365 9670269
0.23836862 0.36574325 0.0021899734 9802111
0.23956557 0.3676028 0.0015992019 9736060
0.24694099 0.37617752 0.0019272747 9538938
0.26241532 0.3927061 0.0030079405 9998973
0.26274657 0.39504123 0.0018559787 10064766
0.26617852 0.39721599 0.0016608699 9999227
0.26800343 0.39913571 0.0014767027 10064767
0.26975057 0.40100053 0.001627299 10064509
0.27276191 0.4067283 0.0012487462 10262400
0.27566588 0.40830883 0.0013077278 10262145
0.28170377 0.41658226 0.0012951177 10788492
0.28341252 0.41800651 0.0011500646 10788493
0.28551704 0.41909388 0.0013205232 10525575
0.28728157 0.42059827 0.0010323566 10262401
0.28937796 0.42586666 0.00073884102 10459778
0.29139704 0.42671788 0.001652258 10591108
0.29409206 0.42861101 0.0015946324 10591110
0.2945568 0.43365434 0.0015867548 10722697
0.29622519 0.43524727 0.0014502937 10788744
0.3010914 0.43855768 0.0012146458 11314576
0.30360749 0.44059968 0.00089089898 11314831
0.30583808 0.44158456 0.0013327277 11446159
0.30545667 0.44564524 0.0014941855 11315089
0.30860972 0.44770366 0.0011022137 11380881
0.31123036 0.44922727 0.0013450081 11380881
0.31308746 0.45026177 0.0013893559 11446673
0.31497663 0.45513898 0.0019841935 11512465
0.31618914 0.45724693 0.0012587686 11578004
0.31799585 0.45845443 0.001170544 11709334
0.32087955 0.46051317 0.0010695958 11709334
0.32344851 0.46235919 0.00016821199 11709334
0.3231228 0.46577531 0.00041086809 10195575
0.32595336 0.46808699 0.00054659625 8351814
0.32778129 0.47020817 0.00051074149 7561260
0.33112568 0.47206929 0.00061886082 7297826
0.14126062 0.25818458 0.0041000261 8946812
0.15000024 0.26825219 0.0042565186 9801078
0.15170284 0.27028006 0.0044925222 9801591
0.15399095 0.27253422 0.0053741839 9604472
0.16436264 0.28438222 0.0050305822 9670260
0.16502368 0.28684887 0.0046043079 9670264
0.16698012 0.28808132 0.0053220103 9735798
0.16916567 0.29035547 0.0053132353 9801852
0.17368066 0.29614523 0.0043334574 9604219
0.17512555 0.29773822 0.0043190662 9538170
0.17714286 0.29958433 0.0043434831 9538425
0.18034686 0.30254236 0.0044268542 9538676
0.18314552 0.30573946 0.0043342588 9472111
0.18427163 0.30832565 0.0037369421 9537906
0.19926316 0.32727772 0.0027689389 9604736
0.21752012 0.34567702 0.0010898332 9867650
0.22137004 0.35162434 0.0015100772 9736322
0.22476564 0.35324806 0.001854884 9604477
0.22776407 0.3586843 0.002495911 9801858
0.22954346 0.36122596 0.001744627 9473148
0.23306234 0.3621518 0.002376643 9473401
0.23490466 0.36837211 0.0020263772 9866868
0.23803701 0.36945027 0.0031164503 9866869
0.2397323 0.37238327 0.0018637273 9933182
0.24228077 0.37462807 0.0014973735 9604979
0.24417235 0.37607807 0.0020141229 9473138
0.24595065 0.37846053 0.0018603997 9538934
0.2466591 0.38179988 0.0016369792 9603954
0.25198835 0.38504949 0.00067486637 9933182
0.25440392 0.38702211 0.00065752678 10196355
0.25609627 0.38960785 0.0006300786 10064763
0.25773254 0.39222124 0.00078855478 9867639
0.26115274 0.39367849 0.00071825879 10130554
0.26346126 0.39644819 0.00089438935 9801851
0.26759642 0.40399683 0.00095734443 10196351
0.27043313 0.40526477 0.0011998769 10065019
0.27242741 0.40754807 0.0010867792 9604200
0.27450186 0.40991777 0.001018045 10525053
0.27549496 0.41261721 0.0010841419 10591108
0.27803254 0.41414115 0.0011202178 10722684
0.27978367 0.41599315 0.00095081516 10788480
0.28204164 0.41853106 0.00076834229 10788480
0.28411597 0.42090067 0.00069955434 10064515
0.28570491 0.42405558 0.00083308364 10196347
0.29246068 0.43119821 0.00030668452 10590853
0.29759002 0.43703374 0.00034868647 11051659
0.13487266 0.25491405 0.0010404892 8615760
0.13727467 0.25856733 0.0024095345 9473153
0.14494751 0.26512432 0.0017276476 8090195
0.14523871 0.2676076 0.002179319 9537656
0.14679857 0.26907182 0.0035002129 9801344
0.17722864 0.30336472 0.0028312295 9604479
0.17944683 0.30567664 0.0028214036 9538677
0.1809358 0.30716309 0.002764944 9472627
0.18388653 0.31219473 0.0017647226 9538416
0.1880801 0.31439668 0.00029877643 9801331
0.18951112 0.31593224 0.00017718598 9801331
0.19108826 0.31911752 0.00024163933 9735796
0.19294314 0.32123628 0.00018018321 9867638
0.20033592 0.33054927 0.0012762221 9670528
0.20330523 0.3325994 0.0011689132 9736320
0.2173312 0.34851572 6.2453328e-05 9998971
0.24495611 0.38159716 0.00054531731 9604726
0.24843794 0.38386169 0.00037334603 9801596
0.12411996 0.24824513 0.0011570528 6838577
0.12807332 0.25024292 0.0014392231 6641451
0.13003296 0.2524963 0.00077191065 6904619
0.1329582 0.25392821 0.00093099545 7891264
0.13455039 0.25813708 0.0015956918 9735803
0.13924284 0.26453573 0.001758249 8090720
0.14171882 0.26659638 0.00087061874 8879455
0.18412061 0.3146829 0.00066019106 9670262
0.18500003 0.31629589 0.00032021315 9801587
0.1874752 0.31856388 0.0004324324 9867636
0.18884413 0.32109839 4.0964922e-05 9801589
0.13160408 0.25789735 0.00066195615 9538417
0.16370179 0.25949314 0.020708248 9276804
0.16773526 0.26473475 0.020666685 9408385
0.16887793 0.26787871 0.02146982 9276801
0.17098404 0.26947626 0.020947743 9342596
0.17398141 0.27149165 0.020482596 9342849
0.15689933 0.25797728 0.019793153 9277058
0.15978968 0.25910595 0.01990911 9276803
0.16151021 0.2618151 0.020869762 9144960
0.16433881 0.26293069 0.020954251 9342332
0.16680709 0.26715913 0.021238346 9211263
0.17151232 0.27392432 0.02066743 9276802
0.17342523 0.27568844 0.0200582 9145214
0.17488436 0.27783865 0.019068334 9145212
0.17799176 0.27982274 0.018558919 9473922
0.179756 0.28164685 0.017820384 9473924
0.15540019 0.25673991 0.018972024 9342335
0.17702977 0.28331754 0.018352833 9342852
0.17988616 0.28551713 0.017691083 9342597
0.18250805 0.2877855 0.016906258 9211267
0.18395318 0.28987843 0.015809119 9276547
0.28703564 0.4089371 0.013217726 10460848
0.28866482 0.40976 0.012845666 10526386
0.29236063 0.41409662 0.012656167 10197166
0.30103496 0.42390701 0.012294547 10723762
0.31084824 0.43592519 0.012421844 11512511
0.31237924 0.43696517 0.011992942 11512768
0.31367087 0.43807644 0.011370694 11578560
0.3159869 0.44151416 0.011887671 11578305
0.31830189 0.44175535 0.012156869 11578303
0.31994584 0.4461517 0.011689349 11578307
0.321915 0.44655728 0.011775822 11709893
0.32522488 0.45122686 0.011411957 11907273
0.15041725 0.25523037 0.015906412 8552566
0.15198609 0.25660497 0.016691912 9078905
0.18135071 0.2915757 0.016404737 9276547
0.18400152 0.29381955 0.015652537 9342336
0.18694487 0.29594573 0.01508852 9408130
0.27550483 0.397672 0.012421619 9868458
0.27747586 0.39931229 0.011591411 10196909
0.27939597 0.40308776 0.011792909 10525874
0.28102413 0.40419927 0.012175209 10657714
0.28302804 0.40610152 0.012202412 10723760
0.2845287 0.40872326 0.012679206 10395314
0.28857896 0.41399905 0.012034638 10197422
0.2901926 0.41679081 0.012615415 10394031
0.29237032 0.41832229 0.011979639 10460337
0.29620069 0.41935512 0.011954849 10723252
0.29610723 0.42250097 0.012172066 11051963
0.2990579 0.42337734 0.012275478 10986681
0.30032235 0.42660141 0.012647094 10460083
0.30330127 0.42922941 0.012120882 10722997
0.30486548 0.43131244 0.011984218 11248830
0.30684778 0.43346637 0.011631098 11446460
0.30824324 0.43592826 0.011826479 11381181
0.31005538 0.43992519 0.011830328 11512512
0.31253713 0.44119498 0.011341564 11512256
0.31685838 0.44520217 0.011806088 11644096
0.32030469 0.45098895 0.010547347 11841734
0.32273582 0.45113215 0.010946998 11775687
0.32788023 0.45697436 0.010137078 9077646
0.32975811 0.46104667 0.010138808 6903637
0.33100727 0.46245506 0.0093165245 7034705
0.33967111 0.47201473 0.0091601955 7429955
0.14691599 0.25546786 0.014673308 8355443
0.15616669 0.267764 0.014282384 9341563
0.15776165 0.2691578 0.014215291 9473151
0.1606243 0.270971 0.014178594 9539201
0.16231608 0.27325571 0.013389499 9604738
0.16487943 0.2749981 0.013336231 9604738
0.16814218 0.2765359 0.013581221 9538946
0.18572871 0.29984906 0.01441748 9408130
0.18873399 0.30198827 0.013884959 9342594
0.19096373 0.30361223 0.013425968 9408129
0.19292995 0.30532959 0.012811335 9473923
0.19289626 0.30934191 0.012627465 9539716
0.19564058 0.311701 0.011801561 9605508
0.19858786 0.31284553 0.011878532 9605507
0.20290367 0.31836811 0.011719745 9408131
0.20440465 0.31957185 0.011440191 9473667
0.27593577 0.4014737 0.012126878 10394288
0.27678332 0.40296671 0.011265036 10328754
0.30903006 0.44017625 0.0078685237 11315356
0.31856745 0.45038787 0.010721692 11841478
0.32228273 0.45607859 0.0096890684 10394545
0.32527742 0.4568488 0.0097502684 9604249
0.32719329 0.46088147 0.0095350388 6772574
0.33224875 0.46373922 0.0085617527 7165778
0.33237341 0.4669624 0.0088723917 7363914
0.33481118 0.46907729 0.0086985147 7429448
0.33674607 0.47138196 0.0090631358 7429699
0.3387824 0.47505945 0.0093951011 7298112
0.34102926 0.47535419 0.0094581144 7363903
0.14327969 0.25392535 0.012149634 9079165
0.14818119 0.26003182 0.010833779 9406838
0.15114059 0.26333472 0.012364464 9604484
0.1533861 0.26528159 0.012056829 9538946
0.15551548 0.26658157 0.013438205 9407358
0.16503946 0.27924877 0.013465657 9473152
0.16646586 0.2810418 0.012927405 9341565
0.16853228 0.28313789 0.012353561 9341565
0.17153041 0.28483337 0.012338938 9538948
0.17295912 0.2875416 0.011334263 9604739
0.17588094 0.28924149 0.011466939 9538946
0.17728403 0.29066232 0.011130694 9538946
0.19129708 0.30835545 0.012850078 9473924
0.19392549 0.31081232 0.011893801 9539716
0.19605874 0.31545588 0.01178991 9408130
0.19911985 0.31663117 0.01178879 9473924
0.20044911 0.31785265 0.011522214 9473924
0.20132361 0.32278571 0.010914304 9473669
0.20362413 0.32448259 0.010523528 9473668
0.20544522 0.32632202 0.0097460449 9539462
0.20885116 0.32851607 0.0094350819 9736581
0.2098804 0.32998645 0.0087014763 9736839
0.22147804 0.34335026 0.0082501583 9868166
0.22669823 0.34941253 0.0081513766 9868167
0.23772421 0.36130092 0.0083302092 9605248
0.24189506 0.36702076 0.0082946243 9604992
0.24751639 0.37411729 0.0078470567 9342077
0.24988888 0.37509832 0.0078530042 9473406
0.27228925 0.4021188 0.0068037715 10065286
0.27963823 0.40885159 0.0070017297 10657423
0.2833083 0.41454351 0.0069296788 10328715
0.28462222 0.41646528 0.0074321739 10262921
0.28638643 0.41923818 0.0073278705 10262408
0.28881767 0.42115 0.00682854 10328454
0.29093653 0.42182523 0.0069842739 10591371
0.29309016 0.42606512 0.0073265536 10986129
0.29625219 0.42722455 0.0075307591 10591629
0.29698429 0.4314371 0.0075826691 10525832
0.29888147 0.43230328 0.007618608 10723209
0.30182773 0.43351203 0.0075914478 11117715
0.30246153 0.43833604 0.0074225776 11249561
0.30463627 0.43909127 0.0074351104 11249561
0.30673724 0.43964726 0.0075172437 11315354
0.30778116 0.44484103 0.0072605116 11315354
0.31085819 0.44626459 0.0071247611 11249557
0.31353357 0.44777256 0.0069494415 11380889
0.31544638 0.44888687 0.0068505686 11446938
0.32976854 0.46696562 0.008277108 7363662
0.13954993 0.2528221 0.010498168 9604737
0.14074068 0.25487781 0.011900267 9341822
0.14764279 0.26227739 0.010898908 9538685
0.18728465 0.30693671 0.0078392103 9538944
0.20653099 0.32954565 0.0092792036 9605508
0.20777266 0.33250317 0.0089343861 9671046
0.21055122 0.33379149 0.0088863214 9671303
0.213939 0.33586621 0.0085017346 9802632
0.21635391 0.34157953 0.0079522114 9934215
0.21947534 0.34257707 0.0082248673 9868167
0.22183497 0.34846571 0.0074722422 9933959
0.22438978 0.34863546 0.0079348749 9933703
0.22802472 0.35481247 0.0074914014 9473408
0.23038171 0.35714361 0.0077559641 9539456
0.23177469 0.35991198 0.0077488925 9605248
0.23480012 0.36092329 0.0078868484 9671040
0.23447329 0.36440402 0.008025405 9670786
0.23784 0.36558318 0.0082155373 9604994
0.241228 0.37203741 0.0075860228 9473662
0.24458821 0.37190941 0.0083362302 9473409
0.24585946 0.37317961 0.0080044586 9341825
0.24967195 0.37966633 0.0075586466 10065543
0.25203654 0.38117298 0.0071215937 10131080
0.25427902 0.38367912 0.0069035664 9867907
0.25585526 0.38647422 0.0072389646 9538942
0.2580522 0.38806075 0.0067809597 9802114
0.26071852 0.38950899 0.0065687979 9933956
0.26238599 0.39442721 0.0064714765 9999491
0.26361501 0.39599484 0.0059397817 9999491
0.26681274 0.39659369 0.0062291389 10131079
0.2681438 0.40029785 0.0068247309 9933701
0.2702046 0.40102223 0.0069153477 9999492
0.27168435 0.40571019 0.006965586 10525579
0.27338171 0.40647969 0.0067996085 10525836
0.27660766 0.4078429 0.0067932 10657168
0.27704415 0.41204706 0.0067951595 10591631
0.28012338 0.41334158 0.0068676937 10460045
0.28880435 0.4247584 0.0070908424 10920334
0.29091325 0.42543861 0.0071056169 10986130
0.29486573 0.43076169 0.0074270396 10459785
0.30077872 0.43715504 0.0075737862 11315096
0.30558097 0.44309434 0.0043797642 11184021
0.30728096 0.44533303 0.0045461259 11183767
0.30866399 0.44691285 0.0045003323 11315089
0.31076244 0.44926026 0.0043937 11249296
0.31277063 0.4515546 0.0043271268 11249039
0.31493029 0.45410776 0.0047549773 11512721
0.31692508 0.45651501 0.0043502306 11775131
0.31985074 0.45814356 0.0040430361 11709335
0.32201558 0.46026221 0.0037821811 11117198
0.32225767 0.46412233 0.0043893578 7430203
0.32479629 0.46587652 0.0039836266 7232557
0.32733464 0.46763077 0.0035778708 7298085
0.32907435 0.469019 0.0031221053 7035691
0.33112022 0.47147658 0.0029401146 6903339
0.33319461 0.47384623 0.0028714533 7100962
0.33526894 0.47621584 0.0028026686 7101206
0.12829715 0.24425842 0.008105047 6708027
0.13020799 0.24540633 0.0091068894 6510646
0.13143398 0.24811557 0.0088967448 8285771
0.13434336 0.24922456 0.0089043379 9340524
0.13582093 0.25153393 0.0093724644 9604213
0.14244649 0.261246 0.0079473052 8222823
0.16315567 0.28282636 0.0066251028 9670266
0.17360465 0.2964828 0.0091021508 9407615
0.17554328 0.29784077 0.0090095112 9407358
0.1768225 0.29923517 0.0086102318 9407358
0.17925239 0.30128613 0.0082929181 9407358
0.18076719 0.30398536 0.0072820261 9407357
0.18329653 0.30575472 0.0071255732 9538687
0.18720233 0.30949003 0.0062982878 9538687
0.21252005 0.34001517 0.0078888377 9868423
0.21701173 0.34526268 0.0081339292 9868426
0.21910942 0.34713066 0.0075150309 9868167
0.22332931 0.35274184 0.007507816 9868167
0.22511029 0.35370579 0.0074134022 9736581
0.24630786 0.37861392 0.0072306013 9999494
0.25854632 0.39261025 0.0066838851 9933698
0.26015326 0.39372081 0.0063937753 9933954
0.26552293 0.40005302 0.0063642813 10065286
0.30694106 0.44768867 0.0021658167 11315092
0.30937478 0.45153904 0.0021206457 11446418
0.31146923 0.45263082 0.0021499903 11512212
0.31333387 0.45378956 0.0021270253 11512466
0.31696001 0.45975718 0.0010743751 11972504
0.31953037 0.46249884 0.0020702942 10458238
0.32327378 0.46685481 0.00093233306 8747347
0.32771397 0.47390726 0.0022693137 7758127
0.33123049 0.47535613 0.0025288509 7758127
0.13955815 0.26095754 0.007078765 8091755
0.15256624 0.27434257 0.0063863155 9736306
0.15444766 0.27575973 0.0066188918 9604459
0.15595707 0.27749243 0.0064982362 9801837
0.15841652 0.27999312 0.0065307068 9736317
0.1605583 0.28230408 0.0064728921 9670521
0.16304345 0.28473371 0.0063652275 9604466
0.16369817 0.28805596 0.0062278314 9604462
0.16592413 0.28974268 0.0062794518 9604464
0.16765155 0.29220977 0.0059785033 9604468
0.17038351 0.29323989 0.0063152742 9801841
0.17245789 0.29560953 0.0062466133 9538679
0.17453213 0.29797891 0.0061778417 9538168
0.17660654 0.3003487 0.0061090942 9472373
0.17933924 0.30347055 0.0060186069 9603700
0.1836437 0.31063005 0.0069432901 9538943
0.18699495 0.31549183 0.0053060083 9670275
0.18852161 0.31693912 0.0050327606 9736325
0.19110371 0.3190563 0.0047069313 9670531
0.19282027 0.32164884 0.0038198517 9670529
0.23353171 0.36678767 0.0022131065 9670014
0.25754309 0.39272323 0.0032123942 9736555
0.25961724 0.39509279 0.0031437292 10196595
0.26169187 0.39746234 0.0030749375 9933169
0.26307458 0.39904189 0.0030291015 10064252
0.26514897 0.40141168 0.0029604286 10261631
0.26722324 0.40378121 0.0028917752 10130045
0.26932159 0.40612876 0.0027850885 10064762
0.27084595 0.4092178 0.0017508511 10327935
0.27304024 0.41080952 0.0021679103 10591103
0.27556834 0.41321546 0.0025410904 10985357
0.27647161 0.41613162 0.0020061005 10591363
0.27816987 0.41802993 0.0018421006 10460034
0.28060561 0.42003611 0.0024449448 10196610
0.28255999 0.42241195 0.0026332363 10130050
0.28409466 0.42520672 0.0026168185 10196094
0.28649613 0.42733547 0.002587867 10656900
0.28894734 0.42955408 0.0025818609 10788742
0.29032776 0.43184182 0.0024296967 10525827
0.29214603 0.43410268 0.0020422577 10328187
0.29414779 0.43669119 0.0022837981 10591614
0.29624489 0.43849942 0.0023367121 10986119
0.2982161 0.44070107 0.0020807176 11183508
0.3003642 0.44295752 0.0018610153 11117711
0.30200773 0.44558156 0.0015381728 11249550
0.30394658 0.44756815 0.0015941188 11249299
0.30601281 0.44987828 0.0022804434 11315090
0.30876845 0.45137927 0.0012364164 11314835
0.30925584 0.45472839 0.0015491331 11380370
0.31206122 0.45664874 0.0015672571 11512208
0.31360179 0.45936096 0.0015548663 11709590
0.3157827 0.46154362 0.0019263043 11577502
0.3176603 0.4636445 0.001933658 9998212
0.32045037 0.46550035 0.0010168762 9932144
0.32208037 0.46844625 0.0014480157 7891272
0.32423112 0.47063363 0.0012260289 7035962
0.32553449 0.47239375 0.0019482686 7363875
0.32732591 0.47504646 0.00080967415 7363618
0.13663304 0.26027033 0.005100294 8881276
0.14371265 0.26908121 0.0046415809 9933185
0.14588273 0.27140012 0.0045643332 9735801
0.14802903 0.27374083 0.0045250701 9867896
0.14979878 0.27492338 0.0047578234 9802097
0.16798183 0.29595903 0.0046606995 9736312
0.16953634 0.29752108 0.0046020872 9473146
0.17174558 0.29977319 0.0045553492 9407097
0.17402068 0.30210051 0.0045064599 9472377
0.17622986 0.30435261 0.0044596973 9407098
0.17843927 0.30660474 0.0044130906 9472628
0.17943649 0.30916294 0.0035522692 9472372
0.1803109 0.31091362 0.0032170755 9603705
0.18411894 0.31395128 0.0051754471 9604736
0.19478759 0.32402629 0.003085251 9736321
0.19670689 0.32644796 0.002426404 9736320
0.19658771 0.33014941 0.0026992229 9604734
0.19969724 0.33312377 0.0020096963 9736064
0.20147957 0.33474755 0.0017951136 9801855
0.2125864 0.34759873 0.00093608489 9933445
0.21521637 0.34862769 0.0012091771 9933445
0.22176507 0.35653016 0.001538137 9802114
0.22376192 0.35951263 0.0019206409 9801600
0.22871323 0.36671433 0.00092131016 9802110
0.23075204 0.36772624 0.0010938516 9736319
0.2332893 0.3696197 0.00087018264 9736317
0.23641065 0.3747524 0.0016342606 9736062
0.23841114 0.3771674 0.00089851581 9736060
0.24154307 0.37849042 0.001252037 9341303
0.24191135 0.38217333 0.0018443451 9735802
0.24472512 0.38513914 0.0011045791 9998972
0.24678144 0.38644049 0.00032796897 9867386
0.24934138 0.38827589 0.001075964 10196352
0.25179321 0.39018333 0.0010538232 9999232
0.25220081 0.39321849 0.0011253844 9867387
0.25429282 0.39543006 0.00073100999 9867641
0.25731301 0.39704049 0.00074728392 10065020
0.25862741 0.39953703 0.0004531208 10065020
0.26181242 0.40081352 0.00080132624 10130558
0.26410443 0.40658575 0.00086531951 10130555
0.26701701 0.4082261 0.00096113863 10196350
0.2693876 0.41125375 0.00043225847 9999208
0.26941463 0.41215721 0.00031834468 10262387
0.27242652 0.41597772 0.00065671885 10854026
0.27419037 0.41722706 0.00071478705 10657158
0.27625987 0.41944924 3.2559037e-06 10591358
0.2810173 0.42454949 0.00089841918 10262145
0.28292939 0.42696044 0.00041691074 10196351
0.28473377 0.4291319 0.00064467336 10722437
0.28625548 0.43065619 0.00058709015 10854536
0.29239884 0.4373877 0.0010125253 10393725
0.29517105 0.43986163 0.00040123961 10919819
0.29743737 0.44212914 0.00031550089 11183245
0.29887828 0.44365999 0.00033485191 11314830
0.31417558 0.46363959 0.00047850632 11643294
0.31566444 0.4651264 0.00042212312 10985106
0.31791559 0.46747568 0.00041109463 9207653
0.32215792 0.47233009 0.0001999524 7232289
0.13310146 0.25892353 0.0033203443 9604482
0.13823554 0.26546374 0.0033499342 8353644
0.14037541 0.2679086 0.0032790732 9800808
0.1806431 0.3135787 0.0020051561 9472375
0.18174468 0.3158567 0.0015058657 9604214
0.1834961 0.31843314 0.0011123957 9998708
0.18648951 0.31951705 0.00202333 9867377
0.1878626 0.32233021 0.001428111 9867634
0.19218257 0.32811004 0.0011001443 9604474
0.1939154 0.32941741 0.0022262386 9670527
0.1971489 0.33241788 0.0015996634 9670528
0.20203285 0.3368921 0.00076303375 9867647
0.20348847 0.34016874 0.00069730962 9867649
0.20524926 0.34311938 0.00088283163 9933441
0.20764644 0.34513268 0.00056661549 9933442
0.21067153 0.34661308 0.00082654785 9933701
0.21197322 0.3518548 0.00083690928 9933444
0.21548843 0.35448685 0.0006036195 9933699
0.21707311 0.35588536 0.00039564073 9933443
0.22066781 0.35956797 0.0021066815 9604736
0.22346486 0.36307418 0.0011731423 9604735
0.22736855 0.36716259 0.00099612447 9670522
0.23213322 0.37200233 2.6370399e-06 9736056
0.23311736 0.37401727 0.00063799997 9670264
0.23487034 0.37606013 0.00022656797 9998458
0.23708852 0.37837204 0.00021658652 9736821
0.23938744 0.38067725 0.00012981473 9275753
0.24157284 0.38295135 0.00012097461 9604714
0.2569955 0.40123028 0.00041224156 9933179
0.12263686 0.25114661 0.0014293091 6970163
0.12544805 0.25294182 0.0015020976 7496762
0.12726359 0.25525293 0.00077592232 8681556
0.12906621 0.25774151 0.001191501 9537908
0.13435926 0.26613492 0.0011648717 7695714
0.13894986 0.26903343 0.0013251621 9603693
0.21282403 0.35387903 6.3347165e-05 9933443
0.11799915 0.25039056 0.00038577127 6838579
0.16007271 0.26350173 0.021878801 8947834
0.16276896 0.26486126 0.02180345 9342593
0.16504386 0.26631466 0.02140639 9276801
0.16572878 0.26978263 0.021862771 9079679
0.16878721 0.27187529 0.021324862 9276802
0.15463771 0.25951239 0.020500898 8553330
0.15725023 0.2620202 0.020824216 8290156
0.16104147 0.26783603 0.021811742 9079680
0.16258259 0.26887143 0.021523915 9013886
0.16686578 0.27508089 0.021141928 9145219
0.16868895 0.27574793 0.021247428 9145218
0.17021723 0.27770546 0.020281669 9079423
0.1729008 0.27998707 0.019528568 9145468
0.1751176 0.28148946 0.019066248 9408388
0.14911111 0.25729197 0.017769724 9013113
0.15065098 0.25869086 0.018522486 8882040
0.17093112 0.28316233 0.019135118 9408386
0.17310794 0.2837888 0.01935605 9408388
0.17438026 0.2859638 0.018167358 9408132
0.17723285 0.28810126 0.017539259 9408133
0.17966072 0.28955641 0.017237943 9342339
0.28605321 0.41283575 0.012565442 10460337
0.29185516 0.42051798 0.012549941 10854836
0.29310858 0.42166895 0.012144583 10986171
0.29514697 0.42417362 0.013359544 10657209
0.29814547 0.42500585 0.013387141 10591668
0.30304781 0.43358469 0.012543142 11512000
0.30495885 0.43403909 0.012564398 11512256
0.3090362 0.43845007 0.012705004 11512765
0.31279427 0.44417405 0.011812079 11577791
0.1762736 0.29276654 0.016520634 9276286
0.17847148 0.29428852 0.016166806 9342337
0.18073045 0.29693189 0.015065691 9408130
0.18307602 0.2984581 0.014736959 9408132
0.27191561 0.40033904 0.012090761 10131628
0.27405816 0.40226087 0.012392467 10328752
0.27547529 0.40493244 0.012061312 10460085
0.27728486 0.40706569 0.011897135 10526389
0.28090006 0.4087024 0.012439575 10461104
0.28111744 0.41138035 0.012796591 10197167
0.28345516 0.41405112 0.01271908 10394287
0.28592047 0.41601071 0.012609071 10394028
0.28717795 0.41849542 0.012483878 10393774
0.29001179 0.42001003 0.012734925 10723252
0.29049686 0.42370069 0.012539011 10920375
0.29559177 0.42803267 0.013172039 10723509
0.29785457 0.42961955 0.012425703 10920633
0.29962915 0.43191847 0.012340416 11117755
0.30102038 0.43337762 0.012963918 11446460
0.30275106 0.43690154 0.012532244 11381439
0.3054598 0.437978 0.012233719 11381436
0.30637428 0.44169891 0.012292081 11381183
0.30869204 0.44311041 0.011748823 11512513
0.31239337 0.44777471 0.011569752 11578305
0.31615153 0.44919348 0.011208216 11710148
0.31957012 0.45494014 0.01002114 11118528
0.32471448 0.46078229 0.009211164 6904935
0.14399131 0.25697079 0.015639864 8485993
0.14980452 0.26533532 0.013518513 9341824
0.15187548 0.26605487 0.013750109 9341566
0.15530214 0.27158591 0.014541191 9473151
0.15726563 0.27390105 0.013840203 9473409
0.15916316 0.27614143 0.013141339 9473152
0.16194843 0.27769312 0.013207925 9473408
0.18055467 0.30119261 0.014580914 9408131
0.18292426 0.30269688 0.014214226 9408130
0.18629676 0.30452299 0.013964589 9408129
0.18688716 0.30764115 0.013245852 9276800
0.1889971 0.3093009 0.012689999 9408131
0.19049065 0.31197864 0.012601755 9473668
0.19317418 0.31321639 0.012523176 9408131
0.19667654 0.31930739 0.011979921 9342338
0.19857106 0.32030237 0.011807492 9342594
0.27173483 0.40355843 0.012210293 10394542
0.27557406 0.40791211 0.012365657 10394549
0.31461415 0.45252532 0.010931016 11710662
0.31561571 0.45388079 0.0099829258 11710150
0.31759277 0.45441064 0.010002036 11447490
0.31854531 0.45913598 0.0091689359 7893125
0.32115573 0.46042952 0.0088137174 7234418
0.32280406 0.46352452 0.009437589 6837322
0.32543102 0.46467179 0.0091118934 7165771
0.32706034 0.46748745 0.0086994013 7297864
0.32902071 0.46982622 0.0087085925 7363659
0.33165652 0.47103307 0.0084197568 7429193
0.33341795 0.47390395 0.0093118763 7298116
0.33550721 0.47619173 0.0091684768 7232316
0.13987868 0.25633323 0.013144544 8946546
0.14754394 0.26451421 0.01322621 9341569
0.15181544 0.27036774 0.013968009 9210229
0.15873252 0.27958614 0.013498723 9472894
0.16161266 0.2811887 0.013595725 9341566
0.16447639 0.28333172 0.013499026 9209981
0.16614297 0.28570315 0.012643594 9341308
0.16810767 0.28795418 0.012046802 9538945
0.17097031 0.28976735 0.012010114 9473408
0.17147449 0.29306421 0.010274823 9538944
0.17305167 0.29433835 0.010134261 9407616
0.18711059 0.31002823 0.012919002 9342595
0.19187114 0.31622386 0.012715263 9342337
0.19324839 0.31740114 0.012372931 9342592
0.19507731 0.31832099 0.012202642 9342592
0.19926503 0.32193229 0.011032163 9407875
0.19822928 0.32490867 0.011345971 9408130
0.20515195 0.3301703 0.00982334 9605509
0.25052452 0.38344899 0.0078717079 9933957
0.25212368 0.3844355 0.0076490752 9868162
0.28054589 0.41644463 0.0074370345 10460303
0.28315789 0.42173392 0.0073913494 10393994
0.28603116 0.42307323 0.0073736515 10722955
0.28744823 0.42676854 0.0079630325 10789005
0.29023343 0.42824551 0.0077433456 10591628
0.29296103 0.4297711 0.0074584903 10525837
0.29301542 0.4333263 0.0079270564 10986132
0.29602987 0.43448132 0.0081058787 11051923
0.2984722 0.43624923 0.0075655319 11183764
0.29956415 0.44035468 0.007907846 11183768
0.30268818 0.4418731 0.0078782961 11315096
0.30528367 0.44324857 0.0075977901 11315354
0.30508021 0.44714981 0.0076350374 11380889
0.3079474 0.44855589 0.0074426373 11315350
0.31006616 0.45066947 0.0067594498 11446680
0.31340572 0.45213869 0.0069612656 11644315
0.13477023 0.25460649 0.010258152 9209456
0.13729931 0.25555632 0.011635061 9406827
0.14292376 0.26183039 0.010415297 8814958
0.14417605 0.26436856 0.011970877 9341310
0.16854778 0.29477727 0.010787635 9538943
0.17064811 0.29684654 0.010316881 9341823
0.17360379 0.29995784 0.0097138369 9407615
0.17664735 0.30285677 0.0090263728 9473409
0.20029408 0.32778293 0.010053392 9473922
0.20249785 0.32955772 0.0094239181 9539462
0.20273948 0.33366251 0.0092943739 9604996
0.20457755 0.33568579 0.0084863631 9671045
0.20724118 0.337008 0.008412037 9736838
0.20944083 0.33872065 0.0078162327 9868167
0.21052025 0.34230998 0.0083194776 9868424
0.21311986 0.34374735 0.0080052409 9933959
0.21495879 0.34466255 0.0079760067 9933962
0.21931554 0.35107151 0.007524427 9933960
0.22178593 0.35183543 0.0075873043 9867911
0.22543921 0.35773736 0.0073816413 9539457
0.22634366 0.36049375 0.0082599511 9671044
0.22857848 0.36211547 0.0078713428 9539457
0.23161286 0.36318633 0.0080461688 9539456
0.23211929 0.36752769 0.0080121215 9604738
0.23498456 0.36874303 0.0080618272 9670789
0.23740423 0.37046844 0.0076635126 9539458
0.23888166 0.37329254 0.0075458409 9342079
0.24091899 0.37563741 0.0077980924 9407618
0.24373747 0.37715191 0.0075773243 9670532
0.24403611 0.38127241 0.0074088583 10131080
0.24726015 0.38244489 0.007644427 10131080
0.24936581 0.38777262 0.0073877685 9539198
0.25261998 0.38878155 0.0074739587 9604735
0.2560569 0.39074767 0.0071178805 9802112
0.25491524 0.39421105 0.0072781714 9604991
0.26021791 0.39824024 0.0060422579 9933699
0.26323032 0.39952415 0.0060130255 9999492
0.26508242 0.40350235 0.006580756 10131081
0.26700282 0.40474108 0.0064145159 10196873
0.2693916 0.40518147 0.0066143544 10393994
0.26954854 0.40962511 0.0064311577 10525837
0.27285665 0.41052309 0.0066162115 10657426
0.27426291 0.41342065 0.0068724258 10328713
0.27724499 0.41534057 0.0072446028 10262665
0.28034383 0.4202812 0.007578454 10328714
0.28526363 0.42601788 0.0078094341 10920335
0.29124236 0.43248639 0.0079539549 10788753
0.31073946 0.45579463 0.0067041228 11512476
0.3115527 0.4577086 0.0055749891 11249301
0.31397504 0.45956072 0.0050388416 10262143
0.31719685 0.46086198 0.005066039 9077351
0.31835788 0.46248284 0.0043281028 8418644
0.1265036 0.24611408 0.0087902984 6708024
0.12814213 0.25098211 0.0083741518 8089420
0.13168235 0.25168464 0.008820042 9472110
0.1314379 0.25469968 0.0091500608 8814430
0.13888 0.26226178 0.0086596049 8223079
0.14051439 0.26408559 0.010873658 9143666
0.17153944 0.29870224 0.00953501 9473152
0.17431308 0.30183631 0.0088035511 9538944
0.17662296 0.30536112 0.0075506102 9473408
0.17751397 0.30721697 0.0067686168 9473151
0.17968036 0.30936137 0.0062958049 9473151
0.20722713 0.34133014 0.0080596339 9868166
0.21319279 0.34799653 0.0077507682 9933962
0.21586755 0.34917438 0.0076354733 9868425
0.21731052 0.35042703 0.0072907908 9933961
0.21933453 0.35438752 0.0078457175 9867912
0.22177024 0.35596693 0.0074769976 9736581
0.23034595 0.36668804 0.0080392119 9539202
0.25611857 0.39553475 0.0067402227 9801857
0.25716573 0.39712474 0.0060802633 9933443
0.26148832 0.40186694 0.0067107202 10130823
0.26278952 0.40297362 0.0062294984 10131081
0.26650217 0.40836814 0.0063573746 10460044
0.2769452 0.41946602 0.0029341695 10262656
0.29697871 0.44173241 0.0048743156 11315086
0.29905307 0.44410211 0.0048055216 11315084
0.30035344 0.44624233 0.0032592155 11315343
0.30293897 0.44893369 0.0037441039 11249297
0.3052763 0.45121071 0.0045994171 11380364
0.30639595 0.45291477 0.0031932667 11446419
0.30881447 0.45548689 0.0036860867 11380365
0.31080765 0.45752969 0.0044161333 11446157
0.31284899 0.4598617 0.0043485751 11577496
0.3148905 0.46219364 0.0042809448 9735302
0.31696469 0.46456316 0.0042121811 8023136
0.31825587 0.46817178 0.0033651809 6969385
0.32035458 0.4698652 0.0028705164 7297836
0.32279155 0.47113535 0.0033426271 7429415
0.32436585 0.47435069 0.0035855696 7627051
0.3263965 0.47598439 0.0035664309 7561006
0.12281106 0.24932016 0.0078817457 6708281
0.12544957 0.24968475 0.0084158508 6642488
0.12897092 0.25431755 0.0086032655 7893073
0.14479098 0.27195084 0.006267637 9670012
0.14667141 0.27404678 0.0061918823 9604470
0.14875124 0.27601978 0.0063578598 9209967
0.15069664 0.27887943 0.0069245109 9473137
0.15201111 0.28125158 0.0066900207 9736309
0.15448236 0.28374124 0.0067034299 9604986
0.15718025 0.28557378 0.0057924595 9670782
0.1590728 0.28761771 0.0058204401 9341810
0.1607524 0.28948978 0.0057041785 9341802
0.16279994 0.29175475 0.0058111856 9604461
0.16487409 0.29412448 0.0057424894 9670255
0.16639926 0.29729885 0.0053848503 9867637
0.16848974 0.29917064 0.0054403944 9407095
0.16884576 0.30119634 0.0050565135 9472634
0.17254591 0.30288815 0.005488296 9669748
0.17392883 0.30446801 0.0054425374 9472369
0.17513607 0.30777189 0.0045441976 9472112
0.17877431 0.31373531 0.0060084714 9473152
0.18762662 0.32156354 0.0045402446 9604738
0.23231125 0.37107778 0.0032929853 9670001
0.23438564 0.37344748 0.0032242308 9472624
0.23646004 0.37581694 0.0031555919 9538419
0.2378429 0.37739676 0.0031097424 9473393
0.23991711 0.37976646 0.0030410825 9341806
0.24199142 0.38213605 0.0029722871 9604977
0.25450328 0.39642876 0.0025577899 9999988
0.25588605 0.3980085 0.0025120075 10065781
0.25796047 0.40037811 0.0024433089 9867385
0.26008269 0.40270343 0.0022987411 10064762
0.26215717 0.40507308 0.0022300649 9998972
0.26423144 0.40744278 0.002161351 10196098
0.27252856 0.41692108 0.0018865028 10657160
0.27346072 0.41939741 0.002351556 10460033
0.27494124 0.42186868 0.0023756037 10394244
0.27724507 0.42344716 0.0025836304 10065026
0.27875781 0.42491195 0.0024893209 10196100
0.28064921 0.42803979 0.002423171 10459265
0.28239536 0.43056566 0.0024184086 10919558
0.28506839 0.43254921 0.0025250199 10854277
0.28752735 0.43484765 0.0024444144 10591620
0.28922763 0.43701532 0.0024545263 10196857
0.29056829 0.43990785 0.0021005324 10920577
0.29233894 0.44184995 0.0018028202 11117451
0.29461715 0.44366941 0.0015241802 11314828
0.29725662 0.44557282 0.0012935256 11314829
0.29860282 0.44862282 0.0011808197 11249293
0.3003681 0.45078492 0.0022027818 11249293
0.30292726 0.45293453 0.0023051896 11315087
0.30599406 0.45436269 0.0020285337 11380881
0.3072592 0.46022904 0.0018493212 11643540
0.30943009 0.46276554 0.0012827693 11577748
0.31181535 0.46549493 0.00084921229 10524548
0.31416723 0.4672457 0.00081116962 9076835
0.31601375 0.46875399 0.00083661778 8022856
0.3186219 0.47043276 0.00069534569 7233078
0.31964481 0.47375029 0.00081540761 7034650
0.32196453 0.47540715 0.0019114274 7561000
0.13230099 0.26285404 0.0046776645 8946552
0.13722786 0.26639202 0.0049416912 9340516
0.13936783 0.2688368 0.0048707258 9670261
0.14134653 0.27129474 0.0049536545 9670015
0.15775307 0.29263255 0.0052054413 9275759
0.15993832 0.29490682 0.0051965443 9604466
0.16334826 0.29604402 0.0052405661 9670259
0.16936326 0.30310178 0.0038771429 9538162
0.17065185 0.30542982 0.0038628117 9603960
0.17286976 0.30774164 0.0038528894 9472376
0.17423628 0.31090584 0.0029387181 9406836
0.17606717 0.31177172 0.0032629971 9538163
0.18020208 0.31650776 0.0048997272 9538688
0.18251257 0.31859437 0.0044856686 9604737
0.1851605 0.32039258 0.0043218015 9604739
0.18789209 0.32382348 0.0033904975 9604737
0.18881097 0.32601878 0.0036817235 9538944
0.19002393 0.32773212 0.0031205188 9538687
0.1917111 0.33064845 0.0033455323 9538943
0.19496167 0.33239442 0.0035273405 9604734
0.19551501 0.33453888 0.0024951925 9736062
0.19854955 0.33633423 0.0024456414 9736063
0.20057064 0.33899513 0.0016457224 9867904
0.21584094 0.35792169 0.0013307091 9867908
0.21810935 0.35886693 0.0015557776 9736578
0.22809201 0.37084645 0.00088951341 9670524
0.22935286 0.37244254 0.0023068492 9670266
0.23125076 0.37622827 0.0021911678 9472884
0.23319972 0.37798634 0.002465792 9538678
0.23595916 0.37994081 0.001885483 9473142
0.2378169 0.3823604 0.0023539104 9472885
0.2391867 0.38471681 0.001572215 9933174
