# .PCD v0.7 - Point Cloud Data file format
VERSION 0.7
FIELDS x y z rgba
SIZE 4 4 4 4
TYPE F F F U
COUNT 1 1 1 1
WIDTH 1126
HEIGHT 1
VIEWPOINT 0 0 0 1 0 0 0
POINTS 1126
DATA ascii
0.18792357 0.019332897 0.015645836 9933441
0.18961102 0.021854769 0.016035285 9538682
0.1914552 0.023961166 0.015974205 9604477
0.19382581 0.026669165 0.015895627 9670270
0.19566956 0.028775416 0.015834555 9867392
0.19744757 0.03080659 0.01577571 9867392
0.19929136 0.032912917 0.015714586 9736316
0.20106934 0.03494392 0.015655667 9801853
0.20350607 0.037726976 0.015574994 9735805
0.20528392 0.039758377 0.015516053 9801598
0.20712774 0.041864663 0.015454938 9867142
0.20890574 0.043895684 0.0153961 9538685
0.21493597 0.053088814 0.014776208 8683623
0.22241682 0.057605453 0.013579224 8749161
0.22347118 0.060237266 0.014690966 9077864
0.2266352 0.062481694 0.013405996 8881246
0.22782041 0.063835897 0.013366687 8947039
0.22959855 0.065866895 0.013307837 8748905
0.23144247 0.067973115 0.013246785 8880491
0.23294944 0.071476907 0.014532489 8683363
0.1676333 0.0023030043 0.012337076 8353624
0.17025168 0.0028266199 0.013161541 9011561
0.17899953 0.014423627 0.012463926 8551532
0.18226691 0.016389921 0.013869344 9077618
0.18400447 0.019001883 0.01428182 10130308
0.20817207 0.046609499 0.013481214 9801857
0.20935728 0.047963496 0.013441888 9538682
0.21120107 0.050069522 0.013380823 9538942
0.21363753 0.052853107 0.013300057 8552300
0.21541576 0.054884199 0.013241249 8749414
0.21776082 0.056936223 0.01269356 8617829
0.21963415 0.059760489 0.013067962 9077348
0.22125901 0.06188504 0.01160435 9012070
0.22250524 0.064005844 0.011574413 8946275
0.22501771 0.067119174 0.012184848 8880227
0.22747426 0.06877435 0.012774605 8945767
0.22928517 0.070843205 0.012714641 9077355
0.36490104 0.22715542 0.0054310886 7364144
0.36863193 0.23108149 0.0058992971 7429682
0.37086669 0.23356672 0.0062603634 7166757
0.16512878 0.0018108245 0.011434533 7497537
0.17354451 0.012586039 0.011336072 8749433
0.17596199 0.013500549 0.010868527 8683376
0.35518575 0.2195242 0.0059741875 7432544
0.35788867 0.22139169 0.0052767685 6904116
0.35994613 0.22376561 0.0048430203 7232564
0.36096287 0.22587505 0.0051361751 7232562
0.36300129 0.22934887 0.0053903516 7364149
0.36576122 0.23026276 0.0056148767 7429682
0.3678318 0.23351924 0.0062141567 7166762
0.15976584 0.00086638372 0.0095141074 5918242
0.16245227 0.0013362789 0.010544873 6444591
0.35552275 0.22198306 0.0023789559 7233608
0.15760952 0.00050592719 0.0076338574 5984040
0.16073804 0.0011478806 0.0073267277 6049568
0.16870043 0.013108812 0.0069095213 9209730
0.17148195 0.013404865 0.0071120681 9209471
0.35544392 0.22491796 0.00035389024 7035184
0.16404045 0.011617172 0.0050274278 8945782
0.166546 0.013728268 0.0052505555 9341055
0.16820782 0.015387761 0.0041474127 9143935
0.16068034 0.011445997 0.0031324979 8946028
0.16274369 0.013852737 0.0032550343 9472116
0.1572725 0.011319227 0.0013132663 9077357
0.15841751 0.012991007 0.0018547769 9142641
0.1605145 0.013505138 0.00037539657 9142879
0.3473182 0.16768979 0.03240639 10329232
0.35075498 0.17211774 0.032131877 10395027
0.35508335 0.17696293 0.031914238 10592148
0.35954326 0.18195899 0.031692307 10789528
0.35980245 0.18369068 0.032759711 10789529
0.36257538 0.18597995 0.032674208 11052701
0.36442199 0.18807752 0.032399908 11118496
0.37178493 0.19797954 0.032276243 11184291
0.28858957 0.10477041 0.032184858 9606278
0.28976932 0.10572211 0.031848975 9408391
0.29412603 0.11243011 0.032542195 8684918
0.2974498 0.11493983 0.031467397 8684916
0.30195177 0.11963873 0.031445414 8750458
0.30947548 0.12767394 0.031390451 9276547
0.31263393 0.13156305 0.031649712 8947578
0.31561887 0.13559876 0.03171346 9276544
0.31765577 0.13721913 0.032190006 8947322
0.31994602 0.13946453 0.03206636 9013628
0.3212907 0.14219919 0.031718668 8750200
0.32380292 0.14457685 0.03139459 8882042
0.3269946 0.14915308 0.031142347 9276797
0.3286939 0.14979392 0.031184763 9539716
0.33090207 0.15337867 0.031217821 9868422
0.33322391 0.15555263 0.031881601 10065545
0.33573636 0.15840653 0.0319397 10131854
0.33786216 0.1600946 0.032081153 10197391
0.33991939 0.161929 0.032137737 10066062
0.34108251 0.1640926 0.031843226 9934476
0.34339803 0.16645405 0.031898886 10263185
0.34487933 0.16980948 0.031869508 10394769
0.34819618 0.1711615 0.03192718 10394770
0.34794971 0.17383629 0.031926814 10394770
0.35115188 0.17522159 0.031958278 10460564
0.35318431 0.17770378 0.032215402 10526357
0.35590065 0.18003754 0.031958133 10657684
0.35707581 0.18196861 0.032411534 10657943
0.36053213 0.18658312 0.033052094 10921114
0.36559713 0.19174862 0.031728841 11052960
0.36725646 0.19352651 0.030818891 11052703
0.36923647 0.19576044 0.031627081 11118754
0.37159777 0.19722542 0.030420538 11118496
0.37350267 0.20035809 0.030921068 10789792
0.28686208 0.10655189 0.032295439 8948352
0.2887454 0.10704105 0.032674618 8750976
0.29042804 0.1100975 0.031858396 8684922
0.2926119 0.11127487 0.031795669 8618872
0.29433322 0.11451907 0.031367265 8618869
0.29583794 0.11662365 0.031708471 8684913
0.29761669 0.11856186 0.031528141 8750709
0.29964525 0.1203741 0.031491499 8750711
0.30237678 0.12238836 0.031364463 8815992
0.30372885 0.12489538 0.031044122 9013374
0.30604795 0.12761576 0.031365715 9078908
0.30825084 0.13000444 0.031235356 9013372
0.31016704 0.13238889 0.031497486 8882041
0.31266403 0.13393599 0.031868134 9079166
0.31387129 0.13619612 0.031644482 9144959
0.31553268 0.1380695 0.031801455 9013373
0.31741399 0.14179912 0.031543132 9079420
0.32104471 0.14703998 0.030785311 8947833
0.32406855 0.14851008 0.030654844 9013370
0.32459128 0.15151171 0.03075264 9079421
0.32759702 0.15221284 0.03105909 9211004
0.33007723 0.1555085 0.031630509 9408124
0.33363137 0.15906045 0.032205191 10131597
0.33744034 0.16421667 0.031609278 10263184
0.34226391 0.16916762 0.031643715 10329233
0.29372278 0.11632974 0.031068586 8553330
0.30082244 0.12473698 0.031056002 8947578
0.33811766 0.16772738 0.026428808 10131081
0.34349313 0.17438717 0.026409838 10591376
0.34582898 0.175993 0.026226282 10657170
0.36591753 0.20121562 0.026345521 11447719
0.19435781 0.0074339728 0.028767981 9341565
0.19596031 0.0084312558 0.031311579 9802634
0.19745664 0.011373996 0.030498978 9539722
0.19976643 0.013514197 0.030394159 9342342
0.20222482 0.015732663 0.029832162 9408133
0.20334931 0.018202901 0.029763285 9473927
0.2059259 0.019672606 0.029877391 9539719
0.20784149 0.021957384 0.028965943 9605000
0.24423173 0.064112514 0.027815249 8749687
0.24509162 0.065472074 0.027302817 8684150
0.2506285 0.072193369 0.027416218 8947068
0.2532104 0.073660776 0.027600825 8683893
0.25652963 0.078869641 0.027786043 8881528
0.25908118 0.080426067 0.027833771 9473667
0.26040775 0.082095966 0.026908416 9802377
0.2637395 0.086776942 0.027607225 9671047
0.26476324 0.087994508 0.027149357 9671049
0.26714617 0.089300752 0.027236301 9736840
0.27035633 0.094795823 0.02711954 9605254
0.27368703 0.097153984 0.027918816 9078654
0.27440283 0.099839486 0.027531452 8749689
0.2772606 0.10269894 0.026749518 9078135
0.27975532 0.10319611 0.027510993 9670272
0.2809779 0.10522439 0.0266403 9999495
0.28504989 0.11090623 0.026894171 9144703
0.30168113 0.12901381 0.025675416 9144186
0.30188042 0.1316475 0.026244983 9276033
0.30439609 0.13303986 0.026431631 9144446
0.30637422 0.13462393 0.026166435 9012601
0.30869269 0.13539624 0.026524026 9143928
0.31237233 0.14187193 0.026264556 9144439
0.31427547 0.14371535 0.025800508 9144184
0.31617042 0.14543472 0.025403805 8947060
0.32227063 0.15326649 0.025797773 9539199
0.32632193 0.15861295 0.025332682 10328458
0.32916069 0.15979852 0.025844354 10394254
0.33168358 0.16098508 0.026023775 10328461
0.3313832 0.16488957 0.025536001 10394255
0.33460569 0.16663532 0.026381839 10196873
0.3360042 0.1698416 0.026365086 10460046
0.33809277 0.17108504 0.025708437 10525578
0.34055382 0.17306094 0.025652409 10525322
0.34209996 0.17631793 0.025721498 10723216
0.34388494 0.17758524 0.025518548 10657169
0.34599537 0.1800424 0.025355663 10788750
0.34877267 0.18267775 0.025643017 10657168
0.35024461 0.18467562 0.025739543 10789008
0.35203972 0.1869189 0.025875583 10920337
0.35451734 0.1894196 0.025699787 11249558
0.35582861 0.19144699 0.025787488 11315354
0.35794041 0.19344161 0.025640801 11315359
0.36051702 0.19584942 0.025132388 11249818
0.36133805 0.1983486 0.025316436 11118755
0.36366838 0.20031746 0.025269549 11447201
0.36614403 0.20365444 0.025594562 10920353
0.36743972 0.20545705 0.026023246 7300713
0.18946227 0.0070786951 0.029174585 9012860
0.19143726 0.0078869602 0.029557589 9407616
0.20015904 0.016204035 0.029568832 9408133
0.20285358 0.02167796 0.029204234 9539464
0.20509985 0.023879925 0.028550375 9539464
0.20800252 0.025919221 0.028341006 9539720
0.21029072 0.028218573 0.02772291 9539719
0.21298359 0.030240498 0.027456898 9539463
0.21831386 0.036995869 0.027089488 9473671
0.22397834 0.044444807 0.026331428 8618871
0.22556528 0.04658854 0.026679914 8552566
0.22750653 0.049340967 0.026633322 8552564
0.22941372 0.050852243 0.026299741 8618355
0.23164265 0.052845072 0.027076453 8683893
0.23327659 0.055727653 0.026825517 8683893
0.23703469 0.057370935 0.027322538 8749944
0.2377993 0.059948158 0.026963476 8618358
0.23964919 0.062062308 0.027363356 8684152
0.24165721 0.064826034 0.027418774 8815480
0.24335822 0.067000531 0.027689166 8749944
0.24486838 0.06835568 0.026799437 8749688
0.24790204 0.070847839 0.027068619 9012603
0.24827333 0.073538505 0.027911656 8881274
0.25079829 0.075640097 0.027624678 8618358
0.2530804 0.078006357 0.02683191 8749688
0.25543192 0.082077175 0.027331829 9078648
0.25793445 0.082698345 0.028025921 9407616
0.25970459 0.084455758 0.027462006 9671048
0.26159668 0.087317035 0.027387042 9736583
0.26220232 0.089959033 0.026757687 9736584
0.26438719 0.091433942 0.026686992 9802376
0.26759291 0.093350619 0.026806708 9671047
0.27026916 0.09613727 0.027205676 9539461
0.27013403 0.097523347 0.027367521 9736584
0.27547762 0.10186388 0.026635621 8749687
0.27592659 0.10539056 0.026578568 9802376
0.27857453 0.10758284 0.026250556 9999499
0.28177878 0.10956388 0.026266169 9539463
0.28251258 0.11324304 0.02630046 8815482
0.28572866 0.11319323 0.025396839 9012857
0.28694677 0.11641778 0.025145125 8815477
0.28940952 0.1184855 0.025630038 8815479
0.29097274 0.12035197 0.024871584 8815221
0.29264563 0.12338873 0.024995476 8946807
0.29557803 0.12505572 0.025835481 8881272
0.29666921 0.12768549 0.02568556 9078393
0.29906821 0.1290426 0.025719851 9209981
0.30039519 0.13069214 0.026389595 9209981
0.30508921 0.13737683 0.025001176 9341298
0.30625939 0.1387379 0.024750467 9472623
0.3092255 0.14096567 0.024932988 9209719
0.31250587 0.1465181 0.025486965 9078648
0.3141402 0.14845747 0.024796907 8947061
0.31688175 0.14972103 0.025069799 9209977
0.31830725 0.15216473 0.025173567 9209977
0.32149869 0.15484096 0.024698924 10130796
0.32322168 0.1565928 0.024811924 9933696
0.32458097 0.15914325 0.025438406 9867904
0.32555801 0.16193917 0.025284287 10196615
0.32822379 0.16313235 0.025418367 10394254
0.33087236 0.1653555 0.023885481 10196358
0.33281118 0.16846141 0.024489112 10261889
0.33430663 0.17004463 0.024908293 10328192
0.33559772 0.1730227 0.024087779 10525315
0.33843094 0.17523937 0.024456628 10525573
0.33954486 0.17740504 0.024283811 10722956
0.34151411 0.17940207 0.024233874 10657163
0.34416693 0.18232445 0.024780773 10854538
0.34630853 0.18436028 0.025169156 10722961
0.3480899 0.18640853 0.023892906 10788752
0.35082078 0.18885519 0.024524961 10986386
0.35200137 0.1911805 0.023454275 11183764
0.35465124 0.19227502 0.024295483 11315352
0.35618195 0.19562757 0.023375738 11381408
0.35809398 0.19775489 0.023807082 11446941
0.3599875 0.19991407 0.023403667 11184024
0.36149526 0.20244379 0.022302464 11776161
0.3636367 0.20404688 0.02303106 11446945
0.36577484 0.20603439 0.023181576 10196111
0.36807841 0.20785771 0.022652913 7757886
0.18599832 0.0068719927 0.027498435 8683893
0.18959884 0.007022962 0.026786901 8683896
0.2080237 0.030000802 0.027623594 9539719
0.21030271 0.03224051 0.026968502 9539464
0.21327235 0.034290675 0.026861187 9539720
0.21501078 0.035946004 0.026402563 9539720
0.21576107 0.03908452 0.026630577 9408135
0.21840881 0.041276876 0.02630252 9276805
0.22075011 0.043984462 0.026095994 8684409
0.22120558 0.046595521 0.025961094 8552565
0.22292249 0.04735535 0.026077196 8618615
0.22508772 0.052100904 0.025867943 8552567
0.22768834 0.052504856 0.026618764 8552562
0.23456879 0.059386328 0.026961327 8749944
0.2833133 0.11536528 0.025108192 8815479
0.28938398 0.12215266 0.025256861 8881013
0.30017602 0.13384189 0.022963081 9341821
0.30136153 0.13519582 0.022923846 9210236
0.30325943 0.13766748 0.023343869 9275507
0.30598336 0.14017865 0.022548143 9604199
0.30965877 0.14467423 0.022648964 9406577
0.311003 0.14648592 0.02332288 9341300
0.31321484 0.1487363 0.022531215 9209713
0.31456083 0.1511652 0.023154534 9209967
0.31693146 0.15387341 0.023075957 9406321
0.31827781 0.15630215 0.023699176 9735528
0.31946304 0.15765613 0.023659885 9472357
0.32329002 0.16024569 0.022197392 10591108
0.32527709 0.16300817 0.021580443 10591110
0.32681164 0.16465427 0.021526132 10393734
0.32856685 0.16770981 0.023252305 10459531
0.33059725 0.17006767 0.022216968 10196613
0.33259985 0.17203455 0.02214 10262144
0.3414548 0.18116227 0.02202677 10788493
0.34336802 0.18307582 0.021989845 10789006
0.3437914 0.18576941 0.022226311 10722703
0.3628681 0.20641528 0.021911029 11249824
0.36518875 0.20795339 0.021229867 9801342
0.18561724 0.0063489396 0.025451332 8487032
0.21250786 0.037861586 0.026076183 9473672
0.28421277 0.11905923 0.021478456 8880753
0.28599074 0.12109042 0.021419547 9275505
0.2877686 0.12312122 0.021360639 8880998
0.28954673 0.12515236 0.021301817 8946543
0.29139051 0.12725863 0.021240685 9078122
0.29669243 0.13429405 0.020494554 9670764
0.29922354 0.13774683 0.021138642 9012851
0.30089948 0.13928705 0.021697208 9472370
0.30303875 0.14234707 0.022190463 9801333
0.30483127 0.14396627 0.022116903 9274991
0.30675626 0.14619365 0.021805946 9472370
0.30910388 0.14898169 0.021501128 9077865
0.3109203 0.1509786 0.021420639 9209706
0.31215835 0.15357479 0.01996474 9275763
0.31542563 0.15557925 0.020402126 9341045
0.3177155 0.15710053 0.020502944 9999218
0.31953362 0.15959585 0.020858366 9933169
0.32113013 0.16244526 0.020919833 10130297
0.32217163 0.16509713 0.021255348 10524285
0.32447577 0.1675099 0.021218989 10459273
0.18124174 0.005417435 0.023224775 8816255
0.26447868 0.10019925 0.01998448 9275514
0.26574987 0.10154451 0.019938879 9012856
0.27999336 0.11833785 0.019360207 9012336
0.28147155 0.12007569 0.020766892 8880233
0.28340012 0.12285591 0.020905342 8946282
0.28532526 0.12561189 0.019725159 8946799
0.28738928 0.12732956 0.020557668 9077869
0.28977764 0.12980333 0.019949973 9012332
0.29204506 0.13182712 0.019749716 9078127
0.29406607 0.13350427 0.02032147 9341292
0.29638848 0.13664462 0.020558525 9209965
0.29968864 0.14152162 0.02094695 9472890
0.3015433 0.14348413 0.020844836 9736048
0.1772982 0.0048703412 0.021311443 9144705
0.24359635 0.080734596 0.017984569 8814962
0.24867734 0.086053155 0.017835617 9472894
0.25062343 0.088004269 0.017797634 9999241
0.25254533 0.089977451 0.017797604 9867642
0.25513673 0.092559151 0.017734565 9999488
0.25616676 0.095383033 0.017861497 9867901
0.25809091 0.09726496 0.018212795 9802107
0.26109669 0.099506646 0.019303225 9670266
0.26249057 0.10188109 0.020252172 9999232
0.26495215 0.10395385 0.019348223 9144443
0.26732498 0.10575288 0.018547844 8618086
0.26897722 0.10762351 0.018327199 8946528
0.27062532 0.11054707 0.017621435 9801838
0.27309629 0.11208176 0.018312562 10327928
0.27481565 0.11473078 0.018692002 9736569
0.27665797 0.1171791 0.018914238 9144183
0.27767405 0.11953744 0.019369502 9011563
0.28249946 0.12445489 0.018303346 8946538
0.17414619 0.0046006078 0.020001207 9144703
0.18543538 0.017385263 0.017779522 9933449
0.18799807 0.019991325 0.017683908 9605248
0.19091253 0.021322321 0.018620498 9473148
0.19283433 0.023295702 0.018620424 9604992
0.19469818 0.025317887 0.018555164 9736324
0.20289716 0.038294807 0.016771816 9867650
0.20472825 0.040279236 0.016707625 9736322
0.20641097 0.042192545 0.017360929 9670534
0.20959736 0.044665225 0.016968381 9670789
0.2143427 0.049024895 0.017166115 9342082
0.2156999 0.050360888 0.017114062 8881274
0.22453332 0.063068286 0.016021505 8881005
0.22645928 0.065103531 0.015987739 8815215
0.23208189 0.07228522 0.016216621 9078125
0.23489431 0.073472165 0.015985478 9012077
0.23694405 0.076707117 0.017507527 9209459
0.23965558 0.077984579 0.017357558 9604467
0.24139738 0.079763189 0.017422896 9078392
0.24357124 0.081939831 0.017529726 8880496
0.2446502 0.084576972 0.017268647 8946288
0.24688956 0.087537766 0.017355569 9341044
0.24873519 0.089510076 0.017307729 9933437
0.25063443 0.09156847 0.017276525 9867640
0.25333863 0.09429092 0.017671313 9933690
0.25516626 0.096125871 0.017850608 9933435
0.25659472 0.09807121 0.018038273 9802106
0.26496556 0.10816135 0.018156748 8881246
0.26674342 0.11019234 0.018097807 9537626
0.26849717 0.11264013 0.017912615 10064763
0.27038613 0.11457572 0.017913621 10064774
0.27162448 0.11588307 0.017869085 9539192
0.17034276 0.0041922997 0.017172236 8815478
0.1794949 0.015167615 0.016389821 9209453
0.18208943 0.016451875 0.017524946 10065014
0.18357451 0.018825246 0.018136486 9736330
0.18611816 0.02145117 0.018149365 9473151
0.18820401 0.023132997 0.017631467 9407351
0.19007419 0.025216084 0.017567754 9670527
0.19188832 0.027961491 0.01725797 9604738
0.19313239 0.031261779 0.015813284 9867652
0.19621184 0.034399558 0.015273123 9802110
0.2003058 0.035713125 0.016834695 9736318
0.20065419 0.04117357 0.016246133 9670784
0.20294698 0.041851908 0.017169811 9604734
0.20548157 0.04441807 0.017145887 9670532
0.20742731 0.046369366 0.017107844 9604738
0.20918965 0.048247386 0.015874691 9342338
0.21065311 0.050268222 0.015908737 8947322
0.21286897 0.053604137 0.016003765 8683632
0.21771356 0.057259679 0.016301215 8749423
0.21974695 0.059890196 0.016362321 8749674
0.22119613 0.062194701 0.01580381 8749419
0.22269011 0.064627692 0.016452245 9012337
0.22576083 0.067176521 0.015964095 8814703
0.22763526 0.068785049 0.01570702 8814959
0.22970165 0.070668288 0.015817814 8946538
0.23325509 0.075282566 0.015937146 8946287
0.23585349 0.077566288 0.016514074 9209457
0.2372327 0.080032982 0.017136212 9341296
0.23904359 0.082101643 0.017076273 8881267
0.24144711 0.084847465 0.016996603 8814441
0.2432909 0.086953551 0.016935512 9012075
0.24506916 0.088984489 0.016876642 9012071
0.24691291 0.091090932 0.01681561 9867632
0.24869083 0.093122013 0.016756672 9999224
0.25053477 0.095228314 0.0166956 9933687
0.16779253 0.0033164218 0.015409163 8749427
0.17544515 0.014316808 0.016081583 8551783
0.17725483 0.016097933 0.015231936 9275500
0.18019557 0.018524423 0.015777409 9998973
0.18200655 0.020593056 0.015717421 9736070
0.18381737 0.022661783 0.015657451 9472891
0.18515241 0.026278267 0.015647072 9472884
0.18693043 0.028309455 0.015588175 9736321
0.18987577 0.029582592 0.015456733 9736064
0.19152959 0.031682298 0.014025872 10130564
0.19338037 0.033572473 0.014359052 9736318
0.19596705 0.036503315 0.015111835 9736317
0.19781692 0.038505599 0.015082375 9670524
0.19935921 0.040353756 0.014584984 9802112
0.20169628 0.043923106 0.014159053 9604483
0.20377028 0.045455076 0.014996481 9670534
0.2052913 0.047767803 0.014610509 9670528
0.20740506 0.050757889 0.014204941 9013367
0.20986177 0.052413225 0.014794736 8946803
0.21134983 0.054688416 0.014409819 8748911
0.21333517 0.056649506 0.014369237 8748655
0.21468173 0.059070304 0.013963853 8815211
0.21705619 0.061840728 0.013851625 8749416
0.21887125 0.063971199 0.013757986 8946534
0.22068205 0.066040106 0.013697944 8880742
0.22308557 0.068785772 0.013618388 8880745
0.22492966 0.070892006 0.013557314 8814441
0.22704671 0.072735243 0.013822754 9011561
0.22980085 0.074105255 0.014701159 9208940
0.23125918 0.076068245 0.014875374 8945771
0.16219851 0.0025027734 0.013332163 8484963
0.1649671 0.002901773 0.01439019 8814445
0.17248249 0.013684344 0.013717434 8354670
0.17395358 0.01545138 0.013618351 8683367
0.18743019 0.032333173 0.013558126 9538939
0.18924092 0.03440186 0.013498199 9670528
0.19105189 0.036470387 0.013438188 9801859
0.19289565 0.038576704 0.013377109 9736574
0.19533238 0.041359983 0.013296376 9736315
0.19717608 0.043466318 0.013235332 9736319
0.19836123 0.044820245 0.013196037 9538940
0.35692969 0.22389443 0.0053214058 7101233
0.36028355 0.22813804 0.0053656762 7364148
0.36354035 0.23249263 0.0062953364 7232557
0.15993749 0.0014469809 0.011790878 7299900
0.16948274 0.01327187 0.010937846 8552566
0.35223442 0.22247334 0.0048272032 7169621
0.35414451 0.22433525 0.0052143605 6904112
0.35556564 0.22667474 0.0050137704 7166769
0.35820293 0.22895086 0.0057294229 7364149
0.36061063 0.23117954 0.0055142064 7364408
0.15441042 0.00064452051 0.0098159872 5786395
0.15591575 0.001590724 0.0099532139 6312994
0.16433394 0.012162418 0.0097768931 9341568
0.16649267 0.013528802 0.0089832665 9143931
0.34813133 0.22236849 0.0034126127 9868427
0.35112751 0.22497174 0.0048467168 6642232
0.15376143 7.7912511e-05 0.0073607583 6312497
0.16097409 0.011991376 0.0078818705 9275000
0.16312872 0.01245697 0.00646766 9078400
0.16399612 0.014239659 0.007032482 9407111
0.15931374 0.012048222 0.0055664191 9143151
0.1607421 0.013975566 0.0051270323 9275525
0.15595703 0.011875589 0.0037183478 8813928
0.15126882 0.011064619 0.0015534847 8682349
0.1535015 0.011771063 0.001631232 8813168
0.37078685 0.19849814 0.033782862 11052962
0.37209827 0.19960007 0.033442639 10723996
0.35032061 0.17741843 0.032196343 10592149
0.3515645 0.18039663 0.032632317 10526356
0.35396457 0.18141757 0.032566778 10657942
0.35514894 0.18385965 0.033343758 10657942
0.35774493 0.18614635 0.033554547 10789273
0.3600769 0.18852663 0.033609714 10921114
0.36163601 0.19071512 0.033518374 11052701
0.36341521 0.19252209 0.033788852 11118495
0.3657234 0.1950521 0.033708781 11052706
0.36820528 0.19684923 0.033462193 10987169
0.28627896 0.10840689 0.032823905 8619387
0.29967061 0.12390028 0.031606525 8815991
0.30284134 0.12750642 0.031642813 8815738
0.31024262 0.13617514 0.031404722 9013630
0.31195208 0.13681088 0.031588212 9079165
0.3151665 0.14078008 0.031704396 9079164
0.32780781 0.1553521 0.031077173 9079163
0.33110544 0.158142 0.031999391 9539714
0.33139211 0.16127685 0.031870212 9803144
0.33391222 0.16226193 0.031901274 10131598
0.33626056 0.16326524 0.031945165 10263185
0.33820879 0.16700552 0.031788997 10263441
0.3402361 0.16953638 0.032036234 10328976
0.34358203 0.17155665 0.032338548 10394770
0.34454477 0.17389017 0.031851005 10395028
0.34568164 0.1766848 0.031886522 10460563
0.34801123 0.17837535 0.032155562 10526356
0.34995997 0.18291825 0.032191381 10526358
0.35178533 0.18345648 0.03250521 10657942
0.35411015 0.18622959 0.033283211 10723994
0.28445709 0.11078697 0.032393683 8553334
0.28760245 0.11280645 0.031953763 8684663
0.28951055 0.11493871 0.031676121 8816248
0.29045811 0.11746445 0.031243231 8618869
0.29359058 0.11871585 0.031440683 8619122
0.29456758 0.12078749 0.031510912 8750453
0.2970666 0.12369718 0.031571772 8815992
0.29838419 0.12621751 0.031419974 8947836
0.30086219 0.12710564 0.031415369 8947325
0.30246976 0.13093305 0.030860621 8815996
0.30600852 0.13209456 0.031038083 8815993
0.30748665 0.13532332 0.031146534 8947834
0.3104133 0.13940792 0.031145092 8881789
0.31257761 0.14183055 0.031036194 9013372
0.31447688 0.14441122 0.030667797 9079165
0.31680503 0.14672935 0.030756664 8750199
0.31881538 0.14925188 0.03059116 9013626
0.31951222 0.15121512 0.030701306 9210750
0.3221167 0.15243337 0.03062769 9013627
0.32434222 0.15529101 0.030930962 8816249
0.32704994 0.15741809 0.031305756 8882041
0.32868829 0.16044272 0.031502504 9211003
0.33254364 0.16465043 0.031687424 10131598
0.33457321 0.16592219 0.03137261 10197646
0.33643612 0.16895753 0.031837568 10328978
0.34041002 0.17358823 0.03185077 10329234
0.3417536 0.1743978 0.031569485 10395026
0.36230943 0.19965209 0.028535619 11184547
0.36344704 0.20090055 0.02799987 11315874
0.36514753 0.20220101 0.027922235 11447462
0.28626278 0.11517037 0.031772375 8816252
0.28909644 0.12036397 0.030537501 8487540
0.29168138 0.12051988 0.031423155 8684402
0.29454234 0.12452919 0.0314239 8947320
0.29879117 0.12989157 0.030590728 8881530
0.30121613 0.13328807 0.03067293 9078912
0.30339044 0.13443772 0.030521218 8750459
0.30688089 0.13810509 0.030856032 8947835
0.31074816 0.14249878 0.030940015 8947580
0.34774265 0.18473834 0.028011471 10788502
0.34892806 0.18609218 0.027972177 10854542
0.35030019 0.18815272 0.027375583 10789008
0.35281926 0.19068357 0.027186193 11117714
0.35485452 0.1928626 0.02777585 11775377
0.35588583 0.19579434 0.027062163 11315613
0.35902449 0.19737838 0.027452305 11250339
0.35975695 0.19920377 0.027708985 11250340
0.36227995 0.20196044 0.027786702 11315615
0.36551911 0.20444287 0.027048025 10525070
0.36662391 0.2062085 0.027311802 6444354
0.19240628 0.011006936 0.031188127 9605514
0.19480626 0.013090271 0.031074859 9342342
0.19738369 0.015820878 0.031136144 9276548
0.19963804 0.018147206 0.030414861 9342341
0.20048285 0.020163309 0.029180486 9539464
0.20719755 0.027964888 0.028749559 9539719
0.23612341 0.062046546 0.028109398 8815481
0.24225412 0.068656296 0.028531652 8815737
0.24394444 0.070355736 0.028148778 8749944
0.24582462 0.072157048 0.027826838 8815738
0.25364071 0.081118107 0.027285222 8815477
0.26611042 0.095707916 0.02667078 9802119
0.26967993 0.10044605 0.027354632 9802377
0.27112508 0.10157002 0.027218483 9539206
0.29451388 0.126543 0.026669499 8946808
0.30742925 0.14286011 0.025726043 9209723
0.31540602 0.15129748 0.025723178 9209978
0.32099825 0.15784369 0.026039604 9144440
0.32364887 0.15911867 0.02624841 9407351
0.32718691 0.16544835 0.025852326 10394254
0.33003438 0.16661897 0.026114546 10525840
0.3308444 0.16997413 0.026451949 10525841
0.33266419 0.17195302 0.025856405 10525840
0.33567607 0.17410378 0.025914896 10657164
0.33742794 0.17620412 0.025931034 10723207
0.33883503 0.17895894 0.025875118 10723213
0.34108359 0.18049619 0.026050117 10657162
0.34315214 0.18287186 0.025633294 10788749
0.34463343 0.18547067 0.025880303 10657428
0.34634823 0.1873115 0.02576042 10854804
0.3490189 0.19056618 0.02608062 10855063
0.35128957 0.19197904 0.025682587 10986642
0.35240829 0.19415353 0.025949597 11117971
0.3542327 0.19696483 0.025166042 11446935
0.3561731 0.19856843 0.024821423 11512986
0.35846335 0.20065613 0.024988111 11184025
0.36015105 0.20374568 0.024320535 11381406
0.3618992 0.20517308 0.02470478 11183777
0.36465922 0.20748353 0.025720268 8155219
0.18421873 0.0070167221 0.029189941 8815990
0.18712611 0.0080095679 0.029725753 9407617
0.18890731 0.0099224197 0.03026557 9802635
0.19539896 0.018278498 0.030755557 9342342
0.19671458 0.020092202 0.029871099 9407877
0.1980481 0.022025233 0.029060278 9473671
0.20055774 0.023484265 0.02907243 9473927
0.20292373 0.025651013 0.028515149 9539464
0.20469111 0.028550185 0.028272968 9539463
0.21088232 0.035332564 0.027313579 9473928
0.21627347 0.042165563 0.026873574 9079171
0.22256868 0.049932431 0.026329536 8552310
0.22394791 0.050981008 0.026195437 8552566
0.22821765 0.055769812 0.026831299 8618101
0.23115613 0.058257405 0.027130637 8684151
0.23274705 0.060477622 0.02794246 8881529
0.23458801 0.061264005 0.028121587 8815737
0.2363027 0.064859301 0.027374268 8947065
0.23900294 0.066778414 0.027612645 8815736
0.24076793 0.07271976 0.027530488 8815738
0.2445471 0.075258359 0.027452786 8815737
0.24671037 0.077595741 0.026667409 8683894
0.24898294 0.078283578 0.027309112 8683896
0.25057253 0.079999246 0.026721187 8618100
0.25260407 0.083359227 0.027433094 8947064
0.25521749 0.084928811 0.027512349 8881530
0.25593424 0.087512933 0.027086068 9144445
0.25844386 0.089623652 0.027037047 9670788
0.25984135 0.092020042 0.026567977 9736584
0.2620866 0.09414167 0.026928134 9802119
0.2642808 0.096259192 0.027126282 9736582
0.26593179 0.098798268 0.026998624 9868169
0.2670033 0.099971689 0.026465002 9868170
0.27017534 0.10380463 0.026721418 9670792
0.27214053 0.10497572 0.026337087 9539205
0.27326077 0.10777812 0.02613765 9934219
0.27549079 0.1101263 0.02545426 9539462
0.27865323 0.11201004 0.025434125 9078656
0.28051519 0.11525919 0.02636718 8815481
0.28127721 0.11741068 0.025001299 8881272
0.2843875 0.11927681 0.025090538 8881014
0.28592873 0.12165501 0.025272716 8749428
0.28784433 0.12384481 0.025670372 8881013
0.290418 0.12518829 0.025922332 9012598
0.29102221 0.12784915 0.025896657 9012855
0.2929146 0.13122489 0.025235806 9144186
0.29516131 0.13271323 0.025196534 9012601
0.29746523 0.13421708 0.025118418 9012601
0.30060261 0.13618723 0.025031969 9078392
0.30105793 0.13964708 0.025149655 9144181
0.30304784 0.14141731 0.024783462 9275768
0.30799279 0.14587371 0.025182977 9341561
0.3092351 0.14843684 0.025002383 9144444
0.31151572 0.1508753 0.025134113 8881269
0.31287569 0.15285371 0.025918793 9209976
0.31523728 0.15535243 0.025231078 9341562
0.31810001 0.15651602 0.025704809 9210235
0.31900081 0.16090393 0.025431655 9144182
0.3215445 0.16233627 0.025546849 9209973
0.32355046 0.1639602 0.025209967 9670526
0.32520768 0.16624101 0.025522523 10196872
0.32755405 0.16904591 0.025768146 10460045
0.32965669 0.17090024 0.024060771 10525316
0.33130378 0.17278774 0.024266537 10460035
0.33314881 0.17549594 0.024215832 10591625
0.33509949 0.17774741 0.02413772 10657164
0.33627465 0.1803747 0.023384854 10722953
0.33885115 0.18242367 0.023600914 10723213
0.34113914 0.18451811 0.024311624 10723473
0.34277564 0.18763217 0.023707643 10656909
0.3473525 0.19069758 0.024619304 10854543
0.35515627 0.20113537 0.024198424 11578520
0.35762092 0.20303831 0.02363731 11184024
0.36159056 0.20772806 0.02403108 9999502
0.18218558 0.0062577026 0.028741606 8552820
0.18296613 0.0065667499 0.026284944 8487029
0.19926965 0.027304418 0.027942646 9473927
0.20111069 0.028090836 0.028121758 9539465
0.20196253 0.029326109 0.027676664 9539720
0.20533901 0.03193891 0.027168982 9539719
0.20794882 0.034096051 0.026771516 9473928
0.20959821 0.037541699 0.026532061 9473671
0.21060063 0.039536834 0.026266992 9473927
0.21327102 0.041513022 0.026804976 9144964
0.21514033 0.044338707 0.026340336 8552824
0.21719924 0.046157446 0.025923498 8355700
0.21911645 0.048293047 0.026023686 8552568
0.21993451 0.050639067 0.026185133 8618104
0.22240366 0.053325083 0.026027992 8618359
0.22485769 0.054704234 0.026183292 8618101
0.22638118 0.057517715 0.027090345 8618357
0.22845131 0.059026126 0.026993431 8618103
0.23271514 0.064605989 0.027230296 8881273
0.24204449 0.074637353 0.026758701 8815481
0.24486932 0.076809287 0.026488289 8749942
0.24678598 0.08020293 0.027173981 8618357
0.24840428 0.081894144 0.026618619 8683892
0.26673108 0.10287206 0.026580349 9868169
0.27404904 0.11264533 0.02524991 8881531
0.27638203 0.11412448 0.025204271 8749689
0.28039086 0.11985756 0.025322434 9144186
0.28218397 0.12068801 0.025577441 9078650
0.28372726 0.12159467 0.025497939 8815478
0.28795883 0.12746681 0.025675762 9144440
0.29557371 0.13614024 0.025174446 9012858
0.29811338 0.13855447 0.024648603 8881013
0.30229899 0.1436177 0.025334913 9209977
0.30433452 0.14554706 0.024970785 9078392
0.30987984 0.15194383 0.023299627 9276002
0.31149727 0.1542213 0.022302728 9341035
0.31396639 0.15687715 0.022250999 9472367
0.31587318 0.15889487 0.022182532 9406827
0.31751105 0.16072959 0.021819606 9274984
0.32217392 0.16825785 0.021832671 10393738
0.32594761 0.17029871 0.022767335 10591117
0.32863227 0.17480798 0.023222681 10525574
0.33052638 0.17666662 0.023008011 10657418
0.33820397 0.18456434 0.022866607 10788746
0.3394472 0.18586965 0.022892501 10656902
0.34073842 0.18713075 0.02284262 10788488
0.17735882 0.0065496359 0.026043881 8421496
0.17999989 0.0063366271 0.025069267 8553082
0.20531113 0.036129095 0.026423037 9473927
0.28312191 0.12377804 0.022917908 8815211
0.28489983 0.1258091 0.022858981 9407602
0.28608522 0.12716313 0.02281975 9275498
0.29073244 0.13352846 0.020466648 9078384
0.29295817 0.13546449 0.021472186 9274981
0.29467547 0.13720509 0.02178622 9077864
0.29686236 0.13988298 0.021235082 9012590
0.29859695 0.14145611 0.022405267 9275763
0.3007355 0.14462233 0.021956488 9604469
0.30243972 0.14658582 0.021912426 9012342
0.30450204 0.14836958 0.021913853 9407093
0.3065173 0.15121993 0.021514092 9078124
0.30767217 0.1541332 0.020691659 9143908
0.30881724 0.15692379 0.020844687 9472879
0.31077212 0.15893473 0.020843502 9538676
0.31268504 0.16084823 0.020806644 9341039
0.31624866 0.16284348 0.021459118 9275249
0.31841823 0.16484448 0.021489691 9472622
0.32061255 0.16669898 0.021797281 10130810
0.32309374 0.16943966 0.021593798 10722704
0.32421392 0.17104866 0.021496601 10591118
0.17423338 0.0056054061 0.022900894 9013377
0.17732336 0.0058618658 0.024179582 8750462
0.27542287 0.11843627 0.021159526 8880744
0.27723387 0.12050498 0.021099497 8880237
0.2790117 0.122536 0.021040648 9012079
0.27968955 0.12663846 0.01947337 8815214
0.28192103 0.12870927 0.019194525 9078383
0.28547302 0.12988253 0.020187065 9012328
0.287323 0.13188471 0.020157557 9143663
0.28837216 0.13472624 0.020319086 9012088
0.29001758 0.13645829 0.020460729 8946544
0.29222929 0.13847509 0.020772494 9143659
0.29425243 0.14080097 0.019949306 9012592
0.29736412 0.14368273 0.020722412 9209972
0.30505729 0.15421578 0.020241678 8815208
0.16988765 0.0043267398 0.021819305 9210754
0.17191777 0.0046602213 0.021260716 9144961
0.23876582 0.081243321 0.018060513 9012339
0.24077345 0.083207853 0.018054038 8814703
0.25775313 0.10243515 0.018975358 9999230
0.26015902 0.10402356 0.019176487 9999230
0.26196396 0.1057611 0.018975914 9670533
0.26316315 0.10878417 0.017312374 9275756
0.26580372 0.11021331 0.017952483 9341292
0.27161679 0.11770654 0.019395802 8881262
0.27372193 0.12034217 0.019499198 8815212
0.27478307 0.12310829 0.018558033 8946545
0.27676198 0.12509705 0.018518977 8881010
0.28135923 0.13079537 0.019161642 9341296
0.28184649 0.13286462 0.018131688 9078122
0.28469521 0.13412036 0.019070521 9209712
0.16642384 0.0038955717 0.019284684 8881529
0.16908266 0.0040260628 0.019242138 8881530
0.17750897 0.016565129 0.01838566 9933440
0.1804841 0.017973645 0.019249659 10065032
0.18237303 0.019909445 0.01925065 9539204
0.18397203 0.023133317 0.018250931 9407359
0.18586102 0.025068775 0.018251929 9473146
0.18716003 0.026454119 0.018134739 9736318
0.19035318 0.029772542 0.018089034 9604738
0.19258372 0.032845169 0.017181419 9670533
0.20109984 0.043349668 0.017634138 9670784
0.20303689 0.045241185 0.017559394 9670782
0.21910502 0.064150207 0.017825633 8617837
0.22107483 0.066079222 0.017749723 8946546
0.22299697 0.068052605 0.01774963 9078132
0.22564518 0.070649989 0.017647732 9143922
0.22762011 0.072576635 0.017642312 9078127
0.22959495 0.074503362 0.017636925 9143921
0.23159775 0.076470174 0.017560005 8880752
0.23460408 0.078769594 0.01799022 9012336
0.23627906 0.080870464 0.017231625 9143661
0.23931277 0.087909132 0.01689484 8749165
0.24067004 0.089245223 0.01684279 9077868
0.24337652 0.091793723 0.016805973 9012583
0.24461967 0.093098804 0.01683205 9407341
0.24662258 0.095065422 0.016755093 9736309
0.25128704 0.099431507 0.017029699 9933434
0.25351 0.10118189 0.01728452 9867643
0.25719431 0.10659575 0.018372618 10065280
0.25928983 0.10877356 0.017681319 9867910
0.2615917 0.11078257 0.017395373 9867635
0.26275897 0.11307566 0.017104816 9999225
0.26510724 0.11553856 0.017067067 9933954
0.26717639 0.11729638 0.017132174 9407619
0.26880732 0.11860903 0.017662756 8881262
0.16462086 0.0028452787 0.01803017 8683894
0.17329019 0.013851384 0.017495807 8683124
0.17564867 0.01460506 0.018417221 9209455
0.17823045 0.020153314 0.017212063 9867908
0.18000855 0.022184199 0.017153155 9604738
0.18735527 0.029045923 0.01714287 9604737
0.19074886 0.032940969 0.01781125 9670274
0.19115154 0.037022196 0.017137568 9736324
0.19548501 0.038434312 0.017869767 9736577
0.19679427 0.039814845 0.017893545 9670525
0.19817653 0.041958597 0.016660731 9670782
0.20455395 0.048535839 0.01653238 9276285
0.20659147 0.051567648 0.016417254 8486762
0.20847434 0.053607259 0.016386654 8617058
0.21052907 0.055485543 0.016350325 8814444
0.21223503 0.057689253 0.016255025 8682864
0.21332793 0.06012553 0.016357441 8880748
0.21648444 0.062636979 0.01718124 8749422
0.21755189 0.06518665 0.015842348 8749673
0.21936271 0.067255445 0.015782349 8881002
0.222441 0.069563076 0.016385112 9012332
0.22361027 0.072107427 0.015641697 8946283
0.22542112 0.074176013 0.015581689 9077870
0.22782455 0.076921619 0.015502055 9011563
0.22966845 0.079028003 0.015440951 8814707
0.23267205 0.080157094 0.016683735 9077867
0.23451582 0.082263313 0.016622707 9012061
0.23605992 0.084455416 0.016585696 8814945
0.23749158 0.087439835 0.016015559 8683369
0.2405742 0.08918409 0.016421996 9078371
0.24171926 0.091402359 0.015941273 9078374
0.24419607 0.093321435 0.016302034 9210214
0.24600691 0.095390111 0.016242068 9999467
0.24819194 0.098383546 0.015813731 9933686
0.16062172 0.0027011302 0.016110454 8946546
0.17011528 0.014657962 0.015939184 8551277
0.17255795 0.017224956 0.015460809 9472366
0.17433585 0.019256201 0.015401891 9999236
0.17920882 0.024822816 0.015240458 9407106
0.18046007 0.026251985 0.015198934 9538691
0.18227099 0.028320802 0.015139003 9604733
0.18408209 0.030389357 0.015079004 9736320
0.18589278 0.03245813 0.015019012 9538942
0.18770367 0.034526926 0.014958988 9736064
0.19153361 0.036348607 0.014605782 9802118
0.19171917 0.038754605 0.016090855 9736578
0.19804223 0.046337191 0.014616502 9670777
0.19988632 0.048443396 0.014555392 9736567
0.20169726 0.050512124 0.014495463 9341810
0.21381788 0.0644155 0.014060329 8617837
0.22050563 0.072112992 0.01380526 8946283
0.15533209 0.0014019771 0.013321915 7563587
0.15769702 0.00266356 0.013621445 8813925
0.16683923 0.014457166 0.01325705 8552050
0.18701819 0.037196305 0.012968301 9736326
0.18820322 0.038550466 0.012928992 9867912
0.1900471 0.040656891 0.012867882 9736572
0.19248351 0.043440189 0.0127872 9736316
0.19432761 0.045546439 0.012726109 9736316
0.35536695 0.22873069 0.0057342304 7364148
0.35886267 0.23311995 0.0059153261 7298355
0.36108974 0.23357339 0.006268722 7100968
0.15630686 0.0021093027 0.012141294 7760970
0.16366695 0.013152845 0.012339531 8881267
0.16556895 0.015284095 0.011069309 8617841
0.34878293 0.22529906 0.0049529197 6971716
0.3506389 0.22727172 0.0052412869 7035693
0.3526791 0.22992426 0.0054916553 7298607
0.3552587 0.23148903 0.0059042741 7364147
0.16123536 0.012230708 0.01028268 9275519
0.16149142 0.014100854 0.0091562197 9144180
0.16267687 0.015455102 0.0091169076 8881009
0.34620148 0.22368173 0.0041960035 8749947
0.34561321 0.22593348 0.0044896491 6708554
0.14605464 0.0003143996 0.0074898545 6246957
0.14917967 0.0017482092 0.0091597112 5918242
0.15771559 0.013499117 0.0073591033 9209724
0.34288263 0.22350241 0.0032552932 9868950
0.14388473 0.00075034285 0.0074455272 6180908
0.15476017 0.013071573 0.0057815658 9209460
0.14084484 0.00032084572 0.006299424 6378292
0.14862528 0.010981326 0.0036889263 8748137
0.15104955 0.01181031 0.0046081366 8814686
0.15163334 0.013396789 0.0035908027 9077595
0.14594495 0.011488864 0.0021581477 8945513
0.14837961 0.013132686 0.0016852394 8880215
0.36635193 0.19673121 0.036095899 10789791
0.3596617 0.19277498 0.035399407 10986907
0.36253279 0.1942113 0.035609644 11118494
0.36430565 0.1965438 0.036624983 11052704
0.36633795 0.19794224 0.036172587 10395286
0.36842158 0.19887871 0.035098158 10526872
0.35042161 0.18519276 0.032872345 10658199
0.35237658 0.18688412 0.033321466 10723992
0.35530525 0.18892223 0.033854987 10723737
0.356525 0.19083551 0.034281015 10855321
0.32594615 0.15964845 0.03135154 8947579
0.32841402 0.16307771 0.031573687 9408126
0.33091027 0.16408497 0.031642679 9934219
0.33282956 0.16784976 0.031453915 10131340
0.33524606 0.17159131 0.031725466 10394771
0.33769536 0.17250365 0.031688292 10394770
0.33795774 0.17501113 0.032107305 10395027
0.34108055 0.17659408 0.031973697 10460821
0.34272549 0.17914331 0.03201228 10460820
0.34565359 0.18136576 0.032019924 10592148
0.34671357 0.18332681 0.032317013 10526358
0.34854296 0.18596959 0.032747634 10657943
0.35081705 0.18739218 0.033555482 10723736
0.35958442 0.20026891 0.031728443 11250341
0.36137545 0.20122823 0.031774987 10526361
0.28214774 0.11286632 0.032094449 8685177
0.28455338 0.11453441 0.031588864 8881787
0.28708282 0.11934037 0.030717418 8684663
0.2893762 0.12266108 0.031090286 8684660
0.29146251 0.12442461 0.031118825 8947834
0.2933805 0.12680861 0.031404506 8947579
0.29572296 0.12852789 0.030763209 8947582
0.29921874 0.13276775 0.030371837 9144702
0.30155692 0.13631213 0.030642539 8815996
0.30359805 0.13799463 0.031085405 8816247
0.30508521 0.14001468 0.031046774 9013626
0.30738375 0.14238946 0.031050894 8881785
0.30944645 0.14489788 0.030828021 9145212
0.31264329 0.14628568 0.030788999 9079421
0.31392869 0.149681 0.030810259 8881529
0.31540325 0.15157925 0.030768517 9276540
0.31706968 0.15345049 0.030995965 9408129
0.31937054 0.15582439 0.031035442 8882043
0.32122713 0.15893874 0.030977286 8750456
0.32357356 0.16057163 0.031290416 8881786
0.32587799 0.16223861 0.031513114 9079160
0.32650641 0.16514714 0.031600308 9276539
0.32939655 0.16659549 0.031265825 9539715
0.33117285 0.16970399 0.03163293 9671300
0.33352095 0.17070705 0.031676713 10328719
0.33533388 0.17391562 0.032009058 10395028
0.33913106 0.17856628 0.031964477 10395029
0.34319252 0.18272908 0.032239735 10526356
0.35703254 0.19899571 0.029975925 11315873
0.35996836 0.19961616 0.029977292 11250341
0.3614116 0.20086871 0.029632621 11052963
0.18865953 0.011342295 0.032777179 9539979
0.19081563 0.012841587 0.032673817 9276806
0.19320944 0.014398438 0.032555595 9210755
0.280415 0.1160135 0.031009473 8816250
0.28239647 0.11732952 0.0307706 8816252
0.28489751 0.11833454 0.030910164 8947582
0.28491762 0.12136181 0.030476999 8684665
0.28732106 0.1221896 0.030723959 8618868
0.28917611 0.12510084 0.031256247 8947833
0.29133329 0.12957251 0.030541874 8816252
0.2934719 0.13055836 0.030529182 8750715
0.2962639 0.13269629 0.030390099 9013370
0.29829329 0.13491334 0.030579608 9079166
0.30089977 0.13836226 0.031076208 8816250
0.30399042 0.14230506 0.03112936 9013370
0.30785504 0.14754122 0.030390214 9079163
0.31034714 0.14848636 0.030492894 8947580
0.31298506 0.15170726 0.030944306 9144699
0.34066164 0.18188445 0.027568266 10722952
0.34243962 0.18391562 0.027509339 10854271
0.34378585 0.18634439 0.028132673 10722693
0.34556395 0.18837546 0.028073758 10985866
0.34793454 0.19108346 0.027995277 10986122
0.34954569 0.1934282 0.027603883 10986126
0.3515304 0.19549173 0.027832843 11117970
0.35387492 0.19771524 0.028020337 11315331
0.35557327 0.19980963 0.027742162 11381402
0.35778314 0.20144305 0.027001131 11249820
0.36015379 0.20415105 0.026922621 10920862
0.18547657 0.0097603546 0.031124219 9736843
0.18973497 0.014794691 0.033028018 9144963
0.19112568 0.016675426 0.031360246 9210754
0.19321395 0.018721424 0.030499615 9342084
0.23872866 0.070408486 0.028378822 8947324
0.25013205 0.084472165 0.027858082 9144443
0.25186503 0.085480325 0.027839385 9012858
0.25736573 0.092751682 0.027477179 9276028
0.26011658 0.094724499 0.027276319 9604995
0.26428005 0.10065025 0.027248148 9868169
0.30027583 0.1407661 0.026377119 9144183
0.30144113 0.14212957 0.026055783 9144440
0.308375 0.14968878 0.026168786 9210237
0.31185061 0.1553558 0.026251707 9604991
0.31400451 0.15698399 0.025940061 9341565
0.31658211 0.15838967 0.026158296 8947064
0.31750759 0.15982443 0.02564365 8947060
0.32161903 0.16605185 0.025274474 9407099
0.32341209 0.1668825 0.025529329 9867907
0.32810324 0.17262113 0.025812052 10525584
0.33044162 0.17429304 0.02570156 10525838
0.33261862 0.17624816 0.025895514 10657671
0.33343327 0.17865215 0.025669072 10657419
0.33589712 0.18059124 0.025570262 10722955
0.33743888 0.18313494 0.026118472 10723212
0.33970404 0.18618287 0.026170932 10854795
0.3417004 0.1882467 0.02619807 10854795
0.34370092 0.19036473 0.025760993 10854805
0.34591022 0.1923438 0.025627222 10920593
0.34774086 0.19444257 0.026441604 10920853
0.34938452 0.19787344 0.026273105 11183763
0.35125464 0.19928482 0.025974397 11052421
0.35367838 0.20186125 0.026005987 11447192
0.35624248 0.20394404 0.025491018 11184286
0.35943574 0.20726262 0.025445264 9605772
0.17987768 0.0075981109 0.029753622 8947066
0.18201067 0.0089099454 0.030118562 9473154
0.19126903 0.019092891 0.030437153 9342083
0.19421673 0.02200566 0.029615145 9473670
0.19644597 0.024418162 0.02882766 9539463
0.19705665 0.027057955 0.028268866 9539461
0.20196223 0.031862829 0.028044421 9539462
0.21065837 0.042024564 0.02669996 9210758
0.22307415 0.056405645 0.026437122 8552822
0.22368743 0.058821298 0.027395621 8683893
0.22626409 0.060940873 0.026999291 8618102
0.22997846 0.063339986 0.027027886 8947069
0.23386452 0.068257608 0.02741152 9078909
0.23460783 0.070014186 0.027913384 8815995
0.23779386 0.072569661 0.028835885 9013116
0.23882064 0.074562989 0.027729638 8881275
0.24107938 0.077406101 0.027391672 8683895
0.24375328 0.07896816 0.027513739 8618358
0.24500242 0.081904538 0.027427733 8749944
0.24668303 0.083608598 0.026904013 8815477
0.24795279 0.086510919 0.027796589 9078652
0.25089678 0.087688513 0.027390178 8815481
0.25284034 0.090322755 0.027150419 8947064
0.25533491 0.091863677 0.027237251 9144442
0.25820756 0.093991593 0.026891094 9538945
0.25841567 0.098048486 0.026372325 9736581
0.26060039 0.099523634 0.026301593 9802374
0.26182094 0.10292882 0.027001575 9868170
0.26416665 0.10360947 0.026550304 9868169
0.26583314 0.10617653 0.026327964 9999755
0.26812008 0.10854058 0.025605619 9736842
0.27057281 0.10998409 0.025656648 9539463
0.27266982 0.11159688 0.025383927 9144704
0.27701494 0.11685064 0.025994454 8946807
0.2787717 0.11888057 0.025263119 9012601
0.28000471 0.12272685 0.025515899 9012601
0.28245464 0.12404424 0.025704727 8815222
0.28591084 0.12574559 0.025976874 8946804
0.28848806 0.13177578 0.025213499 9144186
0.29056519 0.13347261 0.024945009 9144187
0.29293194 0.13492508 0.025002427 9078394
0.29360521 0.13813221 0.025273792 9209982
0.29664174 0.14019316 0.025268305 8946808
0.29766062 0.1433107 0.02600858 9078647
0.29967862 0.14512068 0.025570717 9144185
0.30174661 0.14675772 0.025265448 9078391
0.30485663 0.14849676 0.02630803 9341564
0.30589458 0.15211582 0.025822286 9144188
0.30790076 0.1537399 0.025485456 9012854
0.31023142 0.15437868 0.026192412 9341819
0.31137142 0.15940921 0.025497857 9407360
0.31377494 0.16096154 0.025520537 8946807
0.31599984 0.16266231 0.025277175 9012597
0.31946 0.16442597 0.025515623 9209720
0.31890664 0.16763043 0.025341835 9275512
0.3220793 0.16950957 0.025462668 9670527
0.32518882 0.17129004 0.024875466 10327942
0.32621655 0.17336215 0.024977531 10262662
0.3279914 0.17633109 0.024765532 10525836
0.3298701 0.17882553 0.024473652 10591627
0.33251852 0.18067457 0.024240505 10723214
0.33339944 0.18304531 0.024405427 10722956
0.33627826 0.18513562 0.024547067 10723211
0.33864954 0.1867402 0.024254605 10920070
0.33933964 0.18882096 0.025149431 10920331
0.34111679 0.19198194 0.025068838 10986379
0.34411019 0.19415939 0.025495972 11052175
0.34605592 0.19611068 0.025457989 11117970
0.34728938 0.19742055 0.025342904 11117972
0.17609949 0.0056694751 0.028728511 8552827
0.19367014 0.026367528 0.028308976 9473926
0.19652687 0.029291367 0.027422834 9473926
0.19824314 0.03146556 0.027373143 9539464
0.19880812 0.033939056 0.027344029 9539463
0.20199756 0.034696098 0.027107313 9473927
0.20333801 0.037729084 0.026616152 9473669
0.20580669 0.0400283 0.026859965 9407878
0.20734514 0.041917909 0.026907906 9144965
0.20978047 0.044200964 0.027118053 8487290
0.2121658 0.047090191 0.026855327 8420979
0.21408457 0.04894039 0.026331268 8552564
0.21573952 0.050689097 0.026579026 8552308
0.21817341 0.052866679 0.026915833 8815738
0.2197722 0.05587798 0.026600763 8552566
0.22153278 0.057906996 0.027092654 8552566
0.2245971 0.060007714 0.027015783 8683894
0.22575966 0.063162848 0.026505783 8815738
0.22758463 0.065363467 0.02683932 8815738
