# .PCD v0.7 - Point Cloud Data file format
VERSION 0.7
FIELDS x y z rgba
SIZE 4 4 4 4
TYPE F F F U
COUNT 1 1 1 1
WIDTH 1113
HEIGHT 1
VIEWPOINT 0 0 0 1 0 0 0
POINTS 1113
DATA ascii
1.8762677 0.68640113 -0.0014380217 8622258
1.9069867 0.71753246 -0.011144698 10989526
1.9127178 0.72317296 -0.012762427 10858199
1.9158375 0.72778463 -0.013954937 11381701
1.9182557 0.7264722 -0.014179587 11513031
1.9217595 0.73039854 -0.015424192 10790839
1.9217634 0.7334494 -0.015799642 11119044
1.9239583 0.73610425 -0.016496778 10330551
1.9261022 0.73490441 -0.016768336 10659516
1.8580244 0.66788667 0.0014627576 8425406
1.8607564 0.67361957 0.00032198429 8229304
1.8631685 0.67356884 -3.7193298e-05 8097718
1.8671048 0.67929924 -0.001290679 8359601
1.8979059 0.71007466 -0.012331188 10989521
1.903903 0.7165668 -0.012924671 11252691
1.912419 0.72463578 -0.017313361 10527156
1.9144111 0.72723281 -0.016538143 11184573
1.9176974 0.73064142 -0.016900897 10659000
1.8380605 0.65046036 0.004237175 10266325
1.8402386 0.65529448 0.0035384893 9938387
1.8427 0.65522134 0.0032632351 10004439
1.8477755 0.66083401 0.0017850995 9871323
1.8504584 0.66658932 0.00056040287 8950464
1.8529198 0.66651624 0.00028508902 8950464
1.8579955 0.67212898 -0.0011930466 8425147
1.88889 0.70273221 -0.01340574 10331856
1.895088 0.70996082 -0.013086975 10660811
1.9044678 0.71998602 -0.017935216 10920893
1.9060286 0.72017086 -0.017017007 10724283
1.9083035 0.72494739 -0.018740356 10527153
1.9113927 0.72593534 -0.017790675 11447244
1.8168715 0.63232541 0.0077797174 9807316
1.8306166 0.64916372 0.0032634735 10332372
1.8330095 0.64902133 0.0030099154 10332372
1.8375956 0.65385073 0.0020855665 10068946
1.8476975 0.66509873 -0.0009546876 10200288
1.8801779 0.69603503 -0.013533652 10067397
1.8857377 0.70169729 -0.015164018 9937088
1.8926878 0.70965016 -0.015370786 10658754
1.89482 0.71002513 -0.016483128 10132140
1.899348 0.71457905 -0.017090082 11119044
1.9021873 0.71996021 -0.018705189 10789558
1.8106887 0.63107288 0.0067910552 10399710
1.8130323 0.63095313 0.0064535141 10464733
1.8229475 0.64208478 0.0033727884 9873099
1.8253596 0.64203429 0.0030134916 10070478
1.8291454 0.64766014 0.0016418099 10464471
1.8458321 0.66464621 -0.0041461587 12304359
1.855911 0.67426443 -0.0080857277 11844062
1.8616031 0.68059373 -0.0087819099 11186128
1.8671136 0.68627846 -0.010496199 10331597
1.8696125 0.68560928 -0.010715008 10397390
1.8725554 0.69189405 -0.012188733 9936835
1.8750541 0.69122475 -0.012407601 10133192
1.8776751 0.69675022 -0.01318121 10198983
1.883435 0.70229846 -0.016150057 10461380
1.8845932 0.7036615 -0.015274882 10656965
1.8878336 0.70607102 -0.017128229 10066086
1.8894258 0.70830894 -0.016690373 10856139
1.8917896 0.70970273 -0.017884076 9804454
1.7998607 0.61929005 0.0076746345 11190250
1.8030882 0.62406325 0.0068786144 9874649
1.8054317 0.62394333 0.0065410733 9873886
1.809193 0.62958068 0.0051274896 10597349
1.8324684 0.65332603 -0.0028989911 12107238
1.8377922 0.65889478 -0.0046538115 12172508
1.8402722 0.66126466 -0.0053568482 12039370
1.8427484 0.66368061 -0.0059261918 12041181
1.8450551 0.66550934 -0.0079817772 12368338
1.8459674 0.66696322 -0.0059857368 12499665
1.8502254 0.67041171 -0.0095868707 12433878
1.8531424 0.67412823 -0.0087574124 12369383
1.8577945 0.67939216 -0.012222767 11250871
1.8759837 0.69641286 -0.017753422 10788026
1.880267 0.70057493 -0.018083453 9540010
1.8848567 0.70567995 -0.018578887 9473446
1.7887399 0.6116913 0.0074106455 11583991
1.7912065 0.61238742 0.0079932213 11848174
1.7948496 0.61797768 0.0065173507 10994927
1.8185859 0.64030379 -0.002279222 12301784
1.8237069 0.64522851 -0.003968358 12236760
1.8288708 0.65048587 -0.0060696602 11974617
1.8294342 0.65233815 -0.0045950413 12041442
1.8349638 0.65644062 -0.0053161979 12038859
1.8472157 0.67096078 -0.011361659 10657716
1.8510976 0.67546326 -0.012793124 11184828
1.8536289 0.67614925 -0.011120558 11185093
1.8574564 0.68003041 -0.014471889 12237014
1.8626059 0.68715781 -0.015944898 10264498
1.8644072 0.68838686 -0.016911805 11644106
1.8715905 0.69598079 -0.01905781 10526130
1.8790059 0.70256078 -0.018953264 10657978
1.7859206 0.60949987 0.0050874949 10400240
1.8107514 0.63540214 -0.0033345222 12369379
1.8155456 0.63986588 -0.0045384765 12370406
1.8163197 0.64150256 -0.0019361377 12630999
1.8162851 0.64390957 -0.0044848919 10921395
1.8212094 0.64583337 -0.0056720972 12040666
1.8239083 0.6460551 -0.0052935481 12107238
1.8264542 0.65138537 -0.0057778955 11909085
1.831614 0.65620738 -0.0069817305 12104907
1.8328884 0.65821159 -0.0089789629 10592176
1.8377244 0.66206741 -0.010608375 10724276
1.8413908 0.66567385 -0.011439085 10724534
1.8453259 0.67010784 -0.012920141 10986677
1.7833464 0.60812551 0.0036128163 10334719
1.7857245 0.61371785 0.0022854805 10137343
1.7883675 0.61516154 0.0037383437 10399458
1.803026 0.62914807 -0.0042210221 12963067
1.8048606 0.63338459 -0.0028547049 12897010
1.8085225 0.63522398 -0.0042750239 12961251
1.8113308 0.63744718 -0.0053291321 11316163
1.8132874 0.64026141 -0.0048914552 11582701
1.8154635 0.64250267 -0.0060455799 11053493
1.8187621 0.64596868 -0.0068764091 11778010
1.8226483 0.64978296 -0.0079590082 11053499
1.8254726 0.65278488 -0.011075556 10987958
1.8273718 0.65368378 -0.0095698833 10658742
1.8300295 0.65786755 -0.010367393 10658742
1.8319488 0.65675789 -0.010601819 10592691
1.7737206 0.60371494 0.0023725629 11979263
1.7831503 0.61234337 0.00081086159 10860543
1.8000069 0.62829775 -0.0058890581 12963327
1.8010533 0.62961477 -0.0043655634 13224431
1.8045352 0.63285172 -0.0064960718 11644872
1.8053026 0.6348995 -0.0062794685 13092318
1.8070154 0.63696516 -0.0073869824 11513799
1.8088559 0.63784063 -0.0059124231 11776969
1.7687929 0.59924811 0.00061881542 11585023
1.7805607 0.61083126 -0.0006916523 12110335
1.7976439 0.62847048 -0.0065178275 12370673
1.7682099 0.60259151 -0.0015950203 12110847
1.7708035 0.60405779 -0.00022614002 11781631
1.7944576 0.62771994 -0.0085867047 12303852
1.8018715 0.63520241 -0.011086345 11645890
1.7679105 0.60102785 -0.0033853054 12569343
1.7893322 0.62339616 -0.0087872744 14277100
1.7899476 0.62580848 -0.010645211 13554431
1.7990124 0.63485849 -0.012474835 11449029
1.7563682 0.59522724 -0.0031580329 8420735
1.7587116 0.59510714 -0.0034955144 8685422
1.7677144 0.60524577 -0.0061873794 12503551
1.7806332 0.61972654 -0.010254562 14080767
1.7830293 0.61914819 -0.010507762 14409727
1.7840892 0.62238991 -0.012226045 14474221
1.7875571 0.62482524 -0.01236099 13817599
1.7875574 0.62704992 -0.013312697 14342380
1.7913685 0.62889028 -0.015177608 12896218
1.7942276 0.62923449 -0.013789177 12107220
1.7956892 0.6338793 -0.014593959 12172494
1.7626786 0.60394448 -0.0073866844 10196876
1.7650714 0.60380214 -0.0076402426 13025975
1.7753434 0.61353713 -0.010828674 14409983
1.7774208 0.61772758 -0.012057245 14211573
1.7801129 0.61820692 -0.012141466 13883391
1.7820783 0.62157029 -0.014061511 14408687
1.7885783 0.62861556 -0.016587853 12829912
1.792899 0.63360465 -0.016004205 12304855
1.7647907 0.60696244 -0.012699306 10523522
1.7701149 0.6121363 -0.012953281 13683922
1.7724271 0.61259586 -0.012462378 15001853
1.7748636 0.61571032 -0.014606893 14407394
1.7746978 0.61793512 -0.013556421 14475519
1.7832712 0.6242156 -0.017029464 12894933
1.7866598 0.62781972 -0.018054664 12829652
1.7576857 0.6010229 -0.013151765 9930630
1.7621763 0.60688448 -0.013386488 8616033
1.7677375 0.61165261 -0.014185846 11838874
1.7699629 0.6132853 -0.016662657 10590077
1.7715688 0.61694616 -0.01555413 10656656
1.7770312 0.62033623 -0.017378688 13290451
1.7794259 0.62446052 -0.018275857 13224407
1.7547061 0.60098815 -0.014089108 10917521
1.7559355 0.60177821 -0.013052225 11310988
1.7603998 0.60589516 -0.014333785 7954772
1.7652354 0.61074877 -0.016231418 10978944
1.7667351 0.61234146 -0.018828392 10717816
1.7551798 0.6024797 -0.018252909 10456184
1.7586517 0.60509974 -0.017329097 9406583
1.9428558 0.73611665 0.0071027279 5130592
1.9405823 0.73523748 0.0051676631 10722482
1.937183 0.73502672 0.0034181476 11509948
1.9475642 0.74810946 -0.0034609437 10460593
1.9533136 0.75290126 -0.005197823 10000033
1.9355178 0.73700637 -0.0015009642 10528975
1.9387521 0.73900348 -0.0023899078 11380418
1.9455202 0.74719781 -0.0050040483 10920627
1.932434 0.73604089 -0.0032810569 10660815
1.9352349 0.73874599 -0.0042017698 10920895
1.9434267 0.74630892 -0.0066310763 10789045
1.9012004 0.70618767 0.0029040575 8359613
1.9064783 0.71205455 0.0014942884 8557228
1.9285939 0.73346215 -0.0070723295 10528723
1.9292283 0.73507452 -0.0049895048 10594770
1.9329857 0.73785543 -0.0060948133 11184581
1.9394608 0.74448687 -0.0097886324 10855350
1.9404005 0.74594051 -0.0081657767 10921143
1.8901082 0.69821119 0.0035935044 8294582
1.8925698 0.69813806 0.0033183098 8558010
1.8958752 0.70486128 0.0016299486 8755129
1.8983901 0.70471966 0.0013050437 8359357
1.9011872 0.71056777 0.00027620792 7964855
1.9253882 0.7324959 -0.0087808967 10463192
1.9259732 0.73413056 -0.0067821145 10528986
1.9307559 0.73705703 -0.0080936551 11053512
1.9368262 0.74492502 -0.010504305 10921147
1.8820848 0.69099158 0.0035161972 8884411
1.8873472 0.69672066 0.002078414 8556732
1.9209254 0.73179501 -0.010393977 10791638
1.926311 0.7352078 -0.011929512 11183811
1.9273415 0.7367084 -0.0098711848 11250630
1.9333053 0.74384093 -0.012892425 10657972
1.8818254 0.69373971 -0.00095170736 8753591
1.9133028 0.72480786 -0.010763586 10989274
1.923309 0.73570031 -0.01271224 11118530
1.926254 0.7381348 -0.013809919 10592697
1.9301569 0.74347168 -0.0143556 11184314
1.8738021 0.68652022 -0.0010290146 8688319
1.8766029 0.69232225 -0.0021915436 8884412
1.879155 0.69300747 -0.0016027689 8688055
1.885013 0.70041603 -0.0027023554 9016765
1.904488 0.71820182 -0.010925829 11120855
1.9103894 0.72465891 -0.011472702 10858464
1.9164091 0.73116279 -0.011957407 10989526
1.9193454 0.73476166 -0.015574992 11053251
1.863386 0.679443 -0.00085300207 8360368
1.8685797 0.6851027 -0.0022689104 8491706
1.8713405 0.68659317 -0.00075381994 8556733
1.9016013 0.71801847 -0.011659861 11120344
1.9075983 0.72451061 -0.012253284 10924253
1.9098829 0.72874737 -0.015436351 11512778
1.912423 0.72743601 -0.015732467 11512778
1.9158282 0.73450416 -0.017386794 11776457
1.9202704 0.73703891 -0.017115355 10462138
1.837895 0.65541446 0.0038759708 9741008
1.8530879 0.67241287 -0.00061458349 8754353
1.8554807 0.67227054 -0.00086814165 8490940
1.8594286 0.67802382 -0.0022413135 7966391
1.8609245 0.67951632 -0.00057768822 8359866
1.8661182 0.68517578 -0.0019937158 8491706
1.898422 0.71701795 -0.013393223 10989010
1.9033966 0.72227347 -0.016097963 11250370
1.9084324 0.72705251 -0.017141342 10855870
1.9113733 0.73203754 -0.018168271 10724788
1.8133317 0.63251656 0.0082438588 10070493
1.8327906 0.65404379 0.0026983619 10266325
1.8353524 0.65477508 0.0032343268 10069463
1.8428391 0.66536015 -0.00029230118 10003153
1.8452513 0.66530967 -0.00065153837 10200532
1.8503268 0.67092246 -0.0021297336 8950464
1.8894327 0.70964104 -0.014492631 10791898
1.8910835 0.71008962 -0.014746964 11381185
1.8950144 0.71642047 -0.015558779 11054290
1.8969104 0.71579939 -0.016759634 11119044
1.8999289 0.72199333 -0.017825842 11447495
1.9062128 0.72607851 -0.018518507 10921656
1.8205547 0.64222735 0.0036262274 9807832
1.8255123 0.64779329 0.0020858049 10070226
1.8300984 0.65262252 0.0011615157 10267353
1.853712 0.67562515 -0.0067865252 11580384
1.8591537 0.68124056 -0.0084790587 11449300
1.8700372 0.69247144 -0.011864066 9936578
1.8751761 0.69741952 -0.012962401 10133954
1.8806672 0.70301259 -0.014570892 10528717
1.8859849 0.70793849 -0.01655376 10330300
1.8872403 0.71002519 -0.015363336 10856140
1.8892593 0.71168751 -0.017096162 10197415
1.8984427 0.7205466 -0.019542396 10525871
1.7963456 0.61947012 0.0081808567 11191788
1.8008986 0.62491906 0.0079776049 9677517
1.8057952 0.63048458 0.0064728856 10137809
1.808296 0.63121551 0.0070444942 10399710
1.8132536 0.63678128 0.0055041313 10268890
1.8204765 0.64649189 0.00088644028 9676246
1.8231688 0.64791322 0.002423346 10136284
1.827637 0.65269578 0.0014367104 10267353
1.8300722 0.65390444 -0.0026459694 11909602
1.8353426 0.65954149 -0.0043509603 12041446
1.838413 0.66321307 -0.0040998459 12170452
1.8402989 0.66432762 -0.0056234002 11975388
1.8436327 0.66809261 -0.0056209564 12368079
1.8456225 0.66989613 -0.0073781013 12369641
1.8509185 0.67550009 -0.0075002909 11645919
1.8672192 0.69235754 -0.012619793 10528714
1.8726087 0.6980195 -0.012721777 9936318
1.8814555 0.70703834 -0.018399477 9803698
1.883656 0.70828766 -0.016818166 9605550
1.791363 0.61810023 0.0069318414 11453157
1.7940061 0.61954409 0.0083847046 11257325
1.7984055 0.62425721 0.0074199438 10730729
1.8273036 0.653768 -0.0033175945 11778787
1.8314712 0.65818071 -0.0048218966 12301773
1.8328972 0.6601423 -0.0041818619 11449309
1.8351165 0.6629113 -0.0058151484 12039116
1.8376751 0.66336668 -0.0057082772 12171990
1.843173 0.67054284 -0.0070753098 12106469
1.8481255 0.67537487 -0.0082139969 12435182
1.8508141 0.67773384 -0.010590017 12039121
1.8590088 0.68660575 -0.011599064 11448803
1.8724418 0.69817549 -0.017343163 11116989
1.8754106 0.70439172 -0.018493414 11183293
1.8776691 0.70431685 -0.019185483 9671332
1.7887203 0.61665678 0.0054789186 10268392
1.7890196 0.61822039 0.0072693229 11058398
1.813989 0.64258623 -0.0017051101 12630999
1.8190863 0.64739537 -0.0040658116 12566756
1.8240983 0.65228528 -0.0055218339 11777755
1.8245351 0.65363163 -0.0039893985 11252960
1.8294013 0.65733773 -0.006688416 12302027
1.8308511 0.65927434 -0.0088068247 10526900
1.8347178 0.66363913 -0.010266185 10658482
1.8396633 0.66790617 -0.010163665 11118517
1.8441525 0.67268121 -0.011184335 10920116
1.8480856 0.67713803 -0.012598634 10855353
1.8528488 0.68013334 -0.013523161 10856633
1.8567994 0.68470508 -0.014976323 11185078
1.8631533 0.69227618 -0.018585324 11841226
1.8688076 0.69761896 -0.018868804 10395318
1.7860773 0.61521304 0.0040261149 9875961
1.788084 0.62006867 0.0033147335 9940211
1.8069744 0.63763785 -0.0020841956 12105436
1.809731 0.63917905 -0.004401505 11250625
1.8115342 0.64168268 -0.0035997629 11909085
1.8139056 0.64433819 -0.0051148534 10855859
1.8160435 0.64642978 -0.006405592 11976176
1.8166665 0.64785844 -0.0044843554 12435950
1.820611 0.65084577 -0.00778687 11053499
1.8215693 0.65271294 -0.0057071447 12304619
1.8243749 0.65530145 -0.0092805028 10790840
1.827992 0.65893042 -0.010195255 10658742
1.8288138 0.66033727 -0.0086346269 10263984
1.8327489 0.66477132 -0.010115743 10724275
1.8363662 0.66840023 -0.011030436 10724273
1.8616109 0.69247079 -0.018698335 10789298
1.7808602 0.61239499 0.0010986328 11716607
1.7852914 0.61784309 0.00096684694 10401023
1.7990735 0.63056314 -0.0043768287 13092324
1.8041937 0.63639539 -0.004096508 13158634
1.8114574 0.64469761 -0.00572294 11184828
1.8185737 0.65190852 -0.0076146126 11119033
1.7710342 0.60555202 0.0015859604 11650815
1.7770476 0.61098832 -0.00025224686 11847423
1.7781739 0.61423212 0.00031203032 11584767
1.7827982 0.6171813 0.00040912628 11716607
1.7976527 0.63481802 -0.0063305497 12370932
1.8000488 0.63423961 -0.0065837502 12962551
1.8025351 0.63689661 -0.0072730184 12368340
1.8040283 0.63862878 -0.0071504712 11710918
1.8076741 0.64303756 -0.0087064505 11645384
1.7708914 0.60970151 -0.0012658238 12437759
1.7735344 0.6111452 0.00018715858 11584255
1.7970833 0.63332093 -0.0083014965 12305398
1.7981262 0.63568044 -0.0085202456 12697564
1.8007584 0.63758129 -0.0093192458 11776965
1.7705386 0.60820627 -0.0030063987 13030399
1.7917013 0.6286903 -0.0097132921 13422050
1.7925963 0.63195425 -0.010733604 13094655
1.7944384 0.63476712 -0.011121631 12895452
1.7965643 0.63521773 -0.013083041 11843534
1.7653215 0.60538828 -0.0059338808 13687022
1.7679644 0.60683179 -0.0044810772 12110847
1.7699558 0.61154997 -0.005220294 13096191
1.7863097 0.6267904 -0.010268688 14080767
1.7885232 0.62843543 -0.011366367 14277100
1.7912107 0.63453466 -0.012858689 14079980
1.7937741 0.63494307 -0.014493227 12435665
1.7982415 0.64075881 -0.014488518 11710926
1.7559664 0.60008734 -0.0036437511 9469804
1.7603886 0.6039961 -0.0070989132 10391163
1.7630315 0.60543978 -0.0056461096 9542063
1.7673129 0.61010617 -0.0066730976 14148351
1.7750384 0.61866176 -0.011776388 14869242
1.7797434 0.62269974 -0.01369679 14211307
1.7818494 0.62538934 -0.012725592 14080767
1.7853446 0.62818033 -0.013019383 14211310
1.7908616 0.63466746 -0.015832067 12961240
1.7721764 0.61839062 -0.012865782 14737138
1.7774813 0.62385273 -0.013487399 14671085
1.7803009 0.62579888 -0.016764939 12894933
1.7820635 0.62801635 -0.014706731 14211307
1.7849545 0.62996429 -0.01683563 12764118
1.7890557 0.63382667 -0.017317474 12698326
1.760067 0.60818833 -0.01221472 8681591
1.7649579 0.61279005 -0.013974249 11507587
1.768892 0.61751103 -0.015080273 12562077
1.7685983 0.6185295 -0.015289545 10326903
1.7731278 0.62244016 -0.017021835 11973283
1.7775106 0.62552416 -0.018175185 13487062
1.7783856 0.62686282 -0.016664207 12829904
1.7817132 0.63046652 -0.017653704 12829653
1.757642 0.6071704 -0.013919592 9272436
1.7594934 0.60673732 -0.014052033 7826543
1.7630225 0.61187905 -0.015938103 9597290
1.7673222 0.61653346 -0.017633736 10589316
1.7641113 0.61550945 -0.019771397 8680029
1.764933 0.61691636 -0.018210709 9996155
1.756299 0.6099093 -0.01953882 9800061
1.9391751 0.73795855 0.0075564384 5655646
1.9369357 0.73711413 0.005610466 10918320
1.9346962 0.73626971 0.0036644936 11246776
1.9330189 0.73767567 -0.0012821555 10726101
1.9363146 0.740224 -0.0020595193 11380418
1.9442816 0.74981683 -0.0030987859 10524835
1.9500771 0.75466615 -0.0049661994 10197165
1.9301302 0.73751545 -0.0019493103 10594512
1.9327972 0.73996621 -0.0038713813 11249858
1.9337745 0.74153548 -0.0017634034 11775169
1.941336 0.74744016 -0.0064092278 10789045
1.9422758 0.74889386 -0.0047863722 11051951
1.9040167 0.71212757 0.0017695427 8884929
1.9266607 0.73567444 -0.0047489405 10528724
1.92928 0.7397086 -0.0056832433 11250378
1.9361163 0.74829406 -0.007756412 10789303
1.938207 0.7471627 -0.0079782605 10986426
1.8875934 0.69835269 0.0039185286 8622780
1.8987255 0.71064079 0.00055146217 8097460
1.9221444 0.73504221 -0.0063123107 10660568
1.9270997 0.73888743 -0.0075981021 11184839
1.9342411 0.74534065 -0.011135876 10723769
1.9351805 0.7467944 -0.0095129609 10657973
1.8850069 0.69763273 0.0033405423 8622524
1.8960631 0.70997757 -8.5651875e-05 8360374
1.9215101 0.73342991 -0.0083951354 10791896
1.9248013 0.7380197 -0.0095751286 11316165
1.9315377 0.74570948 -0.011829734 10986689
1.8853619 0.70195717 -0.00082796812 8622267
1.8934004 0.70931441 -0.00072270632 8820666
1.9169941 0.7327978 -0.0099585652 10791638
1.9213333 0.73773944 -0.011302948 11316165
1.9279635 0.74469376 -0.014168084 10789556
1.9289525 0.7461251 -0.012461185 10723003
1.8743875 0.69402736 -7.6293945e-05 8754110
1.8768489 0.69395429 -0.00035154819 8754110
1.8825517 0.70048904 -0.0024271011 9016765
1.9082325 0.72612321 -0.01017046 10858468
1.9139103 0.73183221 -0.011738598 10529501
1.9190882 0.73680323 -0.013329685 11316165
1.9217029 0.73923135 -0.014572263 10659518
1.9232453 0.74284518 -0.014272273 10395320
1.867656 0.68677187 -0.00032699108 8819387
1.8716265 0.69253695 -0.0015913844 8752829
1.8740882 0.69246376 -0.0018665791 8621241
1.9049773 0.72517914 -0.01196301 10792407
1.9169078 0.7359823 -0.015244544 11250630
1.9175187 0.7394737 -0.015977442 10592950
1.8573502 0.67967272 -0.0001026392 8688317
1.863672 0.68538678 -0.0016905665 9082046
1.9017715 0.72421277 -0.013671517 10923481
1.9069569 0.72918326 -0.016159952 11316162
1.9133905 0.73572439 -0.017056346 11513028
1.9160864 0.73728126 -0.018520594 10461366
1.8330902 0.65560746 0.004488647 9741271
1.8479148 0.67097306 -0.0017704964 9213380
1.8530591 0.67665523 -0.0032703876 8622767
1.8545895 0.67818218 -0.0016176701 8622007
1.8924251 0.71590346 -0.015882313 10726105
1.8930593 0.71751559 -0.013799429 11054809
1.8993104 0.72330886 -0.016276896 10921663
1.9033226 0.72838944 -0.017828405 10855350
1.9077159 0.73305291 -0.018664122 10593207
1.91345 0.73774236 -0.01916939 10395830
1.8111451 0.63834965 0.00752002 10400990
1.8134844 0.63827556 0.0073162317 10334941
1.8303978 0.65418625 0.0029518008 10136287
1.8330121 0.65987217 0.0017489195 9939419
1.8379849 0.66557586 0.00023645163 10134741
1.8404465 0.66550279 -3.8802624e-05 9871569
1.8455222 0.67111558 -0.0015169978 9213380
1.8505976 0.67672825 -0.002995193 8688573
1.8781683 0.70368171 -0.014352024 10593995
1.8787534 0.7053166 -0.012353182 10528465
1.8839519 0.71009213 -0.014961123 10397394
1.890439 0.71669042 -0.0168854 11053771
1.8919864 0.71826291 -0.01618284 11710666
1.8963152 0.72306669 -0.01815331 11052475
1.7975352 0.62585789 0.0093120933 10860009
1.7990577 0.62731618 0.010950863 10728425
1.8035445 0.63134003 0.0076075792 10137302
1.808502 0.63690603 0.0060672164 10794985
1.8107921 0.63685441 0.0057794452 10466526
1.8183146 0.64812881 0.0029520988 10466269
1.820776 0.64805567 0.002676785 10070235
1.8240628 0.65285224 0.0019118786 10137047
1.8303196 0.65845102 0.00021207333 10070495
1.8360783 0.66434264 -0.0037351251 12039122
1.8650888 0.69378757 -0.011342406 10594248
1.8701591 0.69866639 -0.012418866 10462929
1.8756502 0.70425922 -0.014027417 10396873
1.8822775 0.70977932 -0.017334759 10197175
1.8847195 0.7123909 -0.016700685 10460599
1.8895708 0.71757728 -0.018637419 10131877
1.8937421 0.72210491 -0.01999408 10459820
1.7937226 0.62445128 0.007961154 11453679
1.796062 0.62437719 0.0077573657 11191537
1.8149548 0.64397156 0.00024122 12499926
1.825124 0.65522057 -0.0021242499 11778527
1.8304478 0.66078913 -0.0038790107 12172510
1.8328505 0.66410995 -0.0054722428 12170189
1.8354001 0.66562116 -0.0050176978 12172765
1.8407235 0.67118973 -0.0067724586 12239330
1.8431911 0.67391437 -0.0086823702 12302813
1.84843 0.67888594 -0.010309279 12104914
1.8510683 0.6816597 -0.0096877217 10922461
1.8564413 0.68720567 -0.01135844 10659287
1.8631668 0.69252115 -0.013171315 10528721
1.8784347 0.7098406 -0.018929303 10526642
1.7910798 0.62300766 0.0065082908 11256807
1.7934191 0.62293363 0.0063045025 11453929
1.8116735 0.64380747 -0.0014461875 12104924
1.8126392 0.64519286 0.00050014257 12565474
1.8219929 0.65389878 -0.0042694211 12106717
1.8274733 0.65921658 -0.005409658 12235978
1.8372372 0.66978467 -0.0093858242 11052468
1.8410697 0.67430955 -0.010901272 10986424
1.8480338 0.68067163 -0.011383653 12369389
1.8665435 0.69879478 -0.018592656 10066354
1.8737571 0.70576704 -0.018641531 10460333
1.7857939 0.62012011 0.0036025643 10269176
1.7872651 0.62162381 0.0052242279 10269175
1.8039347 0.63881558 -0.0015701056 12434920
1.8087533 0.64326805 -0.0027318597 11974624
1.8142858 0.64857471 -0.0042033195 12370410
1.8183247 0.65385836 -0.0056367517 11712209
1.8195808 0.65478641 -0.0044596791 12499926
1.8247018 0.65971106 -0.0061487556 12104914
1.8267764 0.66140002 -0.008462429 10460598
1.8307116 0.66583407 -0.0099435449 10461103
1.8343288 0.66946298 -0.010858297 10855348
1.8450048 0.67874348 -0.012382329 10723256
1.8506883 0.68598813 -0.016161084 10724791
1.8555202 0.68905276 -0.017107308 11250364
1.8572702 0.69198066 -0.016041696 11315398
1.8595202 0.69360203 -0.018476546 10526126
1.8617729 0.69582069 -0.019919753 11446724
1.86395 0.69875169 -0.019104183 10132141
1.8684443 0.70401651 -0.019619942 9605804
1.7833006 0.61945832 0.0030449629 11256063
1.8009492 0.63654274 -0.0037580132 13554431
1.8016468 0.63857841 -0.0038010478 13223146
1.8085984 0.64435345 -0.0071114302 11316418
1.8130372 0.64938915 -0.0064655542 10724281
1.816605 0.65304077 -0.0074642301 10724275
1.8213532 0.65693033 -0.0090330839 10988217
1.8249359 0.66052467 -0.0099369884 10922167
1.7794614 0.61808586 0.0017188191 11584767
1.7995481 0.63779265 -0.0055758953 13289190
1.7994342 0.63912296 -0.0049145222 12962303
1.8058081 0.64407873 -0.0085216761 11514566
1.8066298 0.64548564 -0.0069610476 11317190
1.8101288 0.64906758 -0.0079380274 11184828
1.7754723 0.61593151 -0.00050240755 11452927
1.7934947 0.63428032 -0.0078409314 12765948
1.7949493 0.63773316 -0.0074133873 12304623
1.7963698 0.6375376 -0.0072289109 12500692
1.8033086 0.64448357 -0.0091469884 11645638
1.7704049 0.61389524 -0.0025348067 12240383
1.7728982 0.61455715 -0.0019770265 12043263
1.7892185 0.63369584 -0.0094135404 13818623
1.795404 0.63615215 -0.009175241 12566491
1.7995765 0.64277792 -0.012113273 11777226
1.7653222 0.61172122 -0.0045949817 12371455
1.7677886 0.61241746 -0.0040124655 12699903
1.7862569 0.6296342 -0.011023402 14277100
1.7874317 0.63239622 -0.011152148 13752831
1.7921762 0.63591993 -0.010912359 14013933
1.7962041 0.64182144 -0.01431632 12434649
1.7583486 0.60563374 -0.0051047802 9670802
1.7606881 0.60555959 -0.0053085685 9933974
1.7638243 0.61025178 -0.0061917305 10923187
1.7797458 0.62678504 -0.011473 14146559
1.7830292 0.6294018 -0.012760401 14079467
1.7844393 0.63151169 -0.012845099 13883391
1.7889377 0.63566339 -0.014137506 13290204
1.7953825 0.64041466 -0.015877008 12304085
1.7703149 0.62008262 -0.011358738 14997707
1.7729399 0.62007987 -0.011354089 14607103
1.7752151 0.62505144 -0.013144493 15065842
1.7767535 0.62590069 -0.013165951 14541567
1.7798507 0.62914687 -0.014413476 14605292
1.7826377 0.63178235 -0.016058862 12566740
1.7856481 0.63543171 -0.014231026 14277100
1.7865229 0.63607931 -0.01629746 12566484
1.7915735 0.64067137 -0.017201066 12829651
1.794054 0.64478493 -0.018091977 12632271
1.7623374 0.61352754 -0.013308764 10259839
1.767199 0.61928499 -0.013471723 11050124
1.7696962 0.61896402 -0.013199449 14142139
1.7726123 0.62528276 -0.014648318 15459554
1.7754153 0.62844622 -0.016399682 13552586
1.7798471 0.63150758 -0.017469108 12763858
1.7806689 0.63291448 -0.01590836 12699094
1.78405 0.63644975 -0.016947508 12566740
1.7556341 0.60879636 -0.012780726 8482405
1.7576709 0.60876656 -0.011961579 7102559
1.7599415 0.6141057 -0.013055563 8351842
1.7611556 0.61375856 -0.014695108 9861478
1.765552 0.61854446 -0.015360832 11442562
1.7701576 0.62402368 -0.016757309 10063728
1.7745402 0.6271078 -0.0179106 12959930
1.7584257 0.61416131 -0.015364051 8940375
1.7630177 0.61798012 -0.018109977 8417123
1.7673671 0.62374878 -0.018167555 10851960
1.7602081 0.61761349 -0.019414485 6839129
1.9332893 0.73899078 0.0060531497 10195579
1.93104 0.73810023 0.0041601062 10849948
1.931337 0.74275589 -0.0014329553 11775169
1.9379916 0.75124729 -0.0043770075 11051705
1.9290651 0.74185371 -0.0034349561 11446721
1.930788 0.74451596 -0.0044479966 10594509
1.9417088 0.75515074 -0.0077766776 11051705
1.9425952 0.75667268 -0.0061041117 9995933
1.8991538 0.71311247 0.0033426285 8292787
1.9242711 0.73944056 -0.0062644482 10397908
1.9268427 0.74092913 -0.0053527951 11578051
1.9263937 0.74388468 -0.0060828328 10593998
1.9302031 0.7428813 -0.0064468384 10857683
1.9334818 0.74873209 -0.0084720254 10657719
1.9396155 0.75426161 -0.0094037056 10986938
1.8937492 0.71085554 0.0011516809 8491706
1.8990076 0.7166304 -0.00015228987 8424887
1.9180428 0.73522824 -0.0069478154 10660563
1.9223638 0.73924017 -0.0092446804 11315908
1.9233942 0.7407409 -0.0071864724 10986945
1.9303333 0.74836296 -0.0099353194 10592187
1.890939 0.70938748 -0.00044745207 8689080
1.893736 0.71523547 -0.0014761686 8294327
1.9148123 0.73427325 -0.0086983442 10594777
1.9198771 0.74048311 -0.0089982748 11315908
1.9256546 0.74788946 -0.012193918 10263728
1.8802359 0.70139003 -0.0011229515 8951492
1.8828471 0.70209891 -0.0005030632 8819646
1.8855946 0.70796919 -0.0016158223 8557244
1.8881093 0.70782763 -0.0019407868 8622780
1.8908569 0.71369815 -0.0030534863 9149369
1.9056115 0.7267915 -0.0098801851 10858202
1.9112895 0.73250049 -0.011448264 10332121
1.9118743 0.73413533 -0.0094494224 10397401
1.9188466 0.73898244 -0.011056483 11381958
1.9247191 0.74638999 -0.013950467 10461106
1.8751631 0.70075446 -0.0014676452 8885699
1.8776248 0.70068139 -0.0017428398 8885698
1.9024591 0.72575659 -0.011638403 10792150
1.9087219 0.73310053 -0.0112077 10530004
1.914421 0.73722517 -0.014998138 11119044
1.9153786 0.7387023 -0.012784362 11382214
1.8612106 0.68545991 -0.0014152527 9477061
1.8664041 0.69111943 -0.002831161 9016513
1.8722031 0.69850457 -0.0039618611 8950978
1.8748143 0.69921333 -0.0033419728 8885699
1.8996146 0.72567701 -0.012369275 11055833
1.9052619 0.73166114 -0.013845861 10988237
1.9114683 0.73769522 -0.015696764 11250117
1.9140046 0.74007314 -0.016887069 10461364
1.9195952 0.74517846 -0.016978562 11053241
1.8559883 0.68404257 -0.0026550889 8753852
1.8587489 0.68553293 -0.0011399984 9476802
1.8638895 0.69126105 -0.0025062561 9082562
1.8695918 0.69779581 -0.004581809 9081795
1.8905072 0.71825349 -0.013531029 10989275
1.8963842 0.72472179 -0.014119804 10923989
1.9010998 0.73093921 -0.016415 10921658
1.9059751 0.73488736 -0.017626226 10658744
1.9113097 0.73889607 -0.019031525 10396343
1.8306193 0.66001469 0.002002418 9676247
1.8355727 0.66562647 0.00059568882 10202073
1.8406678 0.67133117 -0.00098836422 9476552
1.8430605 0.67118865 -0.0012417436 9279430
1.8469474 0.67694151 -0.0025792122 8754622
1.8507656 0.682625 -0.0038949847 8754879
1.8532273 0.68255204 -0.0041701794 8557500
1.8559059 0.68835306 -0.0052611232 8754366
1.8762352 0.70589405 -0.012028635 10660308
1.8820875 0.71237385 -0.01265949 10726362
1.8876473 0.718036 -0.014289796 11055067
1.8947185 0.72462344 -0.016242743 11053767
1.8989326 0.73008394 -0.018168092 11052990
1.9005823 0.72943091 -0.018717051 11448007
1.9039408 0.73402184 -0.01922214 10526898
1.795459 0.62748402 0.011383951 10860271
1.7991611 0.63309759 0.0099392533 11124204
1.8026989 0.6329295 0.0095418096 10860776
1.8064089 0.63861215 0.0081110001 10598119
1.8088014 0.63846958 0.0078575611 10400739
1.8204887 0.65300882 0.0023869872 10333916
1.8278582 0.65852416 0.00048726797 10333657
1.8282071 0.66006529 0.0023615956 10267863
1.83318 0.66576886 0.00084912777 9873108
1.8382556 0.67138177 -0.00062900782 8886989
1.8624678 0.69445586 -0.011052191 10462929
1.8675916 0.69926631 -0.012178302 10594258
1.8731515 0.70492858 -0.013808608 10528470
1.8793511 0.71135306 -0.014896393 10462404
1.8833814 0.71420425 -0.017214417 9736875
1.8873956 0.71866214 -0.018140376 10592439
1.8893948 0.72248644 -0.017338097 11578822
1.891602 0.72325867 -0.019856274 10328234
1.892591 0.72468996 -0.018149376 10657716
1.7913791 0.62457138 0.0082986355 11519472
1.7928503 0.62607473 0.0099202394 11452910
1.8135784 0.64839131 0.0035430193 10400479
1.8159711 0.64824873 0.0032895207 10466269
1.8180957 0.65315121 0.0026404262 10004952
1.8255148 0.65864402 0.00082474947 10202071
1.828621 0.66286451 -0.001654923 12304605
1.8337628 0.66556382 -0.0034762025 12104914
1.8328857 0.66615272 -0.0048267841 12435934
1.8382741 0.67183644 -0.0064696074 12239330
1.8432304 0.67662257 -0.0077419877 12501738
1.8485501 0.68223715 -0.0093630552 10856668
1.853992 0.6878525 -0.011055648 10659289
1.8594337 0.69346792 -0.012748182 10265553
1.8600184 0.69510269 -0.01074934 10594515
1.8651421 0.69991314 -0.01187551 10659534
1.8705306 0.70559686 -0.013518274 10857179
1.876682 0.71160674 -0.016652882 10592955
1.8793454 0.7119934 -0.017697275 11118016
1.8812907 0.71533555 -0.016992569 10067374
1.8826818 0.71899241 -0.019329906 11249858
1.88534 0.71986234 -0.018277764 10132140
1.8895112 0.72438997 -0.019634366 10329005
1.788886 0.62390924 0.0077409148 11255548
1.8199592 0.65566242 -0.0025427938 12173290
1.8227279 0.65579897 -0.0018710494 11909606
1.8268268 0.66169095 -0.0034743547 12238051
1.8293086 0.66587275 -0.0050619245 12302287
1.8333212 0.67138559 -0.0065375566 12039120
1.83576 0.67236805 -0.0062786937 12238312
1.8408282 0.6762026 -0.0079312921 12106206
1.8448882 0.68064862 -0.0098990202 11775950
1.8569348 0.6941371 -0.012529254 10660821
1.8705399 0.70678693 -0.01796627 11314880
1.8713763 0.70767593 -0.018695652 9736870
1.8743578 0.71131301 -0.017687321 10197931
1.875946 0.71178263 -0.019446909 11183809
1.7825803 0.62184078 0.0058323145 11058431
1.7863436 0.62327009 0.0070992708 10466553
1.8066152 0.64356184 -0.0021114349 11909604
1.8082688 0.64551395 -0.0010125041 12499933
1.8128257 0.65023357 -0.0027227402 12435690
1.8172441 0.65545768 -0.0032641888 12435950
1.8171966 0.65593845 -0.0041788816 12433880
1.8223176 0.66086316 -0.0058680177 12368085
1.8248076 0.66253215 -0.0083120465 10657977
1.8271699 0.66496021 -0.0069066882 12105427
1.8380136 0.67590374 -0.010643005 10723507
1.8408768 0.68093753 -0.011988342 10723509
1.8429143 0.67987472 -0.01216054 10854839
1.8484054 0.68760222 -0.01248306 10791130
1.8537784 0.69314826 -0.014153779 10791131
1.8548861 0.6931327 -0.015761018 11380935
1.8618176 0.70044881 -0.018666685 10066096
1.8663576 0.70510185 -0.019531846 10132136
1.8671407 0.70657611 -0.019715846 10788283
1.7798879 0.62041956 0.0042954683 11584255
1.8014795 0.64056319 -0.0016831756 12828130
1.8035963 0.64271164 -0.0037795305 12963326
1.8050046 0.64526975 -0.0026718378 12631258
1.8093907 0.64982224 -0.00373137 12502000
1.8109999 0.65045208 -0.0062933564 11052989
1.8150299 0.65476155 -0.0064945817 10724286
1.8202231 0.6593892 -0.0072939992 11250618
1.8227704 0.66359508 -0.0081398487 10921144
1.8276021 0.6674968 -0.0096356273 10592440
1.8312538 0.6711604 -0.010561228 10592180
1.8351033 0.67560524 -0.012048662 10855350
1.854403 0.69436502 -0.019789338 10855350
1.7757719 0.61749518 0.0012878776 11584255
1.797286 0.63894546 -0.0053666234 12829150
1.8054724 0.64771438 -0.0060412884 11909594
1.8071319 0.65068543 -0.0076486468 11382466
1.8111007 0.65499443 -0.0078141689 11118785
1.848381 0.69101626 -0.018220127 10461107
1.8523124 0.6954962 -0.019567549 10723762
1.7731289 0.6160515 -0.00016498566 11847935
1.7782185 0.62315667 -6.1273575e-05 11715839
1.7987578 0.6443125 -0.0070550442 12764395
1.8009117 0.6447975 -0.0097379684 11514824
1.8033867 0.64796144 -0.0070114732 13027836
1.7729328 0.6202693 -0.0029670596 11847935
1.7755756 0.62171304 -0.0015140772 12242175
1.7959481 0.64323443 -0.008788228 12829403
1.8024423 0.64951181 -0.010564506 11777737
1.7632289 0.61342734 -0.002551198 14080459
1.7655723 0.61330748 -0.0028886795 12633855
1.7691202 0.61886269 -0.0043179393 11976191
1.7898414 0.63704932 -0.010547578 14474480
1.7933686 0.64173287 -0.011603117 13947883
1.7942948 0.64518118 -0.011937737 13685759
1.7990943 0.64854395 -0.012725651 11514567
1.7604363 0.61120194 -0.0048991442 9803648
1.7629293 0.61186367 -0.0043414831 12369824
1.7838527 0.63340133 -0.010744512 13752831
1.7871184 0.63789171 -0.012015641 14014456
1.7889831 0.64211112 -0.013210654 14277100
1.7925272 0.64397329 -0.013782084 13554431
1.7953379 0.64684969 -0.015733898 12500688
1.797784 0.64651328 -0.015058875 12105937
1.7576437 0.6089763 -0.0072471499 9474180
1.7775201 0.63023049 -0.014182448 14868464
1.7790121 0.63233829 -0.01286763 14278143
1.7834352 0.63656205 -0.013937712 14277100
1.7849209 0.63783425 -0.015302956 12697813
1.7885175 0.64226556 -0.016942859 12500693
1.7920167 0.64584774 -0.017919838 12566478
1.7600217 0.61456865 -0.008574605 11180419
1.765178 0.62036377 -0.01243186 11313038
1.7680529 0.62123561 -0.011149526 12300193
1.7713618 0.62668151 -0.013221562 14210775
1.774771 0.63073653 -0.014812589 15065068
1.7776985 0.63449794 -0.015643954 13027540
1.7801389 0.63626033 -0.015652955 14408173
1.7823001 0.63636798 -0.016298652 13553632
1.7830057 0.63889796 -0.015202284 12435415
1.7575455 0.61468428 -0.012802482 7167597
1.7619275 0.62011963 -0.014277756 11705473
1.7639775 0.61966473 -0.014770687 12166021
1.7720075 0.62936044 -0.016890645 10525063
1.7768769 0.63309115 -0.017204523 13421270
1.7562129 0.61529189 -0.015070796 8417915
1.7607455 0.61947811 -0.016374052 10322028
1.765383 0.6247431 -0.018045008 10786168
1.7665277 0.62562525 -0.016219497 11508619
1.7687109 0.62834698 -0.019034624 10326654
1.7695858 0.62968552 -0.017523587 10194816
1.7582394 0.61874557 -0.019264102 7102301
1.7635505 0.62393659 -0.01950568 10653308
1.7562555 0.61973995 -0.019141614 8221554
1.9308516 0.74021119 0.0063835979 9077099
1.9288501 0.74399877 -0.0011866093 11840702
1.9299299 0.74547696 0.00095564127 7827071
1.9389274 0.75274712 -0.0026204586 8811915
1.9358516 0.75240117 -0.0042391419 10723489
1.9021327 0.71979994 0.003264904 8490679
1.9189202 0.73768067 -0.003949523 10003406
1.9248424 0.74297965 -0.0039855242 11577793
1.9317143 0.75060076 -0.0074093342 10920374
1.9363711 0.75595772 -0.009186089 11183281
1.8965461 0.71670347 0.00012290478 8951485
1.8981183 0.71833414 0.0017786622 8424631
1.9160315 0.73752028 -0.0046166778 10529996
1.9209569 0.7419613 -0.0068560243 11512774
1.921865 0.74346101 -0.0047262311 11972296
1.8965328 0.72108352 -0.0025050044 8688313
1.9128277 0.73653078 -0.0063921213 10331853
1.9174395 0.74170363 -0.0086678863 11315908
1.9274418 0.75189513 -0.012170851 10527412
1.8778706 0.70231336 9.7155571e-05 8688577
1.8831332 0.70804244 -0.0013405085 8754626
1.888342 0.71383965 -0.0027285814 9017527
1.8912212 0.71537709 -0.0011512637 8557240
1.9093561 0.73471272 -0.0091248155 10595028
1.9151657 0.74082452 -0.010602951 11381446
1.9215393 0.74820119 -0.013620973 10592946
1.8726481 0.70089597 -0.0011426806 8885698
1.8754778 0.702456 0.00035053492 8754106
1.8806181 0.70818383 -0.0010156035 8425661
1.8858807 0.7139129 -0.0024533868 8886471
1.906101 0.733769 -0.010917425 10530261
1.9128919 0.73994535 -0.012538016 11447494
1.9194896 0.74719775 -0.015244782 10460592
1.8698379 0.6994279 -0.0027417541 9279947
1.8973393 0.72709429 -0.01112932 10792407
1.9029639 0.73287189 -0.012647688 10792407
1.9094434 0.739757 -0.014371634 11250117
1.9131854 0.7418496 -0.015652061 10592695
1.9174552 0.74633211 -0.016840816 10658482
1.8589665 0.69140726 -0.0019557476 9147838
1.8614278 0.69133413 -0.0022310019 9213630
1.8646154 0.69801062 -0.0039815903 9148609
1.8672514 0.69870794 -0.0033196807 9279689
1.8941336 0.72612786 -0.012837827 10858200
1.9013023 0.73304152 -0.014363945 11251398
1.9072475 0.73879814 -0.016314328 11381959
1.9092191 0.74002737 -0.018809676 10198964
1.9101053 0.74154955 -0.01713711 10527668
1.8385017 0.67301381 0.0012109876 8820427
1.8410165 0.67287219 0.00088608265 8820158
1.8448082 0.67859 -0.00040483475 8426416
1.8486683 0.68437713 -0.0017174482 8755119
1.8562056 0.68991685 -0.0034708977 8951745
1.8586669 0.6898436 -0.0037460923 9147837
1.8798122 0.71379107 -0.011419475 10989790
1.8853722 0.71945339 -0.013049781 11186654
1.8909278 0.72516143 -0.014546394 10858202
1.8934619 0.72607446 -0.016504765 10526126
1.8976294 0.73064792 -0.017727673 10591919
1.8988454 0.73216099 -0.016191781 10987193
1.9027896 0.73660666 -0.017377436 10460853
1.9070104 0.74111181 -0.018650055 10461623
1.8040655 0.63873214 0.0084484816 11057900
1.8258142 0.66020775 0.0026151538 9807312
1.8283751 0.66596192 0.0014619231 9807062
1.8307185 0.66584218 0.001124382 10333406
1.8357408 0.67152327 -0.00030404329 8558024
1.8534445 0.68842632 -0.0049859285 8754366
1.8657272 0.70154804 -0.0098766685 11121113
1.8712182 0.70714086 -0.011485159 11120346
1.8766754 0.71289396 -0.013149858 11120846
1.8846738 0.72192419 -0.015191555 11381958
1.8903823 0.72577435 -0.017989755 10658482
1.8913656 0.72675782 -0.016577959 11118780
1.8954893 0.73180151 -0.017589808 10460333
1.7894546 0.62695611 0.011198878 11189488
1.7919133 0.62758327 0.011767447 10991347
1.7944248 0.63336009 0.010530174 11188218
1.7968177 0.63321781 0.010276675 11517183
1.8016572 0.63873661 0.0086740255 10794985
1.811166 0.64844179 0.0039023161 10597859
1.8132908 0.65334427 0.0032532215 10333917
1.8156343 0.65322429 0.0029156804 10399710
1.8218817 0.65877718 0.0012688041 10202079
1.8258682 0.66400254 -0.00074464083 11121374
1.8310746 0.66836578 -0.0025748014 12040933
1.8625214 0.70058155 -0.011585176 10659791
1.8791506 0.71648932 -0.016854763 10133167
1.883456 0.72075444 -0.017705739 10855865
1.8877969 0.72618997 -0.018621325 10526640
1.7866962 0.6247651 0.0088399053 10663150
1.789139 0.63047278 0.0076244473 10992366
1.8087735 0.64858431 0.004155755 11320560
1.8178823 0.65702409 -0.0013151169 12567277
1.8231032 0.66268355 -0.0031041503 12237542
1.8286252 0.66901261 -0.0022719502 12237797
1.8382628 0.67784679 -0.0071145892 11843816
1.8544166 0.69471467 -0.012204707 10660821
1.8594869 0.69959354 -0.013281226 10923730
1.8627646 0.70308083 -0.016176999 10525885
1.8722178 0.71246666 -0.017549515 10197931
1.8740239 0.71375352 -0.018087327 11446471
1.8761202 0.71616679 -0.018255711 10527157
1.8802483 0.7201668 -0.019133091 11315651
1.7853264 0.62906593 0.0062735081 10466554
1.8048106 0.6472888 -0.00052917004 12565978
1.8098869 0.65174294 -0.0020204782 12632549
1.8148378 0.65663207 -0.0034406781 12434915
1.8203449 0.66262722 -0.0041770935 12500448
1.8254039 0.66728055 -0.0050891042 12171478
1.8309371 0.67253757 -0.0062568784 12303056
1.836176 0.67750913 -0.0078837872 12104915
1.8403807 0.68102598 -0.011435151 12170452
1.8458378 0.68820226 -0.012242556 10725337
1.8512795 0.69381756 -0.01393503 10594007
1.8642671 0.70623314 -0.019309998 10000550
1.8682156 0.70938402 -0.018404901 9539496
1.8706436 0.71343946 -0.019875765 11183295
1.785027 0.62750232 0.0044831634 10729727
1.8015828 0.64705628 -0.0022661686 12566229
1.8069947 0.65040052 -0.003478229 12567793
1.8108889 0.65625763 -0.003542304 12501999
1.8174188 0.66164005 -0.0057579875 11843287
1.8207824 0.66463536 -0.0078836679 10723766
1.8224702 0.6673336 -0.0063670278 12368851
1.8246148 0.66916025 -0.009399116 10921405
1.828232 0.67278928 -0.010313869 10723770
1.8319958 0.67724484 -0.011807561 10592438
1.8358778 0.68174708 -0.013238966 10723762
1.8388395 0.68200034 -0.011816204 10987439
1.8432355 0.68714935 -0.012781262 11644619
1.8445401 0.68935972 -0.015633821 10591666
1.8535789 0.69709051 -0.017384768 11315648
1.8593655 0.70286995 -0.017926574 10855107
1.8621764 0.70736444 -0.019088089 10329004
1.7787211 0.6254338 0.0025745034 11912959
1.7812144 0.62609571 0.0031322837 11781631
1.7994764 0.64620155 -0.0040550232 12894941
1.8042507 0.65025294 -0.0041079521 12962038
1.8105423 0.65620673 -0.0068637729 11250623
1.8142569 0.66068482 -0.0084414482 10921664
1.8152499 0.6620701 -0.0068682432 10921662
1.7760781 0.62399 0.0011216998 12044287
1.7973702 0.64534676 -0.0058438778 12960734
1.7996801 0.64887398 -0.0066130757 12633849
1.8037261 0.65157664 -0.0082064867 11514566
1.8077028 0.65595454 -0.0083580613 11381954
1.7720892 0.62183583 -0.0010995865 12241919
1.7735357 0.62335068 0.00048005581 12043775
1.7941422 0.64511406 -0.0075808764 12960736
1.8008404 0.65126687 -0.0095700622 11580359
1.7682499 0.62046337 -0.0024257302 11517183
1.7706428 0.62032086 -0.0026791096 11582975
1.7909144 0.64488178 -0.0093179941 14145262
1.7931765 0.64372897 -0.009527266 13553382
1.7968111 0.6498583 -0.011151195 12567524
1.762964 0.61757582 -0.0053313971 10264465
1.7644353 0.61907953 -0.0037097931 12174810
1.7844009 0.6379472 -0.011991322 14277099
1.7837768 0.63929659 -0.011501312 13949183
1.7894144 0.64420289 -0.012308478 14079989
1.7918987 0.64575958 -0.011684656 13883391
1.7966216 0.64891446 -0.013375819 12369104
1.7603211 0.6161322 -0.0067842603 10722967
1.7605712 0.61771846 -0.0050779581 10395031
1.7760415 0.63370788 -0.011906266 14738431
1.781745 0.63828188 -0.012989938 14146037
1.7838274 0.64030486 -0.013641596 12632281
1.7866483 0.64324075 -0.012845874 14276587
1.7944181 0.65194631 -0.017101824 12171982
1.7578051 0.61545855 -0.0074507594 10787210
1.7738335 0.6324662 -0.013639867 14803701
1.7783699 0.6374743 -0.015300333 13750752
1.7800354 0.64048123 -0.014937758 12369618
1.7865489 0.64339775 -0.016792417 12632279
1.7890291 0.64751118 -0.017683327 12500436
1.7925284 0.65109348 -0.018660307 12698064
1.7557876 0.61682886 -0.01060009 7301727
1.7668602 0.6268757 -0.014096141 11575439
1.7706244 0.63180584 -0.015304089 13221036
1.7743174 0.63537794 -0.016159713 11381426
1.7592189 0.62085181 -0.014672816 9406071
1.7635763 0.62591267 -0.015658617 11510423
1.7642121 0.62684643 -0.015960574 11837585
1.7676667 0.63079518 -0.017289221 10457988
1.7710478 0.63433051 -0.018328428 10129791
1.7556723 0.62190545 -0.016612172 7695466
1.7571799 0.62105596 -0.017546654 7102309
1.7658017 0.62993097 -0.018805742 10391679
1.7586896 0.62657255 -0.019098401 8483682
1.927443 0.74671996 0.0012021065 5853281
1.9367874 0.75390077 -0.0024825931 6118238
1.9264126 0.74521929 -0.00085616112 10985649
1.8973157 0.72084224 0.0047074556 8425150
1.8998306 0.72070074 0.0043824911 8161971
1.9228954 0.74496168 -0.0026680231 12034491
1.913781 0.73892647 -0.0033346415 10596044
1.9194467 0.74477327 -0.0045016408 11840710
1.9292641 0.75491697 -0.0087417364 11183798
1.934227 0.75715744 -0.0089145303 10722730
1.8942641 0.72285724 -0.0003400445 8556727
1.8967788 0.72271562 -0.00066494942 8425145
1.9105754 0.73795998 -0.0050432086 10529742
1.9171977 0.74388283 -0.0063946843 11512773
1.9241747 0.75039232 -0.0095828176 10724800
1.9283283 0.75341737 -0.010498345 10790582
1.8915563 0.72129822 -0.0019047856 8754105
1.8940179 0.72122514 -0.0021799803 8688311
1.9099411 0.73634773 -0.0071260333 10660561
1.9150021 0.74292403 -0.0083374977 11446467
1.9213991 0.75018573 -0.011876225 10462130
1.8769259 0.70829368 -0.00060278177 8952003
1.8809042 0.71412736 -0.001853168 8556993
1.8833656 0.71405429 -0.0021284223 8294334
1.8899081 0.7197243 -0.0036197305 8426427
1.910368 0.74185377 -0.01143688 11054027
1.9114847 0.7426663 -0.01014924 11315396
1.9182606 0.74986243 -0.013392329 10395824
1.867672 0.70111066 -0.00054252148 9280458
1.8701868 0.70096904 -0.0008674264 9214665
1.8741651 0.70680314 -0.0021178126 9346500
1.9010307 0.73508412 -0.01032424 10792149
1.9035981 0.73448408 -0.010564864 10792149
1.9070408 0.74127662 -0.013207972 10988238
1.9088075 0.7416693 -0.01235503 11119566
1.9157829 0.74823576 -0.015824616 10330035
1.8636802 0.69965661 -0.0019199848 9739974
1.8971906 0.73250538 -0.014115632 10792150
1.8991108 0.73379481 -0.012219965 10726358
1.9122355 0.74718589 -0.01818794 10329523
1.9131713 0.7486856 -0.016431391 10329778
1.8595161 0.69740921 -0.0043014884 9017284
1.862154 0.69808358 -0.003706336 9279939
1.8828692 0.72016859 -0.01269722 11252447
1.888746 0.72663695 -0.013286173 10989527
1.8915815 0.72686589 -0.012569308 10858200
1.8955035 0.73344773 -0.015213013 10921924
1.9006495 0.73776048 -0.017239571 10591926
1.9034886 0.74071991 -0.015853107 11250630
1.904817 0.74233413 -0.018462539 10198707
1.9096256 0.74761295 -0.018861473 10461362
1.797117 0.6347813 0.01206702 11057142
1.8343453 0.67266065 0.0010585189 9280974
1.8386698 0.67891067 0.00031125546 8688833
1.8411846 0.67876905 -1.3649464e-05 8688833
1.8437455 0.68452334 -0.0011669397 9083833
1.8462069 0.68445015 -0.001442194 8755119
1.8567553 0.69591868 -0.0058164597 9017283
1.8689852 0.70866174 -0.010242045 11186643
1.871803 0.70877564 -0.0094863772 11318225
1.874742 0.71510637 -0.010826349 11318484
1.8797169 0.71913373 -0.014455497 11252691
1.8858082 0.7264992 -0.014037251 11055578
1.8877114 0.72820991 -0.016363502 11710662
1.8940383 0.73327458 -0.017017484 10789562
1.7921346 0.63341147 0.010818005 11058158
1.7947776 0.63485527 0.012270808 10925812
1.8182485 0.65891033 0.0017127395 10466013
1.8309358 0.67171645 0.00030863285 9017546
1.8541172 0.69524413 -0.006411612 9214904
1.8600717 0.70122832 -0.011282384 10856913
1.8631595 0.70214796 -0.0096361041 10857941
1.8660984 0.70847845 -0.010976076 10923217
1.8770599 0.71762061 -0.016632855 10264755
1.8811626 0.7220788 -0.017967701 10461359
1.8826559 0.7254644 -0.015795529 11318227
1.8847297 0.72724468 -0.018738985 10921402
1.8903189 0.73263288 -0.018853009 10658484
1.7895825 0.63272643 0.010229111 11123694
1.8040218 0.64870888 0.0047188401 11057138
1.8064833 0.6486358 0.0044435263 10859752
1.8108294 0.65341753 0.0035284162 10794725
1.8208091 0.66466457 0.00055956841 10334424
1.8232213 0.66461396 0.00020033121 9938905
1.8266945 0.67009211 -0.0014041662 10923485
1.8357639 0.67851609 -0.006895721 11975145
1.8572462 0.70104545 -0.012052 10660046
1.8630106 0.70755887 -0.012622416 10791896
1.8666952 0.71072841 -0.015247107 11250880
1.870127 0.71359813 -0.017327666 10001324
1.8739802 0.71732056 -0.018117964 10329777
1.8784168 0.72231001 -0.018316329 10986943
1.8831446 0.72707134 -0.019699216 10987195
1.7856257 0.63062966 0.0080638528 10663162
1.8181529 0.66354132 -0.0017518401 11516387
1.8232715 0.66877526 -0.0040709376 12237530
