# .PCD v0.7 - Point Cloud Data file format
VERSION 0.7
FIELDS x y z rgba
SIZE 4 4 4 4
TYPE F F F U
COUNT 1 1 1 1
WIDTH 444
HEIGHT 1
VIEWPOINT 0 0 0 1 0 0 0
POINTS 444
DATA ascii
1.4586697 0.077502668 0.050552607 9079701
1.4608753 0.079950452 0.050756991 9276822
1.4527459 0.07455796 0.050375879 4739668
1.4547257 0.076577544 0.050265789 7961208
1.4567647 0.07893312 0.050045371 9540253
1.4486969 0.073238611 0.050674021 7044011
1.4507036 0.075423837 0.05057925 2503246
1.4578118 0.082009196 0.051234782 8881549
1.4594128 0.084183097 0.051448286 9013137
1.4461944 0.073599279 0.051046073 8292257
1.4481839 0.075333118 0.051207483 5398142
1.4492776 0.077008903 0.051674724 2174285
1.4516737 0.079440117 0.050509393 1973784
1.4541204 0.081365943 0.05060941 8288113
1.4557781 0.083867133 0.050566256 9210514
1.4579481 0.085887074 0.050015152 9936554
1.4417479 0.071752906 0.050145209 10398646
1.4440699 0.074312806 0.050398588 9806258
1.4456956 0.076191425 0.051220953 7240087
1.4480217 0.078250051 0.051558554 2371396
1.4502645 0.080356002 0.05059737 396833
1.4398582 0.073405564 0.050126255 10530231
1.4417424 0.075745165 0.050352991 9937584
1.4436495 0.077067554 0.050370038 9478329
1.4481349 0.078353763 0.052872062 1583194
1.4545624 0.08540231 0.051040292 9143432
1.456111 0.087189615 0.051097155 9012878
1.4452548 0.078294396 0.051634073 5989760
1.4465798 0.079910696 0.052001595 3227229
1.4477942 0.082106531 0.051959455 858675
1.4508569 0.084308267 0.050451398 2828058
1.4523147 0.086506486 0.050722361 6840395
1.4545755 0.088811815 0.050308168 9473945
1.4565212 0.090997577 0.050385237 9607075
1.4406304 0.076973677 0.050559819 9146009
1.4427729 0.07889694 0.051011384 8094103
1.4442086 0.08128792 0.05169642 5595785
1.4469715 0.083431959 0.051960707 1318967
1.4491825 0.086364985 0.050228596 987415
1.4387469 0.078379214 0.050327361 9541795
1.4404979 0.080455005 0.050332963 9411246
1.441807 0.082515538 0.050874412 8360120
1.4394016 0.082253397 0.050055623 10004153
1.4421058 0.081303239 0.051887214 7040639
1.4435266 0.082959592 0.05249542 4476264
1.4452507 0.084478557 0.053429067 1516353
1.4469638 0.087490141 0.051959574 1449258
1.4488549 0.089645386 0.050931752 2302757
1.4516585 0.091963828 0.050260723 8353127
1.4536409 0.094148993 0.050804913 9276048
1.4552276 0.096018791 0.050961435 9606561
1.4378257 0.080546319 0.051128328 8816015
1.4401264 0.081626117 0.051284552 8289933
1.4418693 0.084276021 0.051979363 5923716
1.4416863 0.08637017 0.051880777 5859998
1.4478147 0.090884387 0.051029325 1316637
1.4498203 0.093011081 0.050263226 3091755
1.4529881 0.097512066 0.050372064 9936045
1.43562 0.081012964 0.050727546 9343387
1.4374721 0.08328259 0.050624669 9278112
1.4392915 0.085511506 0.050797403 8622254
1.4371902 0.086897731 0.050163448 9740983
1.4444588 0.086001456 0.055212319 923691
1.4462259 0.087868512 0.054571211 1186089
1.4419112 0.086108804 0.053676248 3226445
1.4421751 0.087468445 0.05427742 1911629
1.4451566 0.089657545 0.05410403 1447709
1.4468613 0.091938555 0.05299437 1184537
1.448194 0.094228804 0.052437663 1776153
1.4505483 0.096544564 0.051825345 6906448
1.4526162 0.099006116 0.051461756 9274764
1.4370267 0.085697949 0.051586926 8684689
1.4387549 0.087263644 0.052697599 6448763
1.4401782 0.088793933 0.052453697 5794719
1.4471178 0.095462203 0.051981986 1776672
1.4485788 0.098149478 0.05023247 2895657
1.4503989 0.1004889 0.050444603 8683904
1.4524636 0.10237765 0.050115168 9936301
1.4346007 0.086253047 0.051267743 8948117
1.4365335 0.088314891 0.051064372 8949926
1.4381349 0.090816259 0.05111903 7834293
1.4347407 0.090003371 0.050058782 9806772
1.4365718 0.092049122 0.050393283 9149109
1.4444649 0.088480294 0.056989849 1252659
1.4449604 0.089411199 0.058472157 1844022
1.4419892 0.089256287 0.05616039 858929
1.4439101 0.091077745 0.056553662 1644572
1.4458745 0.095104516 0.054988861 1578514
1.4382651 0.089318991 0.054465175 4804713
1.4397153 0.090323508 0.055225432 2439004
1.4397811 0.092834055 0.055224121 1256801
1.4450232 0.096479356 0.055473864 1447192
1.4473107 0.098769963 0.051903188 1774601
1.4482286 0.1010077 0.050944269 3550482
1.4517148 0.10380208 0.051481187 9472399
1.4361122 0.089741468 0.052824676 7500936
1.4371175 0.092085779 0.053263843 6121612
1.4385535 0.094345808 0.053619266 3755910
1.4468974 0.10100245 0.051138103 1512206
1.4478557 0.10346144 0.0511114 5327158
1.4491471 0.10581625 0.050493062 8552066
1.433533 0.09167397 0.051864207 7633045
1.435297 0.093414307 0.051299155 8227498
1.4367309 0.095944583 0.051609695 6781616
1.4316063 0.093059003 0.050901413 9016235
1.4330648 0.095306158 0.050771058 9017008
1.4351979 0.096694231 0.050834954 8491702
1.443922 0.090881228 0.058770955 1844021
1.4408194 0.091153562 0.058258712 1514271
1.4424596 0.092602134 0.058073282 1646123
1.4427855 0.094679534 0.058318794 1908000
1.4384364 0.091973901 0.056876004 1516856
1.4404645 0.094091356 0.057588696 1055797
1.4434371 0.096499741 0.05675602 2105902
1.4437258 0.098667979 0.056064904 1710364
1.4359971 0.093452394 0.055427432 3358555
1.438575 0.095716357 0.055502176 1716322
1.442999 0.10153526 0.055073678 1055241
1.4445233 0.10308576 0.053643525 1776659
1.4453804 0.1052469 0.053062618 6185039
1.4466165 0.10658169 0.052355707 7894912
1.4502802 0.10887975 0.051537275 8750490
1.434263 0.095260084 0.053904355 4608370
1.4369433 0.09745717 0.0539698 4347789
1.4454445 0.10639703 0.051626265 2103821
1.4462979 0.10862821 0.051246941 6051136
1.4481467 0.11056089 0.050894022 8750228
1.4307563 0.093909085 0.051886022 8684694
1.4324398 0.096506953 0.052251875 6515343
1.4347649 0.098430157 0.051262319 7834035
1.4351566 0.10008514 0.052242875 6518187
1.4302765 0.097879887 0.051009238 8424102
1.4321094 0.1004492 0.05079639 9477814
1.4338627 0.10104662 0.051329315 8162487
1.4284346 0.099595606 0.050455868 8556459
1.4416156 0.094548345 0.0593068 1974572
1.4384259 0.094012201 0.058021486 1055269
1.4393318 0.095906794 0.059254706 1711397
1.4417669 0.097092688 0.059116781 1975604
1.4362988 0.094928265 0.057470441 1054766
1.437037 0.097098589 0.058026969 1055023
1.439417 0.099157155 0.057861984 1513766
1.4412935 0.10182625 0.056523621 1054233
1.4418069 0.10341221 0.056636989 1711133
1.435107 0.096579671 0.055856287 1977157
1.4352127 0.098381877 0.056111753 1911887
1.4429078 0.10479569 0.054846704 2896663
1.4428377 0.10637069 0.053970754 2303533
1.4329817 0.09793216 0.054219544 1848160
1.4330523 0.099514723 0.054522812 3753319
1.4345725 0.10190004 0.054403245 4610702
1.442293 0.10890388 0.053834021 1777938
1.4425442 0.11110914 0.052807033 1579029
1.4451296 0.11304879 0.05071789 5195817
1.4475992 0.11537665 0.050741017 8750229
1.4296196 0.099374592 0.05194056 7962007
1.4313397 0.10125846 0.052595854 6252682
1.4327992 0.10364753 0.053055704 6648990
1.4435124 0.11522454 0.050288737 3684389
1.4450867 0.11687154 0.050232947 8223608
1.4291896 0.10300642 0.051285386 8292262
1.4308388 0.10543793 0.051730692 8489896
1.427139 0.1044656 0.050871134 8818600
1.437135 0.098600149 0.059827268 1711138
1.4384463 0.10076672 0.0596295 1973539
1.4400797 0.10268831 0.059547663 2170662
1.4413493 0.10457718 0.058194578 2038821
1.4351323 0.10028791 0.058098137 1186606
1.4363391 0.10209447 0.058896124 1448230
1.4387236 0.10475618 0.057712376 1514021
1.4399197 0.10622561 0.058084726 1776678
1.4325683 0.10173059 0.057246089 594732
1.4338441 0.10309911 0.057138741 1451322
1.4364915 0.10667038 0.056332648 1580588
1.4388685 0.10827458 0.056658328 856607
1.4394957 0.11039388 0.05632931 1776679
1.4411626 0.11181432 0.054042757 1973538
1.4307325 0.10330212 0.055506647 1255249
1.4327767 0.1051296 0.054756701 4148852
1.4330876 0.10717279 0.053860843 4875168
1.4354174 0.10896993 0.055227578 1253942
1.439786 0.1146186 0.0539698 1513498
1.4417667 0.11707592 0.051992595 2104077
1.4441329 0.11844087 0.050998151 7431752
1.4298294 0.10427761 0.053276718 3622782
1.430075 0.10682255 0.053172171 5332098
1.4309125 0.10813659 0.053135991 6714006
1.4327581 0.11227381 0.053029358 2438236
1.4409122 0.11763543 0.050989211 1515534
1.4422839 0.11996335 0.05076462 4867890
1.4440305 0.12243223 0.050476313 9210003
1.4265332 0.1060856 0.051108062 8488866
1.4282968 0.10803592 0.05155623 8160673
1.4293716 0.10982728 0.052092135 8358049
1.4407682 0.12061733 0.050108612 2436377
1.4262002 0.10963696 0.051157653 8752553
1.4282787 0.11166966 0.051085293 9477815
1.4378612 0.10344392 0.060542643 2301988
1.4336989 0.10210067 0.059002757 1119273
1.4355071 0.10366482 0.059931278 1711143
1.4369371 0.1059345 0.060197055 2105127
1.4385962 0.10806465 0.058789432 2236972
1.4327176 0.1025911 0.058467448 922414
1.4334524 0.10510844 0.058910072 1186092
1.435082 0.10670328 0.059213221 1973800
1.4371281 0.10887551 0.05792731 1908270
1.4384084 0.11083174 0.058107316 2368561
1.4310422 0.10460472 0.057797968 529192
1.4313227 0.10646933 0.057593882 1186616
1.4323742 0.10841411 0.057482362 1253423
1.4358675 0.11003494 0.056318521 1711918
1.4366868 0.11304635 0.056629121 1645355
1.4389372 0.11690873 0.05504632 1645081
1.4296601 0.1081022 0.055820644 728129
1.4310293 0.10912549 0.055599391 3292503
1.4337037 0.11067265 0.054629982 1123141
1.4356258 0.11586547 0.055490315 1711409
1.437868 0.11619991 0.053797424 988454
1.4370867 0.11894649 0.053692162 1120799
1.4430318 0.12437099 0.05097717 9931646
1.4282832 0.10999811 0.053873181 2439273
1.4288785 0.11164916 0.053966999 5134198
1.4317019 0.11322582 0.052456379 4345203
1.4395788 0.12220466 0.05121696 2237971
1.4409434 0.12474865 0.050253332 5327403
1.4432714 0.12702483 0.050431848 9276064
1.4251626 0.11108297 0.051454961 8883361
1.4267509 0.11272544 0.052194297 7370906
1.4301009 0.11513186 0.050851285 6712462
1.4379714 0.12370604 0.050639868 857115
1.4248143 0.11414063 0.051381886 8621741
1.4233956 0.11591995 0.050218642 9409958
1.4367502 0.10805887 0.060623944 2368040
1.4342511 0.10803258 0.060122192 1973799
1.4360161 0.11045051 0.060457647 2302244
1.4310535 0.10854608 0.058810294 1250865
1.4327929 0.10982817 0.059163272 1580072
1.4341015 0.11274993 0.057522535 1579824
1.4371679 0.11604571 0.056490242 2368547
1.4293756 0.10994834 0.057024479 594740
1.4304671 0.11140198 0.058172226 1449266
1.4320152 0.11299783 0.058161557 1645873
1.4342666 0.11639225 0.056951463 1712435
1.4375476 0.11735612 0.056658447 2433570
1.4284918 0.11063242 0.056544125 531523
1.4285829 0.11307532 0.056898952 1253184
1.4292413 0.11506891 0.055778682 3949404
1.4272859 0.11453509 0.054339945 3753840
1.4276257 0.11592793 0.054250062 5331575
1.4367061 0.1246323 0.052164078 1317131
1.4394467 0.13089025 0.050369978 8946838
1.4229194 0.11463338 0.051864982 8488096
1.4248459 0.11612028 0.052517235 8028061
1.4259567 0.11807859 0.053389013 5332103
1.4397295 0.13312775 0.051204145 9145772
1.4220517 0.11725068 0.0511114 9147050
1.4236264 0.1196245 0.051511705 7830693
1.4293073 0.1155448 0.057896316 1250615
1.4274697 0.11673862 0.056399643 661573
1.439364 0.13479978 0.051843345 9080240
1.4207125 0.12187916 0.051260054 9409192
1.4189832 0.12442005 0.050809562 9607336
1.4207393 0.12560391 0.050234258 9541803
1.4187659 0.12733245 0.050050795 9539744
1.4195558 0.12690234 0.051440418 9675447
1.4178429 0.12927765 0.050614715 9476012
1.4178071 0.13163608 0.051323593 9342628
1.4161116 0.13391 0.051228285 9541547
1.4150289 0.1355474 0.051319063 9871026
1.414598 0.1397537 0.050968826 9543610
1.4138472 0.14101428 0.051314592 9609400
1.4124913 0.14156914 0.051943362 10066859
1.4122683 0.14586616 0.05127728 9739956
1.4130318 0.14738578 0.050688446 9872572
1.411237 0.14698792 0.051775515 10068403
1.4124235 0.14868683 0.05191201 8886456
1.4110503 0.15062284 0.051319122 9543351
1.4118787 0.15278542 0.05117327 9412283
1.4104435 0.15263057 0.050804138 9346746
1.4092427 0.1513927 0.051834047 9807035
1.4082446 0.15341908 0.051932156 10134199
1.4096954 0.15532565 0.051444888 9477562
1.4092982 0.15782207 0.051644742 9412287
1.4075664 0.15543509 0.052660167 9938622
1.4069934 0.1585052 0.052060902 10003130
1.4082894 0.16032803 0.051698625 10002360
1.4057312 0.16005206 0.052081525 10068924
1.4074496 0.16258812 0.051591098 10134203
1.4058435 0.15987635 0.052891731 11183794
1.4060574 0.16382629 0.052309871 10003390
1.4042373 0.1647225 0.052450359 10266302
1.4063895 0.16651636 0.052182853 9675716
1.4031949 0.16624469 0.05289197 10594238
1.4045708 0.16837764 0.052621722 9938370
1.4031057 0.16967815 0.052886665 10332096
1.4043814 0.17181587 0.05207926 9676230
1.4021268 0.17146528 0.053723574 10331078
1.4033597 0.17365032 0.052429199 10134978
1.4044725 0.1752997 0.052105725 9675720
1.4003644 0.17320496 0.053075612 10595010
1.4022604 0.17559588 0.052494586 10135236
1.4043992 0.17801076 0.051660001 9347016
1.4012349 0.17745721 0.052059472 9939145
1.4030313 0.17936081 0.051631033 9675721
1.4013224 0.17340291 0.055180311 9607125
1.4028552 0.17474735 0.056613028 7765953
1.4009235 0.17657512 0.054322898 10264265
1.4027703 0.17884886 0.053578317 10200000
1.4046565 0.18070197 0.052881837 8492488
1.4056234 0.18280512 0.053098381 7571650
1.3992062 0.17799157 0.05329746 10922946
1.4007974 0.18029088 0.052792609 10201287
1.4025669 0.18258208 0.052462995 9609673
1.404505 0.18448865 0.053029597 7835078
1.3983455 0.18100983 0.052484572 10136525
1.4018586 0.17988646 0.056586206 6910903
1.4058928 0.18533123 0.055637896 4942249
1.3983809 0.17955458 0.05510515 10198997
1.3999671 0.18194515 0.054685652 10133702
1.4018471 0.184403 0.054703534 9216201
1.4037135 0.18653297 0.053900182 8032197
1.414449 0.19787139 0.05127728 1909293
1.4155135 0.19967145 0.05229795 7565414
1.3980482 0.18321592 0.053425133 10726598
1.4000063 0.18546724 0.053369939 10660293
1.4017041 0.18786752 0.053894579 9347275
1.4114708 0.19967389 0.050081313 2435660
1.413713 0.19993395 0.051197231 1780289
1.3961358 0.18444884 0.053151846 10727373
1.3982592 0.18650675 0.053101838 10857414
1.4100423 0.20132589 0.050066173 2633547
1.402331 0.17998344 0.059864521 2242689
1.4012237 0.18226445 0.059217632 4084626
1.3995779 0.18396711 0.056801379 8358349
1.4001834 0.18456674 0.058164775 6911150
1.4033163 0.18897057 0.055840075 4808601
1.4056182 0.19030851 0.057964504 1711683
1.3971946 0.18459845 0.055888474 10068185
1.3990397 0.18681878 0.054783642 10856900
1.4003572 0.18952757 0.054479659 10594504
1.4020396 0.19028354 0.054021716 9216205
1.4125354 0.20255435 0.052497923 7632252
1.3969693 0.18826962 0.054131448 10989512
1.3990352 0.19022161 0.054330647 10464204
1.4006212 0.19226849 0.054393113 9740742
1.4074504 0.19874656 0.052828193 2369354
1.4094578 0.20183873 0.052205145 4211798
1.4126272 0.20618945 0.051548898 11839636
1.3953536 0.18925816 0.053831458 10399699
1.4029555 0.17962056 0.064402163 1120840
1.4027377 0.18335581 0.062544763 727103
1.4015462 0.1831336 0.061526835 1715549
1.4026097 0.18638361 0.060201347 532294
1.4005022 0.18580055 0.058710992 5464222
1.4031391 0.19081336 0.057666361 662090
1.4056945 0.19245964 0.057619214 1383231
1.3960648 0.18644685 0.056471705 10397152
1.3985162 0.18767172 0.056910992 8884430
1.3999448 0.18990546 0.056880236 6713774
1.4016631 0.19239068 0.057271302 3425661
1.4028846 0.19452733 0.056949377 4016747
1.4052149 0.19661885 0.05536896 1251899
1.4119214 0.20428711 0.054558694 11118270
1.3960569 0.18971592 0.055520952 10791119
1.3977481 0.1917789 0.055608809 9673929
1.4001451 0.1938082 0.054648101 10396092
1.4014692 0.19613606 0.05557853 8224669
1.4044458 0.19860345 0.055197179 859950
1.405201 0.20094097 0.054721534 1186854
1.4077091 0.20329231 0.053637803 2568242
1.4101431 0.20451719 0.053925693 7895681
1.4122326 0.20804149 0.052591145 11774372
1.3938205 0.19091749 0.054963052 11055309
1.3955383 0.19326138 0.054743111 10989771
1.3974876 0.1955691 0.054743409 10397639
1.4070121 0.20821977 0.05188638 2631228
1.4094768 0.20842677 0.051976025 5917485
1.3964241 0.19710529 0.054126501 11315143
1.4013114 0.19444549 0.057750046 2766707
1.3972805 0.19299918 0.057341278 8883665
1.3992436 0.19550461 0.057317495 4872355
1.4006343 0.19743419 0.057395399 3883640
1.4025753 0.19957697 0.056936085 1910104
1.4042361 0.20253003 0.056289673 2171451
1.4067457 0.20446128 0.055820167 1975328
1.4090945 0.20669067 0.055828035 10196366
1.4112644 0.20912087 0.054823816 11514329
1.3929684 0.19277412 0.056524038 10527962
1.394757 0.19474745 0.05605495 10068947
1.3967569 0.19672751 0.056072891 9673413
1.3985319 0.19899017 0.055638254 9805503
1.4000103 0.20149636 0.056191087 8226478
1.4021902 0.20389742 0.056051135 2764906
1.4044511 0.20604616 0.055044174 1514307
1.4059429 0.20843047 0.054917514 2369571
1.4086021 0.21066839 0.053742588 8091257
1.4105161 0.21262109 0.053544819 11974342
1.3928701 0.19614857 0.055488527 11383758
1.3948736 0.198327 0.055158436 10923980
1.3966022 0.20065111 0.055145442 10922951
1.3978615 0.20258099 0.055303156 11120846
1.4047077 0.20950383 0.05344528 1776676
1.4064701 0.21165013 0.05331403 3484193
1.4084711 0.2141673 0.052727282 9539479
1.3927231 0.19972485 0.055091202 12039369
1.4036877 0.21355337 0.051901162 5653062
1.3977216 0.2001279 0.057430983 7961783
1.3995053 0.20284921 0.056886256 7106460
1.4016405 0.20531029 0.056003988 3421022
1.407795 0.212367 0.055082023 9935537
1.4096644 0.21421176 0.054822803 11121624
1.3916993 0.19796759 0.056254745 10595799
1.3938805 0.19953811 0.056541502 10529241
1.3954434 0.20206678 0.055939198 10923217
1.3975736 0.20427257 0.056129992 11252177
1.3991531 0.20647705 0.056139231 10002366
1.4013758 0.20846677 0.055293202 5266042
1.4032805 0.21094769 0.054706514 4344948
1.4052638 0.21363282 0.054105818 7897515
1.4072015 0.21560794 0.054317415 11054792
1.3917484 0.20089447 0.055960953 11449297
1.3934882 0.20366585 0.055622041 11317966
1.3955066 0.20573229 0.055782616 11318223
1.3979552 0.2081151 0.055671394 11516631
1.4000254 0.21057832 0.055016458 10595019
1.4014881 0.21275264 0.054433882 10593472
1.4032692 0.21478182 0.053674698 9935550
1.3895682 0.20224017 0.055547535 12828102
1.3909037 0.20399255 0.055377722 12499400
1.3907924 0.20311671 0.056507111 10793689
1.3927252 0.2047739 0.056948006 10988768
1.3943629 0.20699841 0.056349158 11580370
1.3965267 0.20925444 0.056272328 11384277
1.3984147 0.21164852 0.055804193 11712472
1.400238 0.21378821 0.055273354 11515353
1.388617 0.2039988 0.056533992 11318996
1.3906391 0.20643461 0.056209624 11581395
1.3925624 0.20824504 0.056183457 11580881
1.3943352 0.21060586 0.056328416 11581140
1.3965259 0.21317673 0.055786431 11580883
1.389142 0.20788014 0.05629319 12106705
1.389092 0.20741916 0.057293952 10924508
1.3913069 0.20974851 0.056913555 11187415
1.3873011 0.20903844 0.057006776 11647190
