# .PCD v0.7 - Point Cloud Data file format
VERSION 0.7
FIELDS x y z rgba
SIZE 4 4 4 4
TYPE F F F U
COUNT 1 1 1 1
WIDTH 1154
HEIGHT 1
VIEWPOINT 0 0 0 1 0 0 0
POINTS 1154
DATA ascii
1.9162145 0.53355098 -0.0022429228 10131630
1.9188731 0.53603798 -0.0024785995 10789813
1.9291241 0.51299506 0.019095123 7568038
1.92398 0.51245487 0.018148899 1911653
1.92663 0.51346785 0.018413782 3097437
1.9296212 0.51583493 0.019072235 8094373
1.9204249 0.51172894 0.01710254 5463719
1.9220161 0.51352698 0.017650068 3096706
1.9248484 0.51540256 0.017176926 728907
1.9260294 0.51719987 0.016441166 461644
1.9293916 0.51917297 0.0156883 2964063
1.9316516 0.52066523 0.015371323 7437472
1.9183154 0.51310992 0.016214192 9344461
1.9206197 0.51483959 0.015952826 7635641
1.9229146 0.5167588 0.015977859 2108260
1.9255035 0.51835966 0.014397562 1319504
1.9273093 0.51987141 0.014087975 1714767
1.9141912 0.51240665 0.014483035 10462418
1.9162514 0.51538068 0.014499426 10462403
1.9190561 0.51642591 0.014079571 10330818
1.9214568 0.51891434 0.013410032 8357818
1.9234809 0.51950228 0.01358825 4805782
1.927331 0.52373093 0.013267219 1973848
1.9303994 0.5252831 0.010352075 463944
1.9332521 0.52788985 0.0097463727 5728372
1.9134251 0.51483142 0.013955772 10330835
1.9149034 0.51618934 0.012479305 10725569
1.9170697 0.51789618 0.012949824 10199237
1.9191214 0.51945126 0.012151003 10067402
1.9216328 0.52201366 0.011851966 9541066
1.9234374 0.52353734 0.0088545084 11251649
1.9276612 0.52503586 0.0088981986 464989
1.9287773 0.52799112 0.0083500743 267362
1.9301748 0.52932042 0.0091845393 988219
1.9325922 0.53286594 0.0079200864 3875
1.9128206 0.51727432 0.011344016 10133190
1.9154153 0.5199104 0.011225283 10264771
1.9172875 0.52233577 0.0108518 9804488
1.9217008 0.52388579 0.0089120269 11711424
1.9252086 0.52794939 0.0069141984 9345729
1.9264553 0.52823043 0.0079026222 4871301
1.9301701 0.532269 0.006090939 3222615
1.9187119 0.52523863 0.0061054826 10922163
1.9206195 0.52569115 0.0075773597 11119287
1.9229314 0.52920055 0.0063044429 11316923
1.9243591 0.53050351 0.007168889 10330286
1.9271392 0.53439683 0.0049232244 4405874
1.9286158 0.53343648 0.0046934485 4407928
1.9160464 0.52542102 0.0054548979 11119541
1.9181621 0.52856648 0.0056205392 11053491
1.9207151 0.53039944 0.0057544708 11184818
1.9273348 0.53608096 0.0022326112 10658504
1.9286737 0.53723627 0.00084501505 11580090
1.9153202 0.52804059 0.0033041835 10987693
1.9200608 0.53307611 0.00099295378 10921154
1.9261338 0.53731501 -0.00016647577 11776955
1.9276319 0.53963178 0.00033730268 11645633
1.9168162 0.53394449 0.00038677454 10592688
1.9192463 0.53516293 -0.00051158667 10263229
1.9213312 0.53743547 -0.0012715459 11645371
1.9237819 0.53883594 -0.0011063218 11974331
1.9263669 0.54126132 -0.0016499162 11776707
1.9276972 0.54267383 -0.0013706088 11578574
1.9171325 0.536789 -0.0013881326 10855601
1.9196775 0.53860056 -0.001870811 11579321
1.9217246 0.54073423 -0.0024522543 11908280
1.9239829 0.54247481 -0.0026855469 11644863
1.9258451 0.54379416 -0.0025805831 11710152
1.9179753 0.54045594 -0.0027992725 11776947
1.9205375 0.54223466 -0.0033343434 11908533
1.927177 0.51616591 0.019162536 3882850
1.9310185 0.51861805 0.019007802 8226733
1.9321826 0.52221137 0.018384993 7438488
1.9219723 0.51567793 0.018156469 2438007
1.9247024 0.51652288 0.019222915 1579844
1.926091 0.5188061 0.018451512 990018
1.9286573 0.51995504 0.018585861 1780045
1.930976 0.52312267 0.017118514 3688048
1.9331102 0.52395898 0.017082632 7898553
1.9203832 0.51586384 0.018256605 4740763
1.9225347 0.51909989 0.017491281 2307195
1.9249547 0.52087641 0.017849505 1513031
1.9261914 0.52198094 0.0158391 464449
1.9292581 0.52327174 0.016468108 725552
1.9321339 0.52632231 0.015718043 4147559
1.918757 0.51656872 0.016009629 8423116
1.9202768 0.51973295 0.015803874 7502257
1.9230373 0.5226267 0.01614368 1516647
1.9244673 0.52375937 0.013572633 2633578
1.9145286 0.51847714 0.01327306 10264797
1.9171126 0.51984501 0.014026403 10002122
1.918733 0.5214358 0.013563931 10001611
1.9208181 0.52364957 0.013230026 9212355
1.9225476 0.52494615 0.014493108 5134255
1.9140427 0.52117956 0.012502372 10265034
1.9168568 0.52367276 0.012400985 10659268
1.9188757 0.52502513 0.012348473 10395850
1.922205 0.52833456 0.011959016 8422582
1.9262667 0.53095615 0.0086407065 4805261
1.9280028 0.53060752 0.0085832477 1252440
1.9296542 0.53410894 0.0083888769 2370384
1.9329383 0.5359742 0.0074498653 1185582
1.9345942 0.53810555 0.0076389909 2171725
1.9366894 0.54087585 0.0071077943 3946811
1.9149473 0.52462214 0.010932863 10330820
1.9171102 0.52660483 0.010757387 10264521
1.9221003 0.53056496 0.0087559223 10791365
1.9246051 0.53136688 0.008676827 7698573
1.9269288 0.53452027 0.007247746 2831470
1.9280012 0.53570622 0.0073671341 2698323
1.9190536 0.53081024 0.0057905316 11316405
1.9225994 0.53383505 0.0061852932 11250873
1.9268961 0.53749257 0.0047598481 5527702
1.92803 0.54019397 0.0040413141 4803457
1.9184824 0.53423434 0.0053555965 11776954
1.920702 0.53530115 0.0050454736 11250869
1.9277275 0.54101223 0.0026478171 8948395
1.9282146 0.54278952 0.001491189 10066868
1.9178503 0.53706294 0.0032091737 11447985
1.9191576 0.53797996 0.00043475628 10657719
1.9256854 0.54226506 -0.00075060129 12171705
1.9276128 0.54445678 -0.00018215179 11908546
1.9279327 0.546965 -0.00049942732 11842499
1.9184136 0.5404911 -0.00030833483 10789047
1.9204335 0.54237264 -0.001744926 11184311
1.9235322 0.54393131 -0.0018950701 11842487
1.92571 0.545838 -0.0019008517 11710909
1.9270015 0.54757541 -0.0014032722 11645124
1.9198077 0.54384416 -0.0020858645 11381942
1.9218206 0.54601139 -0.0022142529 11776947
1.9244525 0.54780149 -0.0029545426 11250373
1.9250114 0.54963261 -0.0029756427 11184834
1.9260314 0.52073526 0.020393908 925745
1.9275556 0.5225414 0.020070136 1515824
1.929895 0.52586818 0.019138277 68130
1.9321828 0.52655339 0.018425286 5924493
1.9228156 0.52017212 0.018562376 1515605
1.9236928 0.52210122 0.019320488 1252441
1.9254713 0.52386165 0.018649757 1449278
1.9275639 0.52762222 0.01793766 856882
1.9307497 0.52731049 0.017392576 3225419
1.9326488 0.52942002 0.017205298 6120057
1.9204284 0.52173501 0.019171417 2699378
1.9220045 0.52404559 0.017427504 3358345
1.9247456 0.52503473 0.016855538 792402
1.9268994 0.52760422 0.016646087 1382462
1.9309402 0.53171468 0.015096128 1777700
1.9325929 0.53176391 0.014970303 132875
1.9357111 0.53609937 0.01410526 3424088
1.9187931 0.52330029 0.015431941 8752333
1.9195666 0.52469599 0.015720069 8949692
1.922241 0.52738857 0.015126526 5199765
1.9241614 0.52797735 0.014509976 2238832
1.9246224 0.53145373 0.014579475 464012
1.9337122 0.53791499 0.012538731 1382697
1.9144001 0.5227223 0.014444351 10790863
1.9165773 0.52529806 0.014411271 10725072
1.9176648 0.52609599 0.014092803 10594239
1.9203511 0.52867872 0.012757719 10198728
1.923604 0.53218496 0.011740863 5790609
1.927629 0.53477478 0.0096005797 1184576
1.930703 0.53779215 0.0097981095 1912401
1.9360425 0.54189283 0.0086516142 4275276
1.9174166 0.52873248 0.011723936 10593473
1.9182531 0.53029037 0.010887623 10527941
1.9208627 0.53249812 0.011322796 10330317
1.9250138 0.53495926 0.008900702 6450318
1.9285488 0.53790349 0.0087906718 2107207
1.9301207 0.53973663 0.0080524087 3420741
1.9318461 0.54158008 0.0081143975 2697275
1.9173014 0.53165245 0.010720789 10330824
1.9185514 0.5338124 0.010427058 10593736
1.924227 0.53749394 0.0069876909 10331838
1.9260373 0.53995198 0.0078908801 8029862
1.9282439 0.54120976 0.0064607263 3093848
1.9289258 0.54354668 0.0065544844 3092307
1.9195988 0.53718966 0.0048074722 11711417
1.9221616 0.53909922 0.0048871636 11514296
1.9241297 0.5394994 0.0064189434 11514812
1.9280152 0.54270202 0.0048723221 3553386
1.9280478 0.54467219 0.0040716529 5198983
1.9293194 0.54726064 0.0042840242 3225456
1.9177036 0.53876972 0.0045332313 11448242
1.9204249 0.53944755 0.0049447417 11711414
1.9224702 0.54217643 0.004427731 11514297
1.9278944 0.5461213 0.0018069148 10067383
1.9283441 0.54790384 0.0019927025 9343667
1.9291157 0.55042261 0.001578331 8685989
1.9194809 0.54374331 0.0016975999 11118514
1.921525 0.54585212 0.0010847449 10921141
1.9248395 0.54813993 -0.0008097291 11645111
1.9275268 0.54969478 -0.00018692017 11843006
1.9277997 0.55144691 -0.00028544664 11513549
1.9209104 0.54749805 -0.00055533648 10855351
1.9231496 0.54907644 -0.0014306307 11579828
1.925282 0.55129385 -0.0015797019 11513531
1.9263806 0.55308038 -0.0015791655 11382206
1.9216752 0.55078024 -0.0021595955 11316155
1.9237025 0.55293417 -0.0028552413 10920896
1.9203465 0.52370363 0.021810949 989292
1.9225593 0.52349257 0.021336138 924997
1.9256177 0.52498287 0.021855712 1580333
1.9278921 0.52767557 0.019823134 987942
1.9300175 0.52866447 0.019539893 135200
1.9326518 0.53166527 0.019082427 5662845
1.9352012 0.53558856 0.017513812 9346226
1.9203572 0.52274555 0.020461261 1778539
1.9200356 0.52550024 0.019188404 5594795
1.9236104 0.52639258 0.018690586 927087
1.9253167 0.52908033 0.018098772 1580881
1.9276094 0.52955085 0.018576682 2106688
1.9302928 0.533382 0.017209232 922149
1.9322729 0.53450489 0.016689479 2633026
1.9347489 0.5367955 0.016021192 6119282
1.9193633 0.52696234 0.016889393 8357809
1.9215062 0.52851909 0.017502666 4805769
1.9235784 0.53115445 0.017043412 1910115
1.9250435 0.53289491 0.016360223 923222
1.9278731 0.53408313 0.016986251 1976142
1.9313047 0.5374645 0.014913976 1909052
1.9333715 0.53917992 0.014323711 990002
1.9346374 0.53975183 0.014127791 594729
1.9151831 0.52673811 0.01557827 10659533
1.9178528 0.52763546 0.016584814 9016012
1.9188747 0.5305953 0.015534818 10067917
1.9223007 0.5323016 0.015359581 6252440
1.9240181 0.53435653 0.01422292 3423077
1.9301642 0.54004294 0.012200356 2567233
1.9318956 0.54131979 0.012344897 1711662
1.9354079 0.54291999 0.010191858 3748146
1.9183195 0.53219408 0.013142407 10922683
1.9204925 0.53369015 0.012364089 10396106
1.9226894 0.53563064 0.01233995 9541315
1.9241085 0.53849399 0.012741089 7897247
1.9284828 0.5412854 0.010486424 3224654
1.931098 0.54369074 0.0096873045 3421252
1.9357278 0.54608625 0.0097988248 460556
1.918559 0.53493679 0.012137532 10527941
1.9206882 0.53750992 0.011416018 10659530
1.9232266 0.54002064 0.011294723 9409710
1.9257047 0.54093158 0.0094178915 6516638
1.9279101 0.54297942 0.00871104 4671056
1.9292064 0.54480863 0.0084873438 3355210
1.9179907 0.53929079 0.0099416375 10198981
1.9236701 0.54326606 0.0066715479 11449021
1.925492 0.54331809 0.007378757 9409439
1.9284306 0.54643953 0.0065187812 3093851
1.9292815 0.54905427 0.005946815 2633579
1.9198539 0.54287183 0.004509747 11447988
1.9209538 0.54344618 0.0060703158 11316661
1.9229381 0.54622716 0.0054934025 11711419
1.9286339 0.54946655 0.00404948 4871048
1.9291352 0.55187851 0.0030824542 7238823
1.9204515 0.54663318 0.0040224195 11184815
1.9217215 0.54697472 0.0038714409 11579313
1.9228609 0.55010849 0.0034561753 11711155
1.9285946 0.55285013 0.0011320114 10921916
1.9292154 0.55515581 0.00077491999 11514293
1.9200373 0.55011982 0.001368463 10986926
1.9218628 0.55034405 0.00041377544 10329269
1.9249177 0.55349028 -0.0011770129 11184565
1.9269522 0.55476999 -0.00045865774 11579583
1.9280397 0.55667728 -8.6426735e-05 11645625
1.922484 0.5544908 -0.0016329288 10855604
1.9246213 0.55630165 -0.0015768409 11053243
1.9270387 0.55856454 -0.0014446378 11117764
1.921262 0.55598551 -0.0021844506 10987187
1.9230299 0.55739504 -0.002030313 10460859
1.9203503 0.52477658 0.023079395 1644383
1.9220638 0.52477378 0.023013473 1449280
1.9232341 0.52867329 0.02306968 2106429
1.9259477 0.52913588 0.022733092 1711671
1.9298661 0.53194517 0.020391703 24
1.9199986 0.52755761 0.021776557 2830472
1.9216201 0.52814424 0.022402763 595326
1.9320381 0.53738409 0.019111097 2106950
1.9338877 0.53757888 0.018078506 5133434
1.9362184 0.54101032 0.017108142 9211300
1.9200215 0.53065103 0.019199133 5857143
1.9255154 0.53481191 0.017615199 1449801
1.9280137 0.5353514 0.017981112 2106690
1.9289172 0.53839856 0.017032743 1974077
1.931848 0.53982294 0.015981793 1448498
1.9339907 0.54151064 0.01643157 1449252
1.9367089 0.54407912 0.015010059 5068380
1.9192348 0.5321309 0.01794976 10331066
1.9212725 0.53454697 0.016498744 6515116
1.9233277 0.53563935 0.016502559 4475519
1.9256575 0.53789687 0.016663015 1975123
1.9258319 0.54012555 0.015597165 595280
1.9302411 0.54167163 0.015495002 2106428
1.9321418 0.54218304 0.013852894 1185835
1.9364185 0.5468598 0.013533711 2567513
1.9171727 0.53406954 0.015664399 10593492
1.9196191 0.53535575 0.015622616 9804486
1.921783 0.53789955 0.014517844 8554171
1.9239671 0.53947145 0.015241742 5462932
1.9258729 0.54204261 0.013391972 4277372
1.9283533 0.54265052 0.013126314 2238570
1.9306767 0.54453647 0.012300253 3619408
1.9332156 0.5466674 0.010844529 1711411
1.9359145 0.54898649 0.010727227 67086
1.93778 0.55136758 0.0095034838 3355689
1.9173892 0.53723514 0.013694465 10527933
1.9199545 0.53903228 0.012960851 10527692
1.9217962 0.54107302 0.0123263 10067399
1.9240444 0.54290456 0.012600124 8093360
1.9260933 0.545362 0.011229932 5264488
1.9297233 0.54669815 0.0095615983 3618891
1.9309237 0.54840922 0.0099774003 3421513
1.9331701 0.55184484 0.0096580386 3158086
1.9390059 0.55439079 0.0090709329 5590343
1.9186327 0.54044873 0.011362135 10264774
1.9195107 0.54303181 0.010451376 10264776
1.9240021 0.54452991 0.0089442134 11251647
1.9242828 0.54539907 0.010589182 10922432
1.9286076 0.54743946 0.0088338852 3684941
1.9291072 0.54966778 0.008051157 3224911
1.930667 0.55241549 0.0078632832 3223618
1.9224699 0.54767048 0.0078139901 11776698
1.9281659 0.55176836 0.0055806041 4081016
1.9293935 0.55376148 0.00588727 3093604
1.9190439 0.54739052 0.0061087608 11184820
1.9283922 0.55500084 0.0035820603 7699109
1.9293423 0.55691457 0.0037209392 6120093
1.9239999 0.55324197 0.0030409098 11711155
1.9265225 0.55642456 0.0020202994 11776193
1.9284664 0.55867189 0.0010316372 10987453
1.9297032 0.56125069 0.00093692541 10855110
1.9217875 0.55628282 0.00086969137 11381933
1.9237889 0.55839682 -0.001003623 10855353
1.9259009 0.55986446 -0.0005390048 11316150
1.9284431 0.56191623 -0.00083446503 11052229
1.9226062 0.55959594 -0.0012881756 10855603
1.9237573 0.56163907 -0.0016701818 11184059
1.927002 0.56325758 -0.0023997426 10986946
1.9269989 0.53262877 0.023054779 1184818
1.9199241 0.52958381 0.024375439 1056360
1.9216113 0.52963883 0.024386644 1122153
1.9237001 0.53297365 0.02368784 2107218
1.9263141 0.53476095 0.023358345 1710387
1.929512 0.53942186 0.021778762 658480
1.9208171 0.53423828 0.020529926 3949412
1.92733 0.53815132 0.018366337 2631492
1.9282084 0.53936303 0.019372642 2368586
1.9311619 0.54184014 0.018509865 1381433
1.933645 0.5431971 0.018103182 2566979
1.9356437 0.54595876 0.01728642 4148293
1.9376718 0.54704607 0.016319454 7370366
1.922914 0.5396148 0.019270778 2305638
1.9250073 0.53901136 0.018696249 1974613
1.9273143 0.54145187 0.017786384 1776964
1.9299464 0.54206669 0.017474473 2235722
1.9314802 0.5446108 0.016728759 1513794
1.933059 0.54777431 0.015143633 461860
1.9367883 0.54855442 0.01556015 5135194
1.9206293 0.53845143 0.01697439 9738420
1.9232538 0.54087019 0.017119825 5265301
1.924525 0.54304016 0.016462803 4147580
1.9270828 0.54557991 0.015094936 727673
1.9293411 0.54695582 0.014306247 1188683
1.9319167 0.54871547 0.012947679 2766416
1.9341872 0.55122507 0.013514161 1119535
1.937711 0.55237705 0.013127863 5263990
1.9389777 0.55545717 0.012536824 7632505
1.9171848 0.53833044 0.015510499 10528472
1.9193811 0.54066622 0.015081108 10922687
1.9208046 0.54168206 0.014863789 9344721
1.9234641 0.5449428 0.013451099 8619956
1.9252849 0.54656696 0.013697863 6448781
1.9279182 0.54989922 0.013101995 1450564
1.9304645 0.55011642 0.011467516 2764864
1.9318986 0.55209017 0.011743307 3487049
1.9338489 0.55411458 0.011875093 2433585
1.9373926 0.55517101 0.0098823905 1315364
1.9394319 0.55736369 0.010349691 6906230
1.9193726 0.54441649 0.012239575 10527947
1.9213928 0.54673254 0.012674868 10527944
1.923413 0.54805547 0.01153779 10790851
1.9260755 0.55034953 0.011686087 8883882
1.9273756 0.55171269 0.011813939 4016253
1.9312154 0.55331451 0.0094142556 3749960
1.9323947 0.55558729 0.0090997815 3618632
1.9342734 0.55767804 0.0092746615 3552074
1.9192214 0.54759103 0.01228267 10265022
1.922555 0.5505662 0.0088410378 11513783
1.9268067 0.55411512 0.0098150969 8555970
1.9297695 0.55488235 0.0070438981 3619410
1.9312322 0.55705446 0.007297039 3355213
1.9323251 0.55918568 0.0079999566 3684686
1.9201055 0.55051422 0.0078781247 11381940
1.9236453 0.55357957 0.0083700418 11514041
1.9277523 0.55760568 0.0055663586 10790836
1.9296798 0.55836058 0.0051326752 4805241
1.9309846 0.56051689 0.0054274201 3291227
1.9228278 0.55614012 0.0064271688 11579576
1.9261241 0.5588221 0.0029340386 11776948
1.9278189 0.55985123 0.003706038 9935273
1.9301982 0.56199527 0.0027874112 7633313
1.9309278 0.56407297 0.0025561452 6909857
1.9263941 0.56174195 0.00087320805 11711155
1.9282465 0.56352037 0.00049239397 11447992
1.9302379 0.56526625 0.00042539835 10855610
1.9310119 0.56758201 -0.00015109777 11052984
1.9221861 0.5617376 -0.00024539232 10723760
1.9242896 0.56360209 -0.00015771389 10921391
1.9261746 0.56546885 -0.000246346 10987701
1.928772 0.56741214 -0.0012027621 11052734
1.9307909 0.56925303 -0.00065070391 10592187
1.9246258 0.56646174 -0.0013083816 10723776
1.9262346 0.56840014 -0.00098997355 10789569
1.9283392 0.56962281 -0.0017154813 10592190
1.9219797 0.53555208 0.023759127 792150
1.9240773 0.53684801 0.023689091 2172784
1.9270042 0.53925562 0.021832526 2632012
1.9300166 0.5440352 0.020878494 1974597
1.9327936 0.54575253 0.019209564 592941
1.9261422 0.54312086 0.019930601 1710926
1.9282293 0.54428345 0.020048082 2368073
1.9311855 0.54676342 0.017991483 1908541
1.9333966 0.5475046 0.017404914 131602
1.9358244 0.55081868 0.016901374 2305333
1.9372958 0.55225652 0.016447961 4739162
1.9236357 0.54289079 0.019903243 2106460
1.9241934 0.54472691 0.01810652 4276857
1.9263904 0.54618686 0.018162906 2041952
1.9313917 0.55084974 0.016068995 2105926
1.9337188 0.55332965 0.015661538 1119027
1.9357851 0.55371547 0.016330063 1186080
1.9372036 0.55551249 0.012542784 66310
1.9241133 0.54717606 0.017490864 6381983
1.9252176 0.54785532 0.015409708 5594003
1.9257817 0.54999948 0.014766097 6185631
1.9292173 0.55237257 0.013658643 1186375
1.9315236 0.5540238 0.013580024 1843531
1.9333439 0.55500883 0.014336884 2105665
1.9359146 0.55751944 0.012930393 1182476
1.9380789 0.55789089 0.012735724 1581070
1.9399647 0.56099892 0.011598647 7565409
1.9210796 0.54726189 0.013872087 10593735
1.9232202 0.54932123 0.013841987 9540796
1.9254105 0.55210376 0.013058186 8817088
1.9268105 0.55451995 0.012169063 7896235
1.9289284 0.55518478 0.012277961 2568285
1.9329535 0.55801433 0.012852073 1776481
1.9348552 0.55927104 0.010376275 2960458
1.9352181 0.56102329 0.011356175 2500158
1.9377503 0.56296581 0.010493577 395292
1.9417472 0.56612504 0.0080451369 10854275
1.9212675 0.55124277 0.012432873 10461892
1.9239371 0.55372965 0.012157917 9935557
1.925403 0.55502367 0.0105685 10067135
1.9276003 0.55721819 0.010524094 8159907
1.9318825 0.55887502 0.0083429217 3026248
1.9331357 0.56083363 0.0086769462 3355209
1.9336498 0.56252807 0.0093050599 3750472
1.9399239 0.56658387 0.0081199408 1840640
1.9220074 0.55501634 0.010072768 10067650
1.9237652 0.55635214 0.0093934536 10659009
1.9317126 0.56203389 0.0062126517 3422545
1.9322417 0.56367725 0.0060850382 3027785
1.9211664 0.55655092 0.0064632297 11250611
1.9237638 0.55846614 0.0066800117 11711161
1.9248538 0.56147939 0.0062090158 11251128
1.9267437 0.56153643 0.0069354177 11317180
1.9277203 0.5628916 0.0040436983 11645362
1.9318306 0.56547123 0.0044241548 4146022
1.9319997 0.56745631 0.0038743615 4672885
1.9363787 0.57044137 0.0027233958 1775149
1.936836 0.57137704 0.0042483211 1513009
1.922334 0.56140333 0.0052405 11119282
1.9322288 0.56886792 0.0021777749 7699100
1.9334069 0.57138735 0.0015894175 6448515
1.9251935 0.56661719 0.00054913759 11448241
1.9274311 0.56894237 0.00046545267 11316399
1.9299078 0.57093936 -8.4400177e-05 11053236
1.9316576 0.57262254 0.00031846762 11382197
1.9257681 0.57048512 -0.00025302172 10987188
1.9277401 0.57173139 -0.00053870678 10526393
1.925231 0.54466814 0.021569431 1975373
1.9277992 0.54810894 0.02192539 2237504
1.9294113 0.54810166 0.021958172 2105917
1.9228249 0.54522711 0.019427419 4605560
1.9266614 0.54830271 0.018737555 1448281
1.9298627 0.55210042 0.018542528 2039883
1.9326309 0.55348569 0.016731381 1908548
1.9388844 0.56023139 0.015136898 4934244
1.925926 0.55169696 0.017524183 3882364
1.92817 0.55342007 0.016761363 2633823
1.9307874 0.55563223 0.01604867 2566226
1.9337699 0.55832851 0.016391814 1713240
1.935221 0.55845135 0.01507324 921390
1.9381375 0.56043631 0.014902771 2633807
1.9406445 0.56258309 0.012992203 7960731
1.9222767 0.5523625 0.016036928 10593472
1.9245043 0.55261308 0.016256928 7369622
1.9270637 0.55451047 0.014659703 5659548
1.9294815 0.55791986 0.014210761 2303836
1.9318261 0.55860043 0.013870358 1250888
1.9349768 0.56242424 0.011322796 2895682
1.9382 0.56463683 0.011333466 1709624
1.9404229 0.56721795 0.011398017 4276549
1.9207304 0.55386674 0.013907313 10396377
1.9224552 0.55369085 0.013845623 10264270
1.9249467 0.55662459 0.013390362 9409727
1.9271411 0.55839103 0.01288265 8159144
1.9289327 0.56126601 0.012416124 6909351
1.934412 0.56372857 0.010572135 3290695
1.9363699 0.56492054 0.010176659 1185822
1.9379213 0.56831902 0.0099934936 1118759
1.9407847 0.5688476 0.0083942413 4010086
1.9233049 0.55720508 0.011426091 10067396
1.9247267 0.56053209 0.011241913 10264518
1.9288046 0.5623945 0.0091912746 7566982
1.9300305 0.56541783 0.0087586641 7171971
1.9319725 0.56587601 0.010367632 3227224
1.9230891 0.56237692 0.0086955428 10592955
1.9257057 0.56379712 0.0075414181 11448249
1.9279872 0.56495523 0.007248342 11317183
1.9291117 0.56797415 0.0069144368 11251135
1.9376851 0.57381344 0.0045184493 1249313
1.9244881 0.56571013 0.007440567 11185077
1.9274505 0.56838495 0.0069504976 11711419
1.9351902 0.57410753 0.0036256909 2894681
1.938934 0.57701516 0.0042186975 1838360
1.9290652 0.5721243 0.0015746355 11579315
1.9317613 0.57433784 0.0018856525 10592678
1.931996 0.57560503 0.00098645687 11579573
1.93581 0.57968086 0.0010272861 4537702
1.9246829 0.5721578 0.00030380487 10789812
1.9270921 0.57391798 0.00029689074 10921652
1.929846 0.57530433 -0.00024098158 11316401
1.9309999 0.57736206 -0.00019043684 11381940
1.9251144 0.57609886 -0.00045782328 10592432
1.9283857 0.57767791 -0.0011461377 10790063
1.9293988 0.58002001 -0.0013329983 11250607
1.9303076 0.58161527 -0.0019007921 11381937
1.9262216 0.54812187 0.022029757 2171474
1.9294858 0.55382282 0.020792186 1710906
1.9236271 0.553083 0.020143211 6514317
1.9261432 0.55317873 0.020145059 2698099
1.9329374 0.55970693 0.015851319 1579845
1.9348214 0.56209034 0.015863359 1188429
1.9361212 0.56235111 0.016668856 528661
1.939737 0.56506407 0.015161633 8094102
1.9415076 0.56748515 0.014653325 7041907
1.9211023 0.55411285 0.018254817 10988225
1.9227896 0.55416799 0.018266082 10396354
1.9282978 0.55863398 0.016210854 4672657
1.9305735 0.5604921 0.015756786 1251918
1.9325218 0.56218833 0.015737116 1910619
1.9380051 0.56729794 0.014191866 1382984
1.9397477 0.56852043 0.012663603 2369075
1.9420488 0.57073081 0.012547314 7173004
1.9220808 0.55601126 0.015084922 10527695
1.9249911 0.55827135 0.015537083 8028601
1.9265417 0.56067663 0.015376627 7567270
1.9286371 0.56209427 0.014441192 5658764
1.9306697 0.56446016 0.014037073 3157616
1.93327 0.56442952 0.01396817 1251649
1.9358859 0.56768996 0.012337148 1578827
1.9372799 0.56900042 0.012407064 2630989
1.9399009 0.57189286 0.012285769 460600
1.9415561 0.57329124 0.010498524 5789256
1.9228544 0.56090087 0.012901604 10133199
1.9247855 0.5611521 0.013171852 10527442
1.9269774 0.56358057 0.012995064 8816819
1.9275266 0.56683499 0.012030005 10330318
1.9340363 0.56875116 0.0098763704 1583469
1.9386292 0.57406718 0.0087947249 328758
1.9395206 0.5744642 0.0095757842 38
1.923594 0.56354141 0.011749685 10133443
1.9248908 0.56607461 0.010607958 10659518
1.9302566 0.56863719 0.0084235668 8553883
1.9319553 0.57075274 0.0086391568 5066581
1.9393911 0.57795089 0.0057436228 1967360
1.9256536 0.56878597 0.0069481134 11382198
1.9273823 0.57087511 0.007193625 11711161
1.9302566 0.57351649 0.0067635775 10987694
1.9374027 0.57817698 0.0050302744 463683
1.9405792 0.58120495 0.0053839684 590080
1.924304 0.57032126 0.0071513653 11316402
1.9304467 0.57555896 0.0033481717 11645109
1.9333193 0.57805663 0.0029609203 6579308
1.9345075 0.58131063 0.0026013255 5790047
1.9364653 0.58111072 0.0032847524 1187662
1.9265312 0.57595885 0.001981318 11118763
1.9294038 0.57845646 0.0015941262 11776692
1.9311763 0.57918078 0.0015199184 11382195
1.9265151 0.57889658 0.0004927516 10592179
1.9305425 0.58119732 0.00050187111 11579570
1.9314606 0.58287942 -0.0018778443 11447985
1.9334645 0.58420813 0.00084728003 11382452
1.9272997 0.58294553 -0.0018453002 10592437
1.929639 0.58449918 -0.0021847486 11184559
1.9280844 0.58631283 -0.0025562644 10855340
1.9269702 0.5547713 0.022078931 1777275
1.9280591 0.55548382 0.022992015 1777735
1.9310874 0.55753756 0.022170365 198953
1.9247174 0.55607849 0.021716118 4671877
1.9260861 0.55731976 0.022196531 3093617
1.9430106 0.57095927 0.015336573 8618898
1.9210916 0.55507106 0.019604564 10922432
1.9227808 0.55566257 0.020250022 10067133
1.9299512 0.56393999 0.017230928 2634341
1.931676 0.5637641 0.017169297 2239582
1.933795 0.56588763 0.01654911 2369364
1.9364491 0.56878603 0.015397608 2235723
1.939132 0.56918532 0.01492542 2502191
1.9413003 0.57124972 0.015316904 5789799
1.921659 0.5583415 0.018050492 10461881
1.9262605 0.56320405 0.016146183 7699891
1.9281914 0.56385076 0.016494989 5199499
1.9308252 0.56586057 0.015855908 2566748
1.932797 0.56757057 0.013520241 987768
1.9336294 0.57039678 0.014398694 1381722
1.9378504 0.57160103 0.015440285 1315920
1.9390109 0.57333559 0.013362467 1119025
1.9418616 0.57496476 0.012627125 4540271
1.943333 0.57685637 0.01298815 7304332
1.9239558 0.56385005 0.014923573 10198732
1.9259238 0.56518936 0.014215469 9475018
1.9293097 0.56762874 0.013592124 6250643
1.9310153 0.56922978 0.013656795 3355259
1.9325027 0.57198292 0.012500703 3948926
1.9342668 0.57487673 0.012412369 2893927
1.9378221 0.57483035 0.01144731 1908303
1.9391649 0.57674986 0.011322558 527665
1.9244227 0.56765866 0.012174726 10659008
1.926301 0.56925416 0.012129307 10396099
1.9288752 0.57123578 0.012210429 8816825
1.9410365 0.5821408 0.006908834 1179904
1.9241283 0.5708822 0.011660218 10132676
1.9385986 0.58270186 0.0065259337 67860
1.94221 0.58528018 0.0066305995 393272
1.9275782 0.57412076 0.0068285465 11711161
1.9349648 0.58224648 0.0041261911 4409189
1.9362712 0.58286136 0.0055966377 1581104
1.9258795 0.57688457 0.0049530268 11513781
1.9339218 0.5851441 0.0023722053 9804213
1.9280434 0.58267295 0.0013980269 11579569
1.9308858 0.58519673 0.00098085403 11711155
1.9321966 0.58584368 0.0025583506 11842741
1.9351442 0.58840352 0.0021496415 9409434
1.9278797 0.58565784 -0.0003618598 10789304
1.9308224 0.58853805 -0.0018768907 11447985
1.9292459 0.58974594 -0.0020226836 10987182
1.9294646 0.55850303 0.023487389 1516362
1.9269218 0.55891401 0.024164677 1581907
1.9235256 0.55885506 0.020953119 8882627
1.93012 0.56525248 0.018375039 2698070
1.9445205 0.57752347 0.01454109 9409186
1.9230777 0.56115258 0.019074082 10329522
1.9284701 0.56549042 0.018415272 2897014
1.9290588 0.56817526 0.01771909 3883654
1.9315213 0.56806731 0.018417716 1779802
1.9350288 0.57028437 0.016641915 1253458
1.9389132 0.57545203 0.01497829 1318700
1.9408054 0.57722223 0.014261842 3093599
1.9427812 0.57890552 0.014274061 7435405
1.9452698 0.58093554 0.014346182 9870001
1.9250932 0.56642908 0.016307175 8882636
1.9277368 0.56888443 0.016392767 7501745
1.9302883 0.57139242 0.015727043 3752570
1.9342999 0.57617927 0.013518035 2238585
1.9368812 0.57710624 0.013602197 1186889
1.9387192 0.5787859 0.013364971 1711684
1.9434047 0.58274186 0.013220787 6909582
1.9244268 0.57042402 0.01579982 10001622
1.926239 0.57094347 0.014337599 9870023
1.9277167 0.57252026 0.01347065 9869496
1.930198 0.5748508 0.012998879 7436196
1.9323483 0.57607436 0.012979448 4409476
1.934368 0.57836199 0.012645066 1712476
1.9266369 0.57365465 0.012148559 10461898
1.9280089 0.57701308 0.011928141 9935557
1.9404243 0.58603215 0.0067569613 30
1.9434327 0.58853978 0.0064080954 5916954
1.935879 0.58411807 0.007175982 1778256
1.9378457 0.58702081 0.0068904757 856894
1.9408238 0.58955467 0.0065116882 461332
1.9446211 0.59179389 0.0060485005 6706041
1.9358301 0.58980739 0.0044369698 6580635
1.930437 0.58653766 0.0026074052 11711155
1.9336134 0.58956563 0.0029611588 10592676
1.9303604 0.58989006 0.0018321872 11711155
1.9328741 0.59299326 0.0019481182 11447987
1.9303036 0.59367627 -0.00099080801 11184816
1.9320148 0.59575975 -0.00094121695 11184815
1.9440099 0.58285969 0.015216291 7501459
1.9328644 0.57623976 0.015190065 3225989
1.9352052 0.57812524 0.014888763 2106732
1.9379489 0.57991493 0.015098155 461863
1.9406277 0.58213556 0.01466465 2764608
1.9423778 0.58384854 0.014425874 6383985
1.9452289 0.58623022 0.014092624 9410217
1.9258021 0.57329696 0.015919566 9540553
1.9274778 0.57300091 0.015802145 7963324
1.929775 0.57639253 0.014483094 7304618
1.9317504 0.57890898 0.014787138 4803983
1.9340661 0.57969892 0.0145998 1909849
1.9363444 0.58257854 0.013999641 1319518
1.9386207 0.58343333 0.013544023 1185846
1.9426444 0.58704489 0.013745904 1320472
1.9252665 0.57648242 0.014293671 10527943
1.9278111 0.57795036 0.013727129 10264774
1.9303946 0.57906789 0.013549626 7633318
1.9394599 0.589239 0.010370195 1711424
1.9263655 0.579647 0.011886597 10527682
1.9284222 0.58158177 0.011899173 10133198
1.9420422 0.59278238 0.0061820149 1839374
1.9441447 0.59569526 0.0059349537 4665643
1.9458435 0.59505343 0.0058259368 9205857
1.9470924 0.59825516 0.0055262446 10590324
1.9382148 0.59056944 0.0066152811 1122645
1.9394374 0.5938291 0.006392777 1450289
1.9423852 0.596389 0.0059840083 1639168
1.945333 0.59894925 0.0055752993 7758686
1.9359446 0.59368378 0.004455626 6580865
1.9383943 0.5967266 0.0046387315 3292493
1.9320201 0.59410292 0.0031145811 11711156
1.9344788 0.59712648 0.0032719374 10856373
1.9293537 0.59464383 0.00094133615 10855860
1.9308932 0.59644699 -0.0005415082 11184813
1.9301533 0.59875047 -0.00057977438 10658226
1.9331744 0.60049331 -0.00047880411 10987186
1.9349706 0.60285008 -0.00073552132 10526648
1.9353229 0.58126247 0.017430127 1578801
1.9369049 0.58128816 0.016520441 658736
1.9398963 0.58419257 0.015867651 396075
1.941968 0.58585429 0.015837848 5462359
1.9442867 0.58715099 0.015984595 8357279
1.9464447 0.58916295 0.015038192 10067390
1.9314874 0.58096838 0.016655505 3686789
1.9331099 0.58109856 0.016285896 2173288
1.9355738 0.58435214 0.016455591 1385026
1.9380014 0.58527595 0.015642941 658727
1.9401072 0.58743286 0.014453113 462378
1.9420097 0.58954471 0.014036238 2304305
1.9445281 0.59067929 0.01343292 6777968
1.9462817 0.59404069 0.012957096 7765179
1.9268228 0.57983541 0.016598165 8686793
1.9298542 0.58055466 0.015635967 7041692
1.9307901 0.58428872 0.015478134 6317474
1.9334807 0.58506632 0.014672339 3817840
1.9366117 0.58611971 0.013695657 2040403
1.9385743 0.58917284 0.013412297 1842243
1.9402609 0.58995616 0.013860762 1645889
1.9445243 0.59466863 0.012667835 4672646
1.9276373 0.58305502 0.013664424 10396099
1.9299486 0.58466631 0.013278484 9343677
1.9315627 0.58842748 0.012973309 7568321
1.9341689 0.58857256 0.012968659 3621503
1.9275521 0.58596599 0.013207436 10067139
1.9406255 0.59708315 0.0060331821 1251118
1.9435325 0.59958631 0.0057829618 1376768
1.9464805 0.60214645 0.0053742528 10849672
1.9476509 0.60235882 0.0061292648 11246766
1.9495379 0.60477453 0.0050811172 11512485
1.9377806 0.59757268 0.0054150224 3751011
1.9417732 0.60028052 0.0058320761 264731
1.9447815 0.60278815 0.0054832697 1704448
1.9514771 0.61023772 0.0030553937 11315883
1.9349098 0.59812039 0.0048740506 8422325
1.9369779 0.60102731 0.0044898391 2240628
1.9316111 0.5976997 0.0025831461 11711155
1.9330621 0.60142714 0.0031231046 11250603
1.9391804 0.60711509 0.0012411475 4014189
1.932325 0.60153455 3.8564205e-05 11053233
1.933856 0.60427707 -0.00039714575 11184818
1.9366916 0.6056025 -0.00056999922 10461113
1.9376299 0.60744113 -0.00013363361 9540522
1.9322367 0.6055519 -0.0013096929 10658231
1.934662 0.60718662 -0.00086051226 10658230
1.9451919 0.58853763 0.01815182 8686009
1.9415271 0.58774352 0.016989887 3226976
1.9451628 0.59121639 0.016516685 8225166
1.9321837 0.58403534 0.018689394 1843788
1.9348333 0.58544499 0.018202245 1317181
1.9367526 0.58842003 0.017457426 1252924
1.9398303 0.58865976 0.01767087 2831675
1.9420073 0.59125572 0.014900565 1580857
1.9434073 0.59254485 0.015279949 5134946
1.9467037 0.5943417 0.015854716 9804206
1.9483021 0.59660912 0.014016926 9409202
1.9303885 0.58521128 0.016830385 3819926
1.9330415 0.58724064 0.016751111 1252698
1.9350197 0.58784068 0.016477048 1909328
1.938603 0.59104031 0.015400648 2039870
1.9405683 0.59242076 0.014995635 330009
1.9422009 0.59523535 0.013788283 2500655
1.9443409 0.59631574 0.013667881 4869991
1.9465489 0.59814799 0.013329148 8027547
1.9484274 0.5998823 0.012444973 9014691
1.9291506 0.5863148 0.015624762 6385065
1.9316708 0.58855212 0.015421987 2171762
1.9298139 0.58893573 0.013684154 7633305
1.9379277 0.59723854 0.010317266 2499404
1.9452126 0.60378188 0.0070852637 2098002
1.9351076 0.59778839 0.009726882 99
1.9429958 0.60354012 0.0056095123 131080
1.948046 0.60901284 0.004953742 8944975
1.9348302 0.60300976 0.0062254071 5658209
1.9461722 0.6123777 0.003279984 919557
1.950914 0.61424947 0.0029591322 11905969
1.9335061 0.6023919 0.0046865344 9343124
1.9366632 0.60712069 0.0036253333 4016767
1.9401226 0.60848051 0.002918303 597846
1.9457152 0.61144203 0.0017550588 65556
1.9533534 0.61943203 -0.00055265427 2039087
1.9315703 0.6056655 0.0029956698 11842484
1.9356024 0.60731554 0.0017587543 8685725
1.937554 0.60964411 0.00089991093 7304357
1.9383312 0.611516 0.0012738705 7174334
1.9339104 0.60914713 -0.0004503727 10921396
1.9356785 0.61093169 -0.00039440393 10460605
1.9340217 0.61179793 -0.0008829236 10724023
1.9348824 0.58592796 0.022457063 2104387
1.9298127 0.58413392 0.020923436 263466
1.9325606 0.58511931 0.021760762 2565449
1.9357736 0.58986223 0.019152403 1975108
1.93822 0.58946556 0.018334568 1185814
1.9277079 0.5850237 0.020449281 3752314
1.932291 0.58882815 0.01793021 465251
1.9337757 0.58966219 0.018159866 1318735
1.9377481 0.5927068 0.017249763 1449013
1.9383707 0.59289795 0.016258419 1382204
1.9416003 0.59753215 0.015875995 1120069
1.9435458 0.59729993 0.015024126 3752291
1.9456518 0.59988266 0.014529407 5792093
1.9477541 0.60167855 0.014530122 8291473
1.9501166 0.60377032 0.013134897 9278373
1.9284114 0.58810699 0.016381621 6187168
1.930527 0.5904842 0.016487658 2832245
1.9321158 0.59246767 0.01621449 2108261
1.9345195 0.59339505 0.016330838 1185862
1.9375076 0.59653568 0.015888035 2106445
1.9389911 0.59763378 0.01472193 1908802
1.9415781 0.59960693 0.014373302 461858
1.9441993 0.60119176 0.013636768 2962246
1.9459767 0.60208309 0.013676226 6316675
1.9491496 0.60571247 0.012193978 10460846
1.9309263 0.59302431 0.015717328 3816818
1.9328136 0.5955708 0.015283883 4344205
1.9368713 0.59933925 0.012722194 1449786
1.9398232 0.60193098 0.012420595 3157041
1.9473033 0.60669613 0.011693537 8162161
1.9311268 0.59737617 0.013225973 9540555
1.9338255 0.59940082 0.011320829 4802143
1.9304826 0.59971607 0.011248529 10856392
1.9393938 0.60886866 0.0073179603 2829371
1.9424987 0.60972929 0.0060151815 2500401
1.9491545 0.61494339 0.003008306 7168873
1.9521366 0.61750907 0.0027365685 11709076
1.9330705 0.60370374 0.0062745214 11184821
1.9373994 0.60796571 0.0046215653 2700888
1.9380322 0.60940301 0.005656004 2699336
1.9406414 0.61104661 0.004871428 1646655
1.9503771 0.61820304 0.0027856827 9406321
1.9528087 0.62102306 0.0017907023 7894372
1.93223 0.60712719 0.0053601265 11711155
1.9360893 0.60920936 0.0030270219 6975376
1.9374497 0.61069274 0.0035603642 4279932
1.9392909 0.61231041 0.002751112 3032961
1.9488771 0.62016481 -0.00049322844 3876920
1.9510502 0.62244666 -0.00069570541 5128771
1.9538502 0.62332267 -0.00092506409 2961734
1.935696 0.61272866 0.00046378374 10789821
1.937279 0.61438441 0.0015259981 9014458
1.9480984 0.62367958 -0.0013905168 2362900
1.9337497 0.61419159 -0.00025480986 10724022
1.9348629 0.61579198 -4.1604042e-05 10592439
1.9460222 0.62387222 -0.0020437837 4276293
1.9307218 0.58656359 0.023130655 2039359
1.9341985 0.58951366 0.02302891 2960719
1.9279482 0.58697444 0.022649825 2765151
1.9319885 0.59090781 0.020973444 1516406
1.9337264 0.59096503 0.020935357 2764616
1.9366989 0.59450871 0.020443499 2764600
1.9390861 0.5959096 0.019128919 1579312
1.9423748 0.60029209 0.01775682 1317439
1.9506147 0.60549617 0.015142381 8882597
1.9297466 0.59323227 0.019179642 3488604
1.9314843 0.59328943 0.019141555 397924
1.9357078 0.59664911 0.015971243 1513309
1.9388305 0.59912527 0.016397595 2370384
1.9412148 0.60186535 0.017801464 1383477
1.943434 0.60346961 0.015790999 4936279
1.9455138 0.60430819 0.014211953 4015185
1.9474754 0.60675228 0.014323533 7764618
1.9503543 0.60881847 0.013636231 9672357
1.9310887 0.59574652 0.015345633 6581423
1.9338585 0.5966419 0.015998662 70
1.9351704 0.59895551 0.015902042 2042459
1.9367998 0.60139775 0.014260888 1515066
1.9394226 0.60294271 0.014656663 2896208
1.9415622 0.60448307 0.013812125 1646642
1.9428139 0.60771036 0.013364613 1912122
1.9455123 0.60765839 0.013344884 2898470
1.9478595 0.61078703 0.011786878 6581886
1.9502277 0.61235887 0.011601031 9738428
1.9524646 0.61553723 0.011199713 10395584
1.9332306 0.60099196 0.013330042 5856649
1.9347837 0.60249853 0.013895631 1516901
1.9371555 0.60379666 0.013160646 1711402
1.9513304 0.61613578 0.010365784 8752783
1.930968 0.60304606 0.01237601 9409212
1.9334803 0.60370576 0.012373865 5923234
1.9406537 0.61011451 0.0091535449 3487306
1.9407773 0.61174613 0.0095759034 3553603
1.9334219 0.60958713 0.0092280507 8816267
1.9389303 0.61100298 0.0070986152 2828606
1.9537811 0.62432528 0.0036117435 11512487
1.9329647 0.60865128 0.0077031255 11250603
1.937588 0.61477983 0.0058264136 924496
1.9370439 0.61720729 0.0032122135 6712212
1.9465283 0.62492853 -0.0004632473 3223102
1.9506673 0.62787348 -0.0014061928 5126709
1.9522989 0.62905329 0.00098079443 11179174
1.9350663 0.61757123 0.00099462271 10460608
1.9368329 0.61964899 0.0012615919 9408445
1.9380597 0.62175179 0.0016511083 7895734
1.9399519 0.62368852 -7.1883202e-05 2505070
1.9442627 0.62456638 -0.001994729 4013121
1.948015 0.6289435 -0.0012940168 1711412
1.9354298 0.62165403 -0.00031042099 10197693
1.9448433 0.62898618 -0.0027237535 4605280
1.9308326 0.58840567 0.024796546 2566733
1.9325912 0.59138614 0.024706185 4541025
1.928404 0.59000176 0.024502575 1254225
1.9309384 0.59133661 0.024831951 2106684
1.9331745 0.59492838 0.02120316 2437973
1.934911 0.59582096 0.0221892 3225672
1.9405046 0.60023695 0.019433498 462866
1.9297249 0.59475601 0.021202147 1450829
1.9308796 0.59554583 0.02194947 1712965
1.9395015 0.60186833 0.017867386 4475491
1.9436169 0.60648227 0.015402317 3356217
1.9486837 0.61037958 0.0141868 10066599
1.9510287 0.61242449 0.014479876 8883618
1.9357469 0.60287523 0.016033828 1123678
1.937664 0.60415131 0.016824841 2436696
1.9418051 0.60676819 0.015481293 2895190
1.9431806 0.60964143 0.015601099 2566741
1.9447923 0.6101715 0.01393348 1186856
1.9473567 0.61213517 0.014253795 5791843
1.9494002 0.61309361 0.014332891 9673147
1.9515281 0.61608618 0.012543738 10460324
1.9326038 0.60261077 0.014974415 4608917
1.934139 0.60489935 0.014421284 2107228
1.9353317 0.60599101 0.014781773 1845083
1.9386904 0.60817868 0.013798594 2370368
1.9409308 0.61019695 0.013687313 2961486
1.9439268 0.61339718 0.013288856 1775928
1.9459378 0.61382115 0.012710929 2040885
1.9488201 0.61606801 0.012094438 7302500
1.9496337 0.61679 0.01098454 3948610
1.9525814 0.61890918 0.010691226 10198183
1.9327683 0.6068064 0.013301075 5924241
1.9329038 0.60786414 0.013588428 2963830
1.9414344 0.6125862 0.010592282 6185075
1.9444164 0.61619985 0.010569513 4673113
1.9394548 0.61520141 0.0088373423 1775900
1.9547746 0.6297369 0.00324893 11644078
1.9396781 0.62230611 0.0033374429 3290201
1.9495846 0.63003206 0.0010759234 918565
1.9537543 0.63281268 0.0016277432 11969168
1.9380562 0.62329805 0.0021721721 6185869
1.9415796 0.62800002 0.0013847351 3620702
1.9461541 0.62963301 -0.0011462569 4408925
1.9373997 0.62475425 -9.0003014e-06 8487584
1.9382596 0.62675208 -0.00035595894 9868994
1.9443946 0.63032717 -0.0010971427 3883874
1.9371705 0.62805259 -0.0010111928 10131905
1.9340098 0.59710538 0.023931861 3685462
1.9365915 0.59719026 0.023899436 1645869
1.9303511 0.59714502 0.023117244 1648727
1.9329365 0.60438454 0.02036351 2368840
1.9354501 0.60494715 0.019927204 2369591
1.9373099 0.60627043 0.019259214 4014146
1.940249 0.60825646 0.016687095 2566741
1.9415984 0.61118752 0.016884029 2303565
1.9432876 0.61126864 0.015580237 1381942
1.9463751 0.61367071 0.015434802 5002333
1.9491904 0.61591524 0.015510142 10001072
1.9515094 0.61717033 0.014930069 9342897
1.9531329 0.62012529 0.014759123 9277351
1.9324411 0.60578889 0.017584562 1648751
1.937397 0.6092813 0.016085207 2174026
1.9401984 0.61158329 0.016260743 3026758
1.9433181 0.61430967 0.015982687 2303294
1.9440632 0.61520123 0.014506042 2304063
1.9473164 0.61703604 0.014378726 5527150
1.9495825 0.61957473 0.013772607 6053249
1.9518392 0.62089157 0.012340903 9277357
1.9540834 0.62250096 0.012257636 10067391
1.9320893 0.60712928 0.015355885 3623043
1.933645 0.60977596 0.015512526 2700390
1.9360214 0.61033463 0.015378416 1779548
1.9397576 0.61415225 0.015327871 2566707
1.9335037 0.61255479 0.014412284 1911387
1.9411778 0.61951852 0.010736823 4277081
1.9429371 0.6188243 0.010687709 3684945
1.9552808 0.63079304 0.0048295259 11446438
1.9401087 0.62247401 0.009059906 4013909
1.9564773 0.63411075 0.0046840906 10722201
1.9493686 0.63187253 0.0035720468 1509159
1.9505913 0.63513219 0.003349483 3812424
1.9519949 0.63350672 0.0016768575 7166279
1.9556339 0.63693583 0.0017883182 9800075
1.9374566 0.62436992 0.0050517917 5331095
1.9476089 0.63256651 0.003621161 2495798
1.9531915 0.63682449 0.0015314221 7167857
1.9553261 0.63999218 0.00097388029 7760492
1.936776 0.6082716 0.019712508 2501957
1.9488796 0.61873293 0.01678592 9804729
1.9519567 0.62126511 0.014886439 9738164
1.9544961 0.62404418 0.015082181 8423588
1.934531 0.60937846 0.019027591 2173513
1.9374912 0.61217165 0.018058896 2106685
1.9393525 0.61292922 0.018508255 2368319
1.9417038 0.61536604 0.017050564 1316901
1.9435314 0.61804014 0.016079783 1384257
1.9459321 0.61837554 0.016143262 3095123
1.947854 0.6213209 0.015745699 3685967
1.9498879 0.62339264 0.015222013 6582657
1.9526209 0.62403327 0.014423251 7502229
1.9548001 0.62696284 0.013353407 8094361
1.9327811 0.61178905 0.016644359 2899847
1.9354072 0.61328042 0.017129123 923736
1.9374115 0.6150251 0.016404927 1122372
1.9390861 0.61638618 0.016207576 1252900
1.9427919 0.61909032 0.016076624 1319723
1.9446838 0.62062758 0.014589071 1776437
1.9473068 0.62301528 0.013940752 660533
1.9490807 0.62296015 0.013934731 5529215
1.9515767 0.62646043 0.01296854 6778765
1.9547756 0.6286214 0.012123883 7041420
1.9335399 0.61414468 0.015432358 2962019
1.9356434 0.61680168 0.015377879 659792
1.9425726 0.62333018 0.011323869 2631218
1.9407983 0.62390935 0.011454403 2236460
1.9437953 0.62659001 0.011101365 2303528
1.9391146 0.62549174 0.0073615909 2240124
1.9480402 0.63356048 0.005223155 1904427
1.9485358 0.63454038 0.006079793 2564925
1.9405094 0.62930363 0.0079486966 331830
1.9509326 0.63885719 0.0032564402 3284762
1.9554293 0.64119244 0.0012512803 8351331
1.957392 0.64340156 0.0014209151 9866117
1.9586347 0.64629257 0.0010504127 9866617
1.9375535 0.63197231 0.0044230223 4145787
1.9391769 0.63232982 0.0027596354 2174330
1.9537058 0.6431548 0.00099605322 3220528
1.9564333 0.6469577 -6.5147877e-05 1704488
1.9594555 0.64878112 -2.4497509e-05 3092813
1.9384433 0.63836122 -0.00029557943 9803183
1.939513 0.63918674 0.00056904554 8224671
1.9366027 0.61388236 0.02003628 1054754
1.9390163 0.61489421 0.019314706 1974331
1.9404693 0.61601526 0.018574834 2171189
1.9450476 0.62095439 0.017512321 200479
1.9465344 0.62221217 0.016357064 2896974
1.9540651 0.6284517 0.015666187 9671850
1.9342895 0.6142835 0.019081295 133425
1.9367762 0.61656988 0.018203855 1252161
1.9392591 0.61922628 0.017798662 1908789
1.940896 0.6196301 0.017297328 1448510
1.9439921 0.62204045 0.016273737 1449014
1.9450551 0.62497103 0.01605016 1448747
1.9480309 0.62670106 0.01515162 1252643
1.9507065 0.62798429 0.014952064 5857387
1.9527571 0.63005966 0.01445502 8619923
1.9554433 0.63067752 0.013914645 8619418
1.9353822 0.61887103 0.017168283 1711676
1.9386206 0.62101823 0.017557144 1053499
1.9418551 0.62333339 0.015809476 1975358
1.9439738 0.62427151 0.015238106 2434364
1.9544742 0.6338864 0.012858927 8883114
1.9360094 0.62006968 0.014275908 1580109
1.9369659 0.62308538 0.014276326 1579095
1.9400846 0.626984 0.013696611 1381425
1.9418964 0.62710398 0.012469828 1975075
1.9475271 0.63264799 0.01195699 2500661
1.9492404 0.63264501 0.011891067 1316387
1.9359305 0.62490737 0.011907876 4738668
1.9381931 0.62824398 0.011201739 329250
1.9403636 0.62865299 0.012536228 594459
1.9418433 0.63069195 0.010596633 1776162
1.9443569 0.63236606 0.0095406175 2894910
1.9366751 0.63032734 0.0082141161 7633306
1.9416904 0.63282418 0.0084555745 2171699
1.9474771 0.63757223 0.0051268935 2170907
1.9560156 0.64445364 0.0028427243 11051416
1.9593973 0.64778459 0.0020012856 11972769
1.938695 0.63378191 0.0072723031 2698333
1.9403844 0.63610959 0.0049274564 268361
1.9417001 0.63784927 0.0062034726 1123408
1.952099 0.64484727 0.0012210011 2037280
1.9553466 0.64805001 0.00023621321 4800589
1.9565558 0.64849603 0.001573801 7299397
1.937943 0.63555622 0.0031562448 6383009
1.9390817 0.63713837 0.003888905 3819408
1.9404869 0.63948679 0.0036866069 3751784
1.9420202 0.64195919 0.0029622316 4738692
1.9475784 0.64390337 0.0033817887 2105123
1.9502048 0.64553756 0.0014865994 1052435
1.9525319 0.64929247 0.00074702501 656640
1.9556491 0.65099096 -0.00025266409 1972246
1.9399862 0.64075553 0.0016989708 6712996
1.941089 0.64278674 0.00098782778 7633581
1.9400516 0.6447764 -2.9742718e-05 9737649
1.9552162 0.63334548 0.017145813 10395843
1.9381366 0.62063122 0.019628525 1907777
1.9416792 0.6236527 0.017518878 1974602
1.9453897 0.62718767 0.017024219 1646399
1.9476964 0.62827474 0.017311573 1843522
1.9489858 0.6300925 0.015927494 2305069
1.9516098 0.63130134 0.01558274 9014687
1.9538639 0.63294786 0.015215755 9803161
1.9561523 0.63516909 0.014821351 10066608
1.9345998 0.61991435 0.01890558 263174
1.9362593 0.62107581 0.018075645 1710894
1.9387763 0.62460214 0.017723441 1776190
1.9421532 0.62513554 0.016499579 2171951
1.9433222 0.62751275 0.016436279 1185854
1.9455736 0.62836623 0.016588986 856599
1.9471655 0.63162488 0.016103327 462599
1.9499187 0.63247192 0.014810681 3817524
1.9519765 0.63510281 0.01440388 5724543
1.9547184 0.63644648 0.013932765 8816021
1.9566081 0.63947397 0.013041258 10527165
1.9363602 0.62525475 0.0162853 4935016
1.9383452 0.62704498 0.013839662 2302526
1.9412038 0.6287908 0.014946222 1577770
1.9436951 0.63077164 0.015138268 1710899
1.9457695 0.6341337 0.013614893 1647146
1.9487538 0.63434774 0.013427198 921134
1.9534085 0.63948655 0.012823761 9210503
1.9369419 0.62941402 0.013365507 5986933
1.9389198 0.62979376 0.013436258 3353918
1.942345 0.63389689 0.013281822 2037041
1.944757 0.63411462 0.011644721 2303275
1.9453534 0.63720846 0.011075735 2830403
1.9498022 0.63967562 0.011460841 2106184
1.9582081 0.64631087 0.0089282393 11842748
1.9405093 0.63468671 0.0091503263 1448761
1.9425724 0.63570064 0.010187924 2500675
1.9438374 0.63767916 0.0096654296 2499905
1.9451075 0.64029616 0.0094052553 2170687
1.9582584 0.65002733 0.0045306087 12105143
1.9402306 0.63777286 0.0082909465 5789266
1.942786 0.63968009 0.007825315 1777476
1.9439242 0.64166117 0.0068982244 1579320
