# .PCD v0.7 - Point Cloud Data file format
VERSION 0.7
FIELDS x y z rgba
SIZE 4 4 4 4
TYPE F F F U
COUNT 1 1 1 1
WIDTH 1152
HEIGHT 1
VIEWPOINT 0 0 0 1 0 0 0
POINTS 1152
DATA ascii
0.72295201 0.38468015 0.022430658 263429
0.72455806 0.38590679 0.02111119 263685
0.72615594 0.38936165 0.021214783 329221
0.72733974 0.39162722 0.018503904 329732
0.73543066 0.40349245 0.016360283 789774
0.71238405 0.37381905 0.021565914 263430
0.71382797 0.37481475 0.023234427 197637
0.71648717 0.37666184 0.022081554 263174
0.72757125 0.39448366 0.01735425 395271
0.72829866 0.39709222 0.016714633 395528
0.72890794 0.39928055 0.015196323 461065
0.73489964 0.40733114 0.012825072 4867653
0.70808071 0.37203225 0.021243691 197892
0.7105096 0.37319845 0.021062076 197637
0.71185845 0.37771979 0.020562112 789252
0.72865379 0.39804468 0.013744414 461064
0.72908312 0.40192813 0.012970448 461066
0.7351653 0.41002446 0.0101071 7367005
0.73827964 0.41561916 0.0073341727 8419941
0.74209434 0.4200567 0.0062637925 8551787
0.74287057 0.42236128 0.0057572126 8552299
0.74533188 0.42501 0.0047796369 8617835
0.74542648 0.4272019 0.0046605468 8617833
0.70554096 0.37046066 0.020615458 197892
0.70680434 0.37212345 0.019153357 460548
0.70800513 0.37491736 0.018181086 985607
0.71017867 0.37610656 0.018057942 920329
0.71209735 0.38248762 0.016599596 328964
0.71416664 0.38444433 0.016176462 788488
0.71606636 0.38671917 0.015314877 657415
0.71789426 0.38899571 0.014436245 722951
0.71963757 0.39178938 0.013925374 788744
0.72061408 0.39474556 0.013368547 985865
0.72193831 0.3962203 0.012255669 1182985
0.72315603 0.39795497 0.011801004 1576972
0.72419262 0.4006716 0.011614323 1643020
0.72890347 0.40513736 0.0097156763 329737
0.73500043 0.413093 0.0085537434 8222309
0.7365976 0.41486305 0.0072391629 8353893
0.73797172 0.41807532 0.0067644119 8485992
0.73880702 0.42034101 0.0062599778 8485993
0.74078053 0.42253563 0.0057956576 8617581
0.74243861 0.42494783 0.0051360726 8552300
0.74633205 0.42976087 0.0040490627 8617835
0.74683481 0.43246856 0.0032300353 8749424
0.70169586 0.36895287 0.019748151 328968
0.70378798 0.3697457 0.018555582 263429
0.70418543 0.37226868 0.017278314 920582
0.70670867 0.37407148 0.016731322 985864
0.70723414 0.37783259 0.015755355 263174
0.70973939 0.38029391 0.015413523 526085
0.71189278 0.38210472 0.014497876 591878
0.71350414 0.38395894 0.014402449 854280
0.71445918 0.38698041 0.013944089 854278
0.71706426 0.38960645 0.012683451 1182726
0.71809769 0.39190602 0.012005329 985861
0.7203626 0.3941671 0.011338234 985865
0.72174644 0.39629152 0.010472834 1117192
0.722974 0.39964002 0.0096993446 1051914
0.72414839 0.40236026 0.009091258 920330
0.72571981 0.4050408 0.0092738867 1182473
0.72877336 0.40721652 0.0067356825 460550
0.72930562 0.40848249 0.0080789328 1117195
0.72955859 0.41038746 0.0053868294 4668728
0.69965482 0.36861145 0.017238259 263431
0.70112419 0.37073043 0.015978277 723208
0.70287591 0.37263122 0.015193582 657415
0.70467514 0.37626222 0.014510751 263173
0.7063396 0.37932444 0.014982998 1182474
0.70786339 0.37938446 0.013790429 722950
0.70972532 0.38238445 0.013140082 1051399
0.7108621 0.38500068 0.01226145 920070
0.71404177 0.38746759 0.01153791 985860
0.7247631 0.40474528 0.0063300729 920075
0.72501546 0.40710822 0.0055573583 526093
0.72605306 0.40872553 0.0052077174 2233873
0.72953451 0.41204342 0.0046322346 6049860
0.72964388 0.41388261 0.0035331249 7628116
0.69631159 0.36775148 0.015487134 329225
0.69794214 0.36928764 0.014837623 657672
0.69986969 0.37025928 0.014423847 789001
0.70074201 0.37416098 0.013453543 263174
0.7025212 0.37686113 0.012355387 657158
0.70494795 0.37905931 0.012315035 1116936
0.70658278 0.38135979 0.011427522 1051142
0.70793921 0.3832188 0.010579824 920069
0.72528493 0.41065365 0.0026550889 1577746
0.72628558 0.41420791 0.0015644431 5453609
0.7302233 0.41539779 0.0011086464 8615523
0.72898161 0.41835311 0.00031197071 8615522
0.69391811 0.36782643 0.012742937 526344
0.69518107 0.3687982 0.011963189 920327
0.69686794 0.3723411 0.011214256 328712
0.70003158 0.37361303 0.011392534 328710
0.6998629 0.37727344 0.0098089576 1116680
0.7024278 0.37944391 0.0093477368 1051142
0.70442063 0.38150784 0.0094792843 920069
0.706101 0.38236067 0.0090445876 985606
0.69093764 0.3669242 0.011907995 526345
0.69185609 0.3675572 0.010954201 854791
0.6937657 0.37118521 0.010289311 263433
0.69678003 0.37544531 0.0087783933 1116679
0.69913346 0.37862816 0.0082244277 1051141
0.68873268 0.36726922 0.010043025 1051402
0.69045609 0.36765206 0.0092203617 1051402
0.69134253 0.37079915 0.0093203783 328970
0.69214624 0.37392822 0.0078694224 1051144
0.69485843 0.37578887 0.0066717267 1051143
0.69722819 0.37810189 0.0063945055 985605
0.68643665 0.36692762 0.0075480938 2498071
0.68757105 0.37023047 0.0071519017 328966
0.69006264 0.37050849 0.0066096783 263430
0.69109803 0.37436333 0.0053535104 985353
0.69271582 0.37634498 0.0057606697 1051142
0.68304324 0.36544472 0.005197227 4735282
0.68447328 0.36752898 0.006026566 2298631
0.68646455 0.37000993 0.0044440627 2104078
0.68820721 0.37368694 0.0034300089 1050888
0.6891098 0.37521803 0.0028950572 1050888
0.69163847 0.37579525 0.0032662749 1116425
0.67607999 0.36025539 0.004630208 5327165
0.67774636 0.36130342 0.004627645 5261373
0.67856425 0.36367807 0.0042470098 5129785
0.67982382 0.36572382 0.004399538 4801074
0.68239433 0.36857104 0.0028585792 3680785
0.68348593 0.37017763 0.0043236017 2695954
0.68602884 0.37362257 0.001565814 1313285
0.68630296 0.37478131 0.0010686517 1313545
0.67257166 0.35694 0.004432261 5459261
0.67448157 0.35936633 0.0044823289 5392955
0.67498046 0.36292303 0.0040259361 5261630
0.67914784 0.36761922 0.0014443994 4601106
0.68071705 0.36893117 0.0011283755 4667680
0.68415755 0.37403318 0.00045740604 2102280
0.66072088 0.34331933 0.0054742694 6051658
0.66245693 0.34600309 0.005656898 5920074
0.66424024 0.34755623 0.005387485 5788233
0.66530025 0.35078001 0.0044344068 5787970
0.66748244 0.35314506 0.004044652 5656642
0.6693818 0.35541335 0.0042389631 5590592
0.65913194 0.34324151 0.0058048964 5985862
0.65972394 0.34564805 0.0052230954 5986119
0.66306001 0.35106379 0.001265347 5981732
0.66538006 0.35367215 0.0011115074 5915681
0.66727567 0.35614792 0.00050997734 5783839
0.65672225 0.3443318 0.00095260143 6310952
0.65806758 0.34710932 0.00083637238 6246457
0.65998346 0.34978563 0.00090944767 6048558
0.66165274 0.35222307 0.00040084124 6048824
0.66342825 0.35496718 0.00020259619 5851181
0.65516496 0.34540579 0.00079870224 6179889
0.65590799 0.34848404 0.00079792738 6114355
0.65776509 0.34988213 0.00073593855 6047523
0.72870952 0.37786314 0.037581027 198150
0.73024172 0.37877649 0.037658036 263682
0.72971773 0.3770946 0.035530925 198145
0.73040897 0.38012707 0.035421848 263686
0.73108721 0.38263255 0.033876359 263685
0.7319113 0.38525027 0.033854723 198404
0.73371279 0.38744414 0.033057332 198660
0.73458368 0.39011204 0.031880617 264197
0.73206502 0.38519424 0.031717241 329224
0.73388958 0.3877776 0.030748606 329479
0.73440069 0.39017844 0.029958487 264452
0.7352578 0.39262831 0.029284716 329735
0.73581988 0.39460441 0.029289901 395527
0.73594916 0.39608678 0.026992917 461065
0.73600608 0.3979713 0.026216865 461320
0.72484261 0.38660565 0.027523875 329221
0.73591775 0.4010641 0.023777425 527114
0.71684051 0.37778729 0.028128326 197636
0.71943164 0.38080609 0.026802719 263429
0.72148603 0.38253224 0.027267158 263430
0.72326517 0.38464919 0.026076734 263430
0.72491872 0.38757643 0.024397492 329221
0.72613317 0.38973907 0.024420559 329221
0.72727966 0.39241159 0.023904502 395015
0.72789401 0.39575586 0.023409009 329486
0.73530287 0.40216827 0.019931972 526861
0.73516184 0.40368327 0.021001875 592912
0.71191013 0.37425569 0.027376235 197638
0.71456188 0.37599254 0.026756942 197636
0.71690398 0.37730101 0.025717556 263174
0.71822256 0.37930793 0.025872231 197637
0.72758877 0.39491874 0.020494759 329481
0.72825211 0.39745659 0.021113455 395021
0.72872931 0.40030667 0.02008456 526600
0.73492092 0.40546632 0.018024802 527115
0.73448813 0.40715292 0.018579543 527113
0.709261 0.37252071 0.024843335 197893
0.71115196 0.37369022 0.025142312 197894
0.71131593 0.37766358 0.025140584 920071
0.72860771 0.39902267 0.01877445 461065
0.72908431 0.40125915 0.017114401 526857
0.73420548 0.40808818 0.015353501 1381394
0.70330495 0.36998451 0.024518549 197894
0.70582008 0.37070876 0.024435163 197893
0.70688564 0.37315059 0.024292588 591877
0.70879555 0.37560153 0.02284652 985607
0.71093726 0.37677899 0.022607982 854790
0.71185517 0.38157049 0.02060467 328965
0.7136361 0.38350546 0.020725906 328967
0.71497244 0.38590774 0.020575225 329220
0.71602613 0.38762864 0.019328833 723207
0.71820724 0.39012372 0.018843234 722951
0.71997929 0.39272311 0.018211186 723208
0.72111255 0.39438218 0.017151535 723209
0.7220493 0.39720368 0.016952753 460552
0.72916752 0.40473545 0.014974058 592651
0.73349732 0.41155955 0.012352586 5262147
0.70189595 0.36915982 0.022664011 197894
0.70346934 0.37097567 0.021669328 591876
0.70481825 0.37338883 0.021369576 986119
0.70686829 0.37550834 0.021325469 788485
0.7078855 0.37863123 0.020495713 328709
0.71044809 0.38092861 0.019680142 328708
0.71151263 0.38343707 0.018832445 854279
0.71396363 0.38542083 0.018503606 985864
0.71567744 0.38755774 0.0177266 657414
0.7172479 0.39069283 0.016858637 1051654
0.71888763 0.39273694 0.015851319 788742
0.72050327 0.39466342 0.015700877 1248520
0.72170299 0.39733544 0.014876246 920328
0.72307378 0.40007266 0.014031589 1117451
0.72460592 0.40246448 0.013469458 1445900
0.72490716 0.40470266 0.012669146 920331
0.72783893 0.4074325 0.011490941 789002
0.72887647 0.40963471 0.012821078 460811
0.73255241 0.41501197 0.0093083382 7169622
0.73416591 0.41594374 0.0074819326 8353894
0.73888695 0.42250314 0.0060033202 8486251
0.73982239 0.42468423 0.0058701038 8617580
0.7417447 0.42704833 0.0052292943 8486764
0.74238133 0.42997754 0.0051360726 8617836
0.74439406 0.4319053 0.0041919351 8749422
0.74593449 0.43451107 0.0032849312 8618350
0.74738479 0.43651798 0.0033165216 8749935
0.74829668 0.43952262 0.0036264062 8947058
0.69783509 0.36794901 0.021464646 263431
0.69948083 0.36968833 0.020587862 526086
0.70099461 0.37201315 0.019976914 723207
0.70382649 0.37272471 0.019108832 920581
0.70448977 0.37607902 0.018618226 263428
0.70661104 0.37921268 0.018076301 788487
0.70860124 0.38061848 0.017445862 854278
0.71016705 0.3837629 0.017074525 985606
0.71141231 0.3859891 0.015844285 920069
0.71395314 0.38803506 0.016115546 920068
0.71608865 0.38985839 0.014950633 985861
0.72209829 0.39869344 0.012335598 1183241
0.72413254 0.40352926 0.011513472 723212
0.72486782 0.40627474 0.0096434355 854798
0.72620505 0.40729165 0.011136889 1642253
0.72753942 0.40997964 0.0084522367 1707018
0.72834224 0.41246381 0.0089222193 1380111
0.73223549 0.41821858 0.0074504018 8222305
0.73481637 0.41987875 0.0066127777 8288612
0.73557013 0.42300123 0.006029129 8485993
0.73777199 0.42490977 0.0057478547 8617579
0.73889178 0.42698884 0.0056898594 8618094
0.73986685 0.42922106 0.0053960085 8683630
0.7425667 0.43184876 0.0044705272 8749166
0.7430827 0.43451875 0.0037671924 8815472
0.69594908 0.36748266 0.019025803 263431
0.69786179 0.37021595 0.018354833 920071
0.69916189 0.37382433 0.017002523 263173
0.70196521 0.37463883 0.017620623 263172
0.70276493 0.3782807 0.016653419 1116936
0.70484841 0.3786388 0.01557976 1182218
0.70655531 0.38274157 0.015895665 854277
0.70752019 0.38299385 0.014139235 920069
0.72559506 0.40838522 0.0081294775 2103059
0.7253775 0.41021863 0.0077570081 592142
0.72780484 0.41492704 0.005466342 4405553
0.69440621 0.3687472 0.016807616 657672
0.69591963 0.37038901 0.015856802 657416
0.69765753 0.37323949 0.015906334 328710
0.6999408 0.37704113 0.016662538 1051399
0.70029896 0.37730208 0.013877571 1116681
0.70230728 0.38070026 0.014095426 919814
0.70434028 0.38165933 0.01327312 920069
0.72535324 0.41337579 0.0051152706 722182
0.72709793 0.41678029 0.0033718944 5916728
0.69043732 0.36796319 0.016160905 657419
0.69253975 0.36837038 0.015302479 723209
0.69395751 0.37180817 0.013989091 328967
0.69621605 0.37249219 0.013238549 328713
0.69680744 0.37688819 0.013227761 1051143
0.69929111 0.37930927 0.011975825 985605
0.70114827 0.38042977 0.012313008 1051143
0.72503227 0.4178817 0.0013048649 4139809
0.72649997 0.42016855 0.0012742877 7825999
0.68880153 0.3676188 0.013329864 591626
0.69043607 0.37099752 0.012209892 328968
0.69227803 0.3710838 0.012068808 328969
0.69272983 0.37523675 0.012070656 1116935
0.69467121 0.37691939 0.010968685 985605
0.69741619 0.37846595 0.01055032 985605
0.68637782 0.36794484 0.010922611 985865
0.68871593 0.37058011 0.010761023 328970
0.68968076 0.37423036 0.010065436 1116679
0.69200003 0.37538838 0.010030508 1051398
0.69424218 0.37724954 0.0081673265 1051141
0.68379092 0.36789489 0.010456026 1116934
0.68467814 0.36781055 0.0089984536 1577487
0.68584341 0.37046519 0.0099750757 394509
0.68820614 0.37366104 0.0076537728 1116681
0.68898696 0.37611908 0.0074772239 1051399
0.69170874 0.3767921 0.0077708364 1051142
0.68163466 0.3678816 0.0077420473 3420199
0.68223202 0.36949009 0.0069076419 1313801
0.684461 0.37051344 0.0069113374 460295
0.68612999 0.37453064 0.0059407949 1116681
0.68825221 0.3753922 0.005166471 1116680
0.67803711 0.36644775 0.0049054623 4866870
0.67893612 0.36830708 0.0061545372 3682338
0.68058896 0.37002259 0.005427599 2168592
0.68228388 0.3739616 0.0034894347 1116428
0.68449008 0.37457746 0.0041046143 1051146
0.67200094 0.36036202 0.0045304298 5459005
0.67441756 0.36479244 0.0044823885 5195324
0.67587858 0.36584947 0.0044632554 4998457
0.67687505 0.36947301 0.0039639473 3483152
0.67833704 0.3705408 0.00333637 3813406
0.68111259 0.37366229 0.0022963285 1773064
0.68176967 0.37553376 0.0018715858 1050888
0.66578299 0.35451299 0.0041236281 5590848
0.66718 0.35639086 0.0044432878 5590593
0.6690228 0.35959125 0.0042667985 5525055
0.67082226 0.36292741 0.0042474866 5392962
0.67255241 0.36381671 0.0042723417 5261374
0.67521006 0.36892638 0.0017614961 4666641
0.6771419 0.37066206 0.0011097789 4865581
0.67876446 0.37372947 0.00049442053 3219468
0.65492827 0.3440249 0.0062631369 5788228
0.65715259 0.34543157 0.0055786371 5854019
0.65812689 0.3484512 0.0052241087 5722434
0.66026348 0.35068807 0.0049274564 5656385
0.66194922 0.35292402 0.0045817494 5590846
0.66340953 0.35560319 0.0041036606 5525308
0.66553628 0.35772699 0.0039656758 5459518
0.65558308 0.34737208 0.0058718324 5722436
0.6603052 0.35367763 0.00092083216 5849887
0.65308183 0.34690955 0.0010005832 6048561
0.65446693 0.34967425 0.00064533949 5982507
0.65661144 0.35211998 0.00047934055 5916715
0.65778309 0.35513529 1.013279e-06 5850923
0.64907128 0.34592855 0.00072073936 6114093
0.65065271 0.34812993 0.00044208765 5982765
0.65257508 0.3502157 0.00034117699 5982767
0.73093891 0.38168857 0.041028559 132868
0.72888285 0.37909341 0.038824499 263682
0.73004949 0.38029036 0.040115356 263683
0.73105747 0.38229215 0.038231432 198659
0.7314589 0.38551515 0.037893772 133122
0.73141575 0.38410208 0.036748648 198658
0.7317183 0.38681471 0.035695195 198660
0.73280811 0.38789833 0.036267161 198661
0.7337985 0.39093274 0.033986688 264197
0.73521024 0.39375407 0.032955885 264199
0.73598635 0.39586782 0.033654034 330250
0.73552787 0.39698708 0.030443192 395785
0.73538703 0.40018007 0.028157413 527113
0.73554295 0.40191481 0.027378917 461576
0.71823466 0.37934712 0.032080352 263428
0.72025883 0.38180959 0.03158927 263429
0.72122848 0.38354781 0.030638933 263429
0.7232452 0.38593781 0.03020072 328966
0.72497779 0.38835019 0.029824078 263686
0.7261517 0.3914583 0.028302133 329222
0.73506606 0.40385345 0.02439332 658697
0.73523945 0.40508384 0.025636792 593162
0.71246165 0.3756434 0.03156364 197636
0.71497017 0.37671363 0.030945778 197891
0.71724421 0.37875029 0.029841423 263428
0.71929264 0.38100311 0.029538453 263429
0.72576135 0.39045763 0.026704848 263685
0.72735411 0.39429161 0.025672793 329736
0.72807753 0.39678302 0.026125431 395017
0.73513615 0.40603682 0.022460461 593419
0.70752347 0.37198129 0.030985951 197894
0.70966458 0.37356383 0.029569328 197639
0.71278125 0.37486294 0.029589176 197637
0.72828263 0.39952096 0.022773981 460810
0.72883463 0.40242913 0.021906495 526858
0.7340036 0.40889344 0.019200981 527372
0.70562744 0.3716023 0.028468728 263432
0.7074874 0.37391919 0.027517378 526342
0.70936733 0.37631622 0.026892185 920072
0.711052 0.37765038 0.027498603 920580
0.71543181 0.38627535 0.023938 329222
0.71694911 0.38928342 0.023589075 657159
0.71876109 0.3911894 0.023107171 985608
0.72030288 0.39355072 0.021998107 722951
0.72160929 0.39569995 0.021578014 920329
0.72907627 0.40400177 0.019323647 657931
0.72979736 0.40799332 0.018313587 723726
0.73272943 0.4114235 0.018572152 724238
0.73277599 0.41144156 0.015290797 1644048
0.70223391 0.36962387 0.027230918 197892
0.70387137 0.37196773 0.026285172 591622
0.70561385 0.37419835 0.02583766 1051143
0.70744091 0.37663651 0.025663674 591877
0.70896459 0.37947315 0.023581326 328965
0.71087778 0.38166955 0.024420023 263173
0.71276981 0.38406837 0.022714317 526087
0.71404922 0.38665128 0.022161126 1182729
0.71571577 0.38824829 0.021627903 854279
0.71731645 0.39054808 0.021089613 854278
0.71931034 0.39292279 0.020653427 985863
0.72053391 0.39583424 0.01920867 854535
0.72248262 0.3985078 0.018989146 986121
0.72337699 0.4008275 0.01776135 1117451
0.72443491 0.40370771 0.017158985 1314571
0.72629637 0.4059388 0.016127825 1839632
0.72861803 0.40839598 0.016097248 1379596
0.72910565 0.41084909 0.01457119 526091
0.73151392 0.41386676 0.014756024 1841422
0.69917506 0.36847982 0.026880622 197895
0.69997489 0.36976057 0.025016606 395014
0.7018556 0.3722004 0.024757862 854533
0.70351493 0.37448862 0.023561239 591622
0.70523244 0.3772276 0.02292186 328709
0.70750988 0.37864989 0.021840513 394502
0.70802498 0.38261354 0.021331012 1051143
0.71028548 0.38484171 0.02057457 920070
0.71250665 0.38732538 0.020294428 788997
0.7159552 0.3906585 0.019155622 854789
0.72374177 0.40350536 0.014832556 591885
0.72503656 0.40587193 0.015178859 920332
0.72578639 0.40794423 0.013513088 920850
0.7301237 0.41617244 0.010915339 4538683
0.69716102 0.36817873 0.024359107 197895
0.69933397 0.37108544 0.023174703 920327
0.69939774 0.37409231 0.022373915 263429
0.7018168 0.37500006 0.021267354 263429
0.70287222 0.37912133 0.020412147 1182471
0.70467615 0.38091898 0.020324171 985350
0.70694667 0.38335747 0.019030392 854277
0.70898795 0.38454452 0.018230915 854532
0.72615182 0.41202942 0.010775208 1248014
0.72750455 0.41466901 0.0090444684 1051404
0.73041224 0.41753131 0.0089917779 6709066
0.73180354 0.42080513 0.0068292022 8420196
0.73594522 0.42648566 0.0061106682 8552043
0.73758048 0.4296023 0.0052651763 8749677
0.73892659 0.43176526 0.0051651597 8683630
0.74087554 0.43405411 0.0047558546 8683628
0.74277222 0.43675187 0.0044639111 8684141
0.74493796 0.43850437 0.0040928721 8749678
0.74558413 0.44099152 0.0034879446 8881008
0.74822938 0.44342276 0.0028287768 9012854
0.74860889 0.44554383 0.0029128194 9144181
0.69385707 0.36725426 0.022690475 263432
0.69489223 0.3695921 0.021106958 788744
0.69714999 0.37163249 0.021488249 591623
0.69901597 0.37317386 0.020867169 263429
0.69937909 0.37736106 0.019271135 1117191
0.70174694 0.37921584 0.018111169 1051399
0.70373827 0.38141721 0.017279923 919814
0.72956443 0.42041975 0.0078040957 7892822
0.73018837 0.42369521 0.0057953 8551524
0.73240167 0.42482606 0.0058501363 8551527
0.7358219 0.42965621 0.0056580305 8749932
0.73645347 0.43211386 0.0049155951 8814955
0.69160765 0.36777949 0.020270228 526090
0.69292963 0.37015632 0.019278169 657672
0.69579971 0.37243381 0.018967688 263430
0.69727975 0.37662137 0.016962349 1116935
0.6993227 0.37967202 0.016912043 854277
0.72522748 0.41515169 0.0058363676 984327
0.72434241 0.41956341 0.0053422451 1248009
0.72567523 0.4206039 0.0038858652 5786682
0.68815714 0.36743027 0.019474864 328975
0.68948501 0.36838809 0.017430782 657420
0.69046348 0.37157732 0.017317951 329224
0.69330025 0.37181312 0.017002821 328966
0.69423449 0.37592611 0.015835047 1116934
0.69593334 0.37817696 0.015787721 919814
0.69813871 0.37912086 0.015386879 919813
0.72384435 0.41862595 0.0043610334 1180679
0.72491127 0.42030913 0.0032303929 5716517
0.72563887 0.42281497 0.00072205067 8023378
0.68664217 0.3675268 0.016269326 197907
0.68717843 0.36861649 0.015856266 920074
0.68956923 0.37124711 0.014938593 329223
0.69057024 0.37345248 0.014611483 722950
0.69231761 0.37678468 0.014204562 1051142
0.6940279 0.37776431 0.012915134 985351
0.72452724 0.42558742 2.3722649e-05 8417879
0.684062 0.36821303 0.014213026 460816
0.68525338 0.36900935 0.013769567 854282
0.68688023 0.37139472 0.013482749 394762
0.68900061 0.37479225 0.012161672 1051143
0.68962014 0.37707514 0.012076378 1051398
0.68231851 0.36857989 0.012100577 920587
0.68321496 0.37096858 0.010981381 394766
0.68593562 0.37407148 0.011114776 1116936
0.68681127 0.3751798 0.0094738603 1051143
0.68849152 0.37680385 0.010218203 1051143
0.67992222 0.36907578 0.010853648 1380624
0.68116391 0.3715286 0.0087870955 329231
0.68276542 0.37402105 0.0084192157 1116939
0.68442088 0.376003 0.0074042678 1051399
0.67786145 0.36909968 0.0081337094 3156515
0.67899632 0.37206328 0.0081742406 526613
0.68107033 0.37407079 0.0062125325 985610
0.68240952 0.37605473 0.0065517426 1051400
0.67471814 0.3680869 0.0058853626 4867125
0.67598629 0.37021479 0.0061283708 2430733
0.67738998 0.37216237 0.0051959753 2170138
0.67876524 0.37438449 0.0053709745 1050890
0.68044412 0.37611178 0.004529655 1116936
0.66883564 0.36299425 0.0041526556 5393217
0.67066729 0.36597466 0.0043703318 5261629
0.67246068 0.3676407 0.0050935745 5064250
0.67372221 0.37054431 0.0032792091 3943952
0.6747939 0.37249014 0.0032914281 3814441
0.67710853 0.37578949 0.0022254586 1708043
0.66019344 0.35441291 0.0045193434 5591103
0.66149753 0.35639018 0.0045365095 5525308
0.6639033 0.35994169 0.0039883256 5525053
0.66505623 0.36200884 0.0039657354 5393215
0.6669156 0.36433321 0.0043339729 5458749
0.66906351 0.36719784 0.004240036 5327423
0.67095321 0.36986667 0.00070077181 4994582
0.67155033 0.37131763 0.0018699169 4601624
0.67526716 0.37702838 0.00037163496 1641993
0.6520409 0.34601855 0.0064663887 5854020
0.65324664 0.34809911 0.0063989758 5722437
0.65539992 0.35040706 0.0053822398 5591103
0.65653902 0.35324892 0.0046485662 5525312
0.65836579 0.35587129 0.0043256879 5459774
0.66037124 0.35913295 0.0037006736 5525054
0.661654 0.36023948 0.0036532879 5524797
0.66859031 0.37012979 6.5326691e-05 5258265
0.64840895 0.34513018 0.0063156486 5788481
0.65025091 0.34521645 0.006174624 5854018
0.65112561 0.35151717 0.00030505657 5982510
0.65292144 0.35445714 0.00018978119 5850405
0.64446074 0.34559053 0.0011076927 6113831
0.64612722 0.34752929 0.00071656704 6114093
0.64795107 0.3501924 0.00028347969 5982765
0.72871846 0.37915319 0.042101622 263938
0.72967565 0.38187027 0.044104874 263689
0.73160464 0.38391536 0.042150438 132867
0.73280865 0.38647506 0.042670727 133124
0.72699988 0.37793416 0.041601241 198403
0.72895521 0.3810575 0.042174816 263686
0.73271209 0.38588098 0.040372849 133379
0.73268586 0.38981289 0.038630664 198663
0.73387682 0.39223021 0.038480103 263946
0.73494744 0.39555502 0.037904084 329990
0.73349762 0.39250365 0.036388695 264200
0.73478478 0.39432094 0.035520971 329991
0.73565519 0.39768496 0.035333455 329989
0.73558748 0.40048 0.031974375 526857
0.73559397 0.40339059 0.031782269 527372
0.71573043 0.37832189 0.036893845 197636
0.7180348 0.37978226 0.036152899 197637
0.72034836 0.38193876 0.036133528 263174
0.72202945 0.38474444 0.034598768 328710
0.72395283 0.38736022 0.033830822 263432
0.72553462 0.38973591 0.033441722 329222
0.72667623 0.39280555 0.032501161 329224
0.73485196 0.40542564 0.028513074 527629
0.71321589 0.37610966 0.035601139 197892
0.71597332 0.37785333 0.034532905 263428
0.71816635 0.37995303 0.034465849 197638
0.71995026 0.38175571 0.033269882 263429
0.72609973 0.39122584 0.030175865 329223
0.72742224 0.39421231 0.03051883 329479
0.72798109 0.39729923 0.029212058 329736
0.72888172 0.40064019 0.028941512 461067
0.73454607 0.40424356 0.027127802 527371
0.73535609 0.40714967 0.0272879 659213
0.70923126 0.37397328 0.034156978 197892
0.71226621 0.37563127 0.033223331 197892
0.71448898 0.37685502 0.032760203 197892
0.72832519 0.39958405 0.02741015 395275
0.72864509 0.40207848 0.025420129 461067
0.72962648 0.40542486 0.025358081 657933
0.73431766 0.40881404 0.02311188 659213
0.70673054 0.37235972 0.032467008 197893
0.709171 0.37373298 0.031451762 197894
0.70957071 0.3775782 0.030798256 920328
0.71344507 0.38484204 0.029257417 328966
0.7158587 0.38719338 0.028858125 263430
0.7168175 0.38910386 0.027835369 328967
0.71862996 0.39205125 0.026813805 722952
0.7204904 0.39468396 0.026533663 1051658
0.72218746 0.3973434 0.026180267 986121
0.72926635 0.40416187 0.023995936 592398
0.72978866 0.40639707 0.022222221 658190
0.73298937 0.41126335 0.022506177 725009
0.7031951 0.37089288 0.031206667 263430
0.70420444 0.37445951 0.029712319 920071
0.70640785 0.37482512 0.030527174 920325
0.70807779 0.3763546 0.029838562 920581
0.70892519 0.38094187 0.028395712 328965
0.7110849 0.38251913 0.027148008 328966
0.71320307 0.38535669 0.026602447 591623
0.71427536 0.38740098 0.026635766 919814
0.71613216 0.38968617 0.025782585 854279
0.71798086 0.39181066 0.024564922 854535
0.71994019 0.39450324 0.024400771 985864
0.72155923 0.39696229 0.023252785 854536
0.72265679 0.39924708 0.023341894 1117450
0.7235356 0.40185946 0.022336185 1117450
0.72511649 0.40469864 0.021992743 1511438
0.72707593 0.40717366 0.021178603 2497042
0.72928917 0.40988868 0.020067692 1773839
0.73042375 0.41038713 0.021221697 658190
0.69989079 0.36941251 0.028785348 197894
0.7006036 0.37104321 0.029448986 591878
0.70243943 0.37342998 0.028685153 920070
0.70444727 0.37576512 0.02749604 591622
0.70552248 0.37820858 0.027309597 328709
0.70738703 0.38029218 0.0262748 525830
0.70878255 0.38323092 0.025687039 1116936
0.71023452 0.38516489 0.024928153 920071
0.7123282 0.38710624 0.024724066 854534
0.71460158 0.38907507 0.022985876 920071
0.72343814 0.40243164 0.020017266 854794
0.72445643 0.40453011 0.019214332 1314316
0.72551817 0.40651897 0.018921435 1379853
0.72641844 0.40944466 0.017922342 1248786
0.72846955 0.41189522 0.016085565 1576202
0.73013711 0.41483909 0.016655684 856077
0.69736046 0.36950523 0.027797163 460551
0.69869685 0.37133434 0.027733743 854535
0.70079625 0.37491879 0.025720119 328714
0.70296162 0.37636441 0.025033414 328710
0.70275575 0.38008559 0.024798095 1182216
0.70480126 0.38144213 0.024240255 985606
0.70671791 0.38298604 0.023243606 854278
0.70954806 0.38562545 0.022447288 788743
0.72485995 0.40877905 0.01684922 920593
0.7257458 0.41015244 0.015077412 1052181
0.72685152 0.41453511 0.015251398 590861
0.72717154 0.41608769 0.013646245 657416
0.72953975 0.41672108 0.013622344 2038035
0.69381851 0.36805326 0.025819063 263432
0.69497287 0.37006006 0.026021481 723209
0.69737154 0.37215704 0.024915099 591879
0.69853199 0.37391117 0.02425015 263431
0.69997054 0.37824705 0.023744404 1116679
0.70202893 0.37993255 0.022780955 920071
0.70411921 0.38164786 0.022644043 788741
0.72627407 0.41405457 0.013089061 591376
0.72807372 0.41929045 0.0096601844 5327679
0.73927492 0.43602559 0.0053002238 8749680
0.74044883 0.43818551 0.0052190423 8749421
0.74225438 0.44069478 0.0045956373 8749165
0.74425626 0.44299707 0.0041415095 8880752
0.74543154 0.4446989 0.003868103 8881009
0.74733841 0.44732752 0.0037900209 8881010
0.74852777 0.44949135 0.002967 9209718
0.74988794 0.45249379 0.002951026 9144694
0.69134092 0.36756828 0.024162054 329225
0.69317079 0.37070224 0.023328602 723209
0.69463527 0.37245724 0.023449421 328967
0.69522631 0.37663162 0.022341073 1116934
0.69872081 0.37810737 0.021198034 1051142
0.70075446 0.38008133 0.020320415 854279
0.72634047 0.42225826 0.0086218715 6970949
0.72863817 0.42343718 0.0064515471 8616288
0.73073304 0.42774859 0.0060997009 8683370
0.73269051 0.42762244 0.0059194565 8617835
0.7338379 0.43130386 0.0050402284 8749675
0.73540479 0.43449634 0.0047310591 8881005
0.73734111 0.43532825 0.0050374269 8815215
0.73883241 0.43795168 0.0058043599 8618093
0.74192786 0.44319269 0.0041278601 8880750
0.6888923 0.36732474 0.022983253 394765
0.6904431 0.36947855 0.021748304 854791
0.69173759 0.37136757 0.020428061 328968
0.6941154 0.37597808 0.02005446 1116935
0.69603419 0.3780759 0.019340456 920069
0.72702181 0.42320347 0.0070368648 8221270
0.72732449 0.42591619 0.0059833527 8747876
0.72892928 0.42686853 0.0059351921 8683368
0.73021418 0.43038204 0.0052230358 8683625
0.73206496 0.43277436 0.0047291517 8881260
0.73344988 0.43475711 0.0049547553 9078384
0.6860283 0.3677848 0.019187689 329238
0.68779373 0.36976719 0.020129263 789000
0.68967432 0.3714667 0.020698011 394762
0.69109243 0.37544292 0.018890202 1116936
0.69260496 0.37678069 0.017883897 985606
0.72379905 0.42295954 0.0038311481 4010016
0.6840179 0.36884359 0.018323839 723214
0.68554169 0.36939719 0.018709719 985863
0.68726265 0.37197873 0.017061591 394763
0.6886555 0.37577692 0.017379522 1051399
0.69058144 0.37733293 0.014791489 920069
0.72218746 0.42394304 0.0030625463 2758672
0.72280943 0.42691988 0.0015183091 7758401
0.68216056 0.36886337 0.016928673 592144
0.68476379 0.37197176 0.015727878 395019
0.6872232 0.37618455 0.01404959 985608
0.68028045 0.36983323 0.013973415 986120
0.68202347 0.37228879 0.014095426 395021
0.68358296 0.37504321 0.013033152 1116936
0.68499231 0.37741631 0.011511445 1116934
0.67822826 0.36978927 0.012115598 1052175
0.6793471 0.37206462 0.011373043 329488
0.68087345 0.37486544 0.010898113 1182730
0.68330604 0.37690201 0.01009202 1116934
0.67643738 0.37024078 0.0105111 2104090
0.67943227 0.37624669 0.0083894134 1051656
0.6803726 0.37663165 0.0066068172 1117191
0.67366385 0.36968938 0.0068514347 4801589
0.67416865 0.37099364 0.0084801912 2300435
0.67543048 0.37314987 0.007081449 1645086
0.67711788 0.37680849 0.0060893893 1116937
0.67135632 0.37063983 0.0071454644 4867382
0.67184049 0.37278178 0.0058928132 2958360
0.67338938 0.37491691 0.0043712854 2695454
0.67630464 0.37752074 0.0040826201 1248524
0.66524714 0.36707366 0.0043803453 5393468
0.66762745 0.36830267 0.0047357678 5261628
0.6684655 0.3706094 0.0056766868 5130298
0.67003727 0.37299609 0.003431797 4141849
0.67342454 0.37615156 0.0025014281 2299407
0.6740666 0.3780416 0.0028256774 1248013
0.6594252 0.36117667 0.0038692355 5459520
0.6614421 0.36406454 0.0043053627 5524798
0.66363502 0.3661063 0.004359901 5393214
0.6647926 0.36910468 0.0047904253 5261628
0.66643411 0.37203395 0.0011485815 5126419
0.66819358 0.37376034 0.0015715361 4799520
0.67091173 0.37700838 0.00091022253 3548951
0.67197067 0.37844548 0.00019717216 1839114
0.64633352 0.34533423 0.0064915419 5985349
0.64861399 0.34789151 0.0064982772 5854021
0.65024221 0.35040179 0.0061116219 5656900
0.6514982 0.35278696 0.0051368475 5591104
0.65280354 0.35457632 0.0044307709 5656895
0.65509081 0.35692367 0.0039367676 5525310
0.65690953 0.35996619 0.0036938787 5459517
0.65849376 0.36324999 0.0041752458 5459262
0.66426557 0.37183934 0.00014764071 5388822
0.66612047 0.3742694 0.00022691488 5127714
0.64245087 0.34523407 0.0065609217 6248522
0.64495206 0.34632367 0.0064972639 6051142
0.64689118 0.34951416 0.006403625 5919815
0.65302527 0.35833445 0.0035968423 5459775
0.64721715 0.35480082 0.00013828278 5915936
0.63979322 0.34447882 0.0014542341 6376742
0.64014059 0.34723637 0.00037419796 6377525
0.6422165 0.35025477 1.7881393e-07 6245421
0.63708776 0.34618556 0.00057888031 6574903
0.63881004 0.34822047 4.8458576e-05 6443317
0.72940522 0.38295385 0.047899663 198151
0.73129714 0.38547119 0.046210885 263941
0.73299193 0.38768429 0.045590401 198406
0.73011893 0.38288459 0.045657277 198152
0.73157698 0.3853018 0.044763327 263941
0.73265135 0.38872564 0.04238379 263942
0.73297185 0.38993743 0.043906569 263686
0.73415446 0.39333233 0.042685449 329481
0.73317957 0.39129078 0.041774631 263688
0.73358369 0.39243734 0.039811909 263947
0.73467022 0.39571115 0.03981483 395273
0.73529857 0.39872855 0.039218724 329992
0.73544568 0.3978295 0.037506223 329990
0.73518717 0.40154368 0.03625989 461578
0.71711975 0.3800014 0.040820539 197892
0.71894062 0.380943 0.039297283 197637
0.72089326 0.38315189 0.040056288 263173
0.72242051 0.38474634 0.038253665 263174
0.72378504 0.3874954 0.037794948 263174
0.72551095 0.38975036 0.037465155 263429
0.72662646 0.39242154 0.036225438 329224
0.72784793 0.39526117 0.0366835 395274
0.73546463 0.40190822 0.034079254 592909
0.7349146 0.40390405 0.034143448 527627
0.71273112 0.37661576 0.039470434 263173
0.71573371 0.37889957 0.039132476 197636
0.7177611 0.37989944 0.037647486 197637
0.72791314 0.39560604 0.034153879 329481
0.72871393 0.40033403 0.032661438 461065
0.73483324 0.40606171 0.032414079 593166
0.73495352 0.40734619 0.030269742 593422
0.71069729 0.37534091 0.038470089 197893
0.71290207 0.37633958 0.036748409 263429
0.71444297 0.37783298 0.037790298 263427
0.72835386 0.39907107 0.031299412 395272
0.72907627 0.40246141 0.031000674 526602
0.7348665 0.40967199 0.028250277 856592
0.70697755 0.37319016 0.037055492 197892
0.70937848 0.37531942 0.035887361 460549
0.70938045 0.37763095 0.035824955 985864
0.71293312 0.38397053 0.034517586 328967
0.71617496 0.38780159 0.032366037 328965
0.71702248 0.3900373 0.0321455 591879
0.71900451 0.39329645 0.030953825 854536
0.72134036 0.39695001 0.029518306 460554
0.72900796 0.40475175 0.02782321 657932
0.7300126 0.40715891 0.027561188 658191
0.73102367 0.40962934 0.027103066 592399
0.73273557 0.41278431 0.026786625 988432
0.70377839 0.37214336 0.035529375 197891
0.70481437 0.37404731 0.03436178 723460
0.70699841 0.37605956 0.033192158 986118
0.70764059 0.37954596 0.032178223 328965
0.71004468 0.38146833 0.032418013 328710
0.71133119 0.38330552 0.032121718 460294
0.71325922 0.38599387 0.031186163 722951
0.71399307 0.38870192 0.030621231 985607
0.71641147 0.39065853 0.029143035 920071
0.71818328 0.39296293 0.028603792 723207
0.7195968 0.3956683 0.028568685 920327
0.72138637 0.3975305 0.027909517 986121
0.72256082 0.40053573 0.02705729 986122
0.72374827 0.40366554 0.026305795 1380109
0.72615391 0.40552184 0.025886953 1708300
0.72780728 0.40769246 0.024698079 2956308
0.72938609 0.41012797 0.02407831 2824721
0.73104972 0.41255856 0.023208082 658189
0.69964588 0.37046281 0.033602655 263429
0.70117337 0.37188783 0.033188045 591877
0.70340693 0.37360463 0.032635629 985859
0.70464015 0.37756076 0.032051682 263174
0.70623469 0.37902609 0.031106114 263173
0.70821369 0.38180792 0.031047881 788487
0.70956492 0.38459668 0.030121505 985351
0.71110183 0.38614404 0.028752208 854278
0.71327591 0.38864374 0.028309941 854279
0.71475989 0.38970339 0.027705967 920070
0.71855032 0.39435092 0.026447475 920327
0.72090131 0.39825892 0.025719106 1051910
0.72352403 0.40324891 0.024328649 1248779
0.72450858 0.40638703 0.023511112 1051920
0.72499001 0.40902004 0.022310495 855057
0.72627228 0.4113417 0.022182941 986643
0.72752398 0.41275886 0.021635592 788496
0.72975081 0.41640836 0.020794332 1643795
0.69604164 0.36906844 0.032830775 263686
0.69754857 0.3704161 0.032162368 526085
0.69942755 0.37194622 0.030784786 920325
0.7008242 0.37611234 0.031459391 328965
0.70270067 0.37749976 0.02989465 591366
0.70440388 0.38022032 0.029121459 1051143
0.70583898 0.3825984 0.029116988 854279
0.70812565 0.38423187 0.027534664 854278
0.72361284 0.40533924 0.021359444 657678
0.7247383 0.40791881 0.020902038 789265
0.72635794 0.41101554 0.019735217 920595
0.72842336 0.41487235 0.02010268 2036239
0.69388127 0.3687374 0.030294895 263687
0.69603044 0.37050146 0.02977407 723461
0.69749361 0.37410298 0.028318644 328967
0.69931889 0.37526441 0.02872318 328968
0.70090008 0.37735638 0.028637767 722696
0.70234942 0.38141084 0.027391553 723205
0.70453364 0.382505 0.026027203 788741
0.72720581 0.41529748 0.017012894 984589
0.68999952 0.36837709 0.027947783 263944
0.69193536 0.36937296 0.027746022 591879
0.69365686 0.37189966 0.027418673 591880
0.6955955 0.37342542 0.026265979 328966
0.69756967 0.3774617 0.024240851 985863
0.69912297 0.37896267 0.025661588 985350
0.70073295 0.38057634 0.025233924 788742
0.72667593 0.41894212 0.013810456 922385
0.74471051 0.44728452 0.0041868091 8881009
0.74522334 0.44930902 0.0046776533 8881010
0.74737161 0.45230985 0.0035482645 9078387
0.6883651 0.36819792 0.026523352 329481
0.69075572 0.37024328 0.025865197 920325
0.69174457 0.37241367 0.0258196 328969
0.69492888 0.37776643 0.024309516 919814
0.69721001 0.37923262 0.023533463 788741
0.72512919 0.4217242 0.011265337 3287577
0.72488534 0.42335969 0.010356665 5983518
0.73580706 0.43739116 0.0054095387 8881007
0.73718005 0.44092509 0.004974544 8946543
0.73919737 0.44234014 0.0046980381 8946544
0.7405386 0.44510251 0.0047358871 9078130
0.74131 0.44752681 0.0042039752 9078131
0.7439177 0.45270249 0.0031023026 9012340
0.74744147 0.45554388 0.0020433068 9209460
0.74826187 0.45805311 0.001706183 9077875
0.74995553 0.46058792 0.0011254549 9341049
0.6866523 0.36814782 0.024933875 395021
0.68780726 0.37018239 0.02426362 920326
0.68963587 0.37197441 0.022810698 329225
0.69089574 0.37585518 0.022458315 1116934
0.6931507 0.37730634 0.022324562 920069
0.72387695 0.42103034 0.0098022819 1050634
0.72453856 0.42511564 0.0074693561 8352068
0.72570807 0.42568234 0.0065686703 8747874
0.72653848 0.42806768 0.0060390234 8748394
0.72876346 0.43219632 0.0057854652 8815212
0.72999656 0.43365523 0.0053401589 8881005
0.73184741 0.43599075 0.0053675175 9012592
0.7341271 0.43876237 0.0054008961 9078130
0.73543113 0.44073948 0.0054181218 9078131
0.73632777 0.44310069 0.0049592853 9143924
0.68459302 0.36887124 0.022901595 591888
0.68629229 0.37129226 0.021966636 591881
0.6898331 0.37611276 0.020224571 1051143
0.69168866 0.37732798 0.020384073 920069
0.72394818 0.42777729 0.0067397356 8945248
0.72548985 0.4304502 0.0058544278 8814953
0.72695482 0.43143585 0.0055956244 8946797
0.68047959 0.36896327 0.020685077 198423
0.68262875 0.37019616 0.020082295 985863
0.68375903 0.37198755 0.020339847 329482
0.68563455 0.37506336 0.019914031 1248264
0.68759787 0.3766894 0.018737137 985607
0.72011441 0.42688158 0.0050119758 2627601
0.68001109 0.37002206 0.017815471 985863
0.68249786 0.37232375 0.016837537 395020
0.68470806 0.37564507 0.016323328 1116936
0.68496835 0.37720352 0.016468644 985606
0.72040701 0.4288376 0.0021592379 6376745
0.67833179 0.36959136 0.016559243 921886
0.67809629 0.37130681 0.016092956 723466
0.68021148 0.37270495 0.016706645 394766
0.68171155 0.37569681 0.015757024 1182727
0.68237078 0.37764835 0.014393568 1182470
0.67470133 0.37116477 0.014422894 2566438
0.67629409 0.37094814 0.014082611 985864
0.67863601 0.37410372 0.013153851 723213
0.68038219 0.37688863 0.012562096 1116935
0.68213838 0.37740514 0.011707127 1117189
0.67391086 0.37172306 0.013659 1051656
0.67490512 0.37248677 0.010661781 854797
0.67660087 0.37514952 0.01118046 854542
0.6783492 0.37798977 0.011146247 1116935
0.67275971 0.37290183 0.010763228 1775383
0.67460203 0.3764399 0.0079869032 1116942
0.67646211 0.37791777 0.0092890859 1248263
0.66847116 0.37342995 0.0077584982 5064251
0.67023063 0.37419444 0.008207202 2234135
0.67224711 0.37604859 0.0073754191 1315348
0.67338538 0.37890249 0.0061059594 1313801
0.66715032 0.37157479 0.0057532787 5130042
0.66853899 0.37509638 0.0046647787 3813407
0.67043382 0.3776933 0.004340291 2036492
0.67209816 0.37872243 0.0040510297 1313802
0.66197973 0.36816105 0.0044193268 5327421
0.66366309 0.37148154 0.0043975115 5195835
0.66534942 0.37305316 0.0051888824 5129787
0.66669768 0.37513223 0.0035067797 4009997
0.6684649 0.3786059 0.0016249418 3614230
0.66966832 0.37999257 0.0030164123 1444364
0.65442687 0.36184621 0.0043029785 5393982
0.65686733 0.36432484 0.0046975613 5393725
0.65845293 0.36706844 0.0046650171 5327932
0.66071105 0.3690767 0.0046471953 5261885
0.66162479 0.37160221 0.0043693185 5261373
0.66420782 0.3737742 0.00071823597 5257491
0.66452801 0.37640187 0.0011357069 4996645
0.64100665 0.34500322 0.0071274042 6314319
0.64311844 0.34698173 0.0070950389 6314314
0.64467824 0.34949723 0.0063508749 6117192
0.64723343 0.35227796 0.005189538 5722692
0.64982289 0.35722226 0.0038850904 5591363
0.65107483 0.35996976 0.0041658878 5525313
0.65248156 0.36327302 0.0044437647 5525314
0.6385656 0.3439419 0.0072149634 6511694
0.63956028 0.34753025 0.0065174699 6445648
0.64257371 0.34964189 0.006251812 6248778
0.64304858 0.35235757 0.0051794648 6182729
0.64489043 0.35244381 0.0050383806 5985605
0.64665204 0.35574895 0.0041388869 5788485
0.64791191 0.35940698 0.004016459 5657154
0.63580477 0.34857246 0.00050914288 6773065
0.73145437 0.38680997 0.051032484 198147
0.7298575 0.38401589 0.050071061 132612
0.73149186 0.38596177 0.048593342 198403
0.73269165 0.38854057 0.048019171 264199
0.73372447 0.39207011 0.047924221 263944
0.7331453 0.39116779 0.045150101 263946
0.73398113 0.39404708 0.045276821 329735
0.73495901 0.39680931 0.044032097 264454
0.7354809 0.40022737 0.04120338 461320
0.73570389 0.40198281 0.040510178 527115
0.71954435 0.38239259 0.043175042 197636
0.72031701 0.38393596 0.044105709 197637
0.72245288 0.38626394 0.042759061 263173
0.72415274 0.38885519 0.043038249 263430
0.72576839 0.39163455 0.042049468 329478
0.72660553 0.39342111 0.040957332 329224
0.73546219 0.40353441 0.038019478 527370
0.7353034 0.40560231 0.037953913 593164
0.71368319 0.37838873 0.043132424 197638
0.71574175 0.37962857 0.043204427 197637
0.71802914 0.38147968 0.042635441 197636
0.72024024 0.38336742 0.041727483 197638
0.72293037 0.38623458 0.040751338 263173
0.72426426 0.3885023 0.040557265 263174
0.72577286 0.39118725 0.039636433 263687
0.72707993 0.39486095 0.03888756 329226
0.72808331 0.39720085 0.038603783 395018
0.7284621 0.39965636 0.036615968 460812
0.73508805 0.40513444 0.03538692 593164
0.73469311 0.408306 0.033872008 790029
0.70841694 0.37426478 0.043198168 197892
0.71063423 0.37557459 0.04269892 197893
0.71327388 0.3775939 0.041129172 197636
0.72848517 0.3982192 0.035541713 395274
0.72905964 0.40206528 0.034760416 526605
0.72968155 0.40476236 0.033967376 526863
0.7341035 0.41025069 0.034096897 855824
0.73379564 0.41182655 0.031535208 790543
0.70767379 0.37362188 0.041088402 197892
0.70843917 0.37698981 0.039590001 985863
0.71134049 0.3829546 0.038905203 263429
0.71263045 0.38357809 0.038052201 328966
0.71507066 0.38642535 0.038149178 263428
0.71660286 0.38876671 0.036948621 329221
0.7180053 0.39064687 0.03599453 329222
0.71877092 0.39246157 0.035049319 394760
0.72064441 0.39695835 0.034826398 1314571
0.72979051 0.40758628 0.030546963 723727
0.73246998 0.4107748 0.030724347 920335
0.70404661 0.37219065 0.040278435 198147
0.70539439 0.37527087 0.03910166 920326
0.70753032 0.37596142 0.037762761 920327
0.7081598 0.38050851 0.036533594 263429
0.71010274 0.38190165 0.037518084 328965
0.71198243 0.38474444 0.035857379 591367
0.71346498 0.38717777 0.034969389 854534
0.7154392 0.38887742 0.034829974 657670
0.717255 0.39170948 0.033954024 920329
0.71865594 0.39416516 0.033385038 854536
0.71999377 0.39641979 0.032289565 789001
0.7213034 0.39866844 0.031886041 920585
0.72231013 0.40108341 0.031239092 986122
0.72400188 0.40415621 0.030372858 1577485
0.72575003 0.4067761 0.029065132 1577228
0.72687852 0.40857089 0.029043198 2759440
0.72812945 0.41077557 0.028435171 2428678
0.73230278 0.41447106 0.027341425 1184782
0.70014054 0.37123975 0.038764238 198149
0.70178896 0.37256479 0.037052989 592133
0.70367962 0.37434211 0.037356496 854537
0.70506078 0.37851101 0.036565542 328965
0.70754892 0.37992448 0.034578919 328709
0.70875692 0.38280168 0.034921288 722695
0.70958841 0.38453555 0.033416748 1051146
0.71156287 0.38743138 0.033025444 854277
0.71396196 0.38922444 0.032802701 920071
0.71510416 0.39166144 0.032210588 854277
0.71702832 0.3941265 0.031602383 920326
0.71819621 0.3955676 0.030295074 920070
0.72067076 0.39856109 0.030550838 1051656
0.72231996 0.40122113 0.029584229 920586
0.72329271 0.40372157 0.028781831 920589
0.72453725 0.40619916 0.027275681 1051917
0.72621983 0.40889475 0.026619077 2299919
0.72856855 0.41115117 0.02667135 4007447
0.72828382 0.41361648 0.024460852 1050120
0.69828916 0.37125826 0.03601104 526342
0.69973975 0.37344682 0.035058141 723206
0.70135468 0.37665215 0.034438133 263172
0.70347327 0.37829199 0.033708453 525830
0.70493096 0.38123131 0.033556342 985607
0.7065503 0.38337097 0.032899022 854279
0.70821965 0.38533774 0.032007158 788485
0.71066397 0.38719022 0.031809211 788742
0.7249164 0.40924123 0.024852276 789776
0.72629863 0.41229048 0.024690509 855058
0.69425982 0.3703618 0.034795105 526597
0.69640213 0.37092698 0.03411299 657669
0.69721627 0.37472799 0.033303797 263432
0.69926333 0.37680426 0.032166421 657158
0.70168114 0.3790845 0.031527579 1051144
0.70247132 0.3819308 0.031145096 723204
0.70455217 0.38292348 0.031558931 722950
0.69270128 0.36996135 0.032279551 592133
0.69412458 0.37369373 0.031963706 328971
0.69606489 0.37499526 0.030968308 526087
0.69784796 0.37736264 0.029941559 985607
0.69866598 0.38026598 0.029246926 788740
0.70141417 0.38127673 0.029701293 788741
0.68959039 0.36931235 0.031116545 395271
0.69074893 0.37044811 0.030160964 920326
0.69204944 0.37313291 0.029904664 328970
0.69459027 0.37522188 0.028239489 657416
0.69567943 0.37811628 0.027499855 920070
0.69761217 0.37952399 0.027864099 854276
0.72393453 0.42267859 0.014822245 3089420
0.68720573 0.36982983 0.029360652 723464
0.68863463 0.37152338 0.028177381 657672
0.69053292 0.37276679 0.027671754 394761
0.69170892 0.37657058 0.026595831 1051142
0.69358367 0.37834951 0.026435375 919813
0.74107403 0.44951114 0.0047464371 8947059
0.74230134 0.45246878 0.0036876202 9078132
0.7431609 0.45491344 0.0034329295 9209716
0.74543762 0.45477161 0.0035131574 9143921
0.74570394 0.45779905 0.0021774769 9275253
0.68348777 0.36911485 0.026951432 395285
0.68532115 0.37022761 0.027026176 788745
0.68669158 0.37247977 0.026322603 329481
0.68772101 0.37549987 0.025234878 1182472
0.69014078 0.37741318 0.024293125 919813
0.7224167 0.42530158 0.010926664 5457964
0.73022187 0.43877518 0.0058119297 9078386
0.73223346 0.43872988 0.0056086183 9209716
0.73391598 0.44209877 0.0053218603 9078132
0.73639041 0.44537199 0.0048263669 9209718
0.73746496 0.44756803 0.0046389699 9144182
0.73799801 0.44973373 0.0048061609 9078388
0.74047393 0.45241216 0.0039661527 9078390
0.74118888 0.45500994 0.003475666 9340790
0.74429601 0.45725349 0.0030261278 9341044
0.74586725 0.46010146 0.0021727085 9078132
0.74740052 0.46203014 0.00083059072 9012596
0.74831796 0.46436867 0.00055634975 9144178
0.68212712 0.36881867 0.024032414 329495
0.68292874 0.37059185 0.02367413 920327
0.68439037 0.37226257 0.024286151 329481
0.68734354 0.375294 0.022555828 1116937
0.68705314 0.37717947 0.022410214 920069
0.72242558 0.42672727 0.008581996 7694399
0.72224241 0.42995292 0.0068875551 9076580
0.72380716 0.43024054 0.0063688159 8814953
0.72493351 0.43382904 0.0055482388 8946799
0.72715378 0.43596911 0.0054696202 8881007
0.72844523 0.43793553 0.0056358576 9012593
0.72981089 0.44145456 0.0051321983 9209717
0.73195148 0.44365638 0.0048667789 9209461
0.73325545 0.4456335 0.0048840642 9275254
0.6794439 0.36957583 0.022989869 263958
0.68073326 0.37146872 0.022463202 788999
0.68229949 0.37323329 0.021704495 657417
0.68439114 0.37621889 0.021469176 1051398
0.72042727 0.42979145 0.0072602034 8813149
0.72255963 0.4326953 0.0059716105 8946540
0.72379744 0.43469661 0.0059178472 9078390
0.7246424 0.43711162 0.0055256486 9078386
0.67746222 0.36980903 0.021113276 1119518
0.67887282 0.37160105 0.020086467 789002
0.68252552 0.37663513 0.018559098 1051398
0.67460269 0.3725245 0.018503487 986120
0.6767115 0.37223551 0.018972635 789003
0.67898232 0.37578014 0.016573668 1116937
0.68047839 0.377895 0.01730442 985608
0.67387891 0.37206891 0.01673305 1447186
0.67571622 0.37366655 0.015593827 329233
0.67652774 0.37636673 0.015470982 1182730
0.67843658 0.37837958 0.014652729 1051144
0.67153656 0.37325051 0.013435721 1248266
0.67324716 0.37461233 0.014415205 395032
0.67578489 0.37874359 0.01260078 1051400
