# .PCD v0.7 - Point Cloud Data file format
VERSION 0.7
FIELDS x y z rgba
SIZE 4 4 4 4
TYPE F F F U
COUNT 1 1 1 1
WIDTH 1132
HEIGHT 1
VIEWPOINT 0 0 0 1 0 0 0
POINTS 1132
DATA ascii
0.62904906 0.30494267 -0.0034222603 8220496
0.63075531 0.30849236 -0.0032648444 8218943
0.63308573 0.31035835 -0.0032966137 8218170
0.6348936 0.31293029 -0.0031803846 8152115
0.63604343 0.31534475 -0.002984643 8020521
0.63884532 0.3172071 -0.0025965571 7758391
0.64740157 0.33095816 -0.0045999885 460050
0.65020216 0.33090404 -0.0034376979 394763
0.68103957 0.36840653 -0.0069345236 1117976
0.6807878 0.37178129 -0.0081797838 2761787
0.61644608 0.29286212 -0.0038300157 8349489
0.61777002 0.29548943 -0.0038184524 8218941
0.61966336 0.29794908 -0.0038436055 8349233
0.62155747 0.29992774 -0.0038721561 8349235
0.62322396 0.30263773 -0.0038175583 8350268
0.62515539 0.3046847 -0.0038186908 8545834
0.6270144 0.30688256 -0.0034152865 8349495
0.62886274 0.30952632 -0.0034556389 8413995
0.63151276 0.31191498 -0.0032129884 8348203
0.6457442 0.33085287 -0.0060076714 262926
0.68119371 0.37543747 -0.0089126229 5130323
0.61144257 0.2925483 -0.0039356947 8088907
0.61379951 0.29510015 -0.0042213202 8349233
0.61611772 0.29683375 -0.0038576722 8349236
0.6174556 0.3002972 -0.0040795207 8088648
0.61944419 0.30097616 -0.0040777326 8413991
0.6223895 0.30534154 -0.0039343238 8609812
0.64230746 0.33060974 -0.0076623559 1117454
0.63947314 0.33056796 -0.0087524056 2761742
0.67860544 0.31460503 0.025100768 657408
0.68121827 0.31702113 0.025016248 591364
0.68253022 0.31921571 0.024959326 788741
0.68439323 0.32127789 0.023705184 723459
0.686427 0.32357073 0.023981154 854279
0.68831408 0.32609582 0.023730874 986117
0.68968415 0.32854587 0.023834109 788745
0.69156283 0.33170378 0.023567557 1117446
0.69261038 0.33366394 0.02414459 854535
0.67415953 0.31084558 0.023605585 657411
0.67623806 0.31318378 0.02320224 591362
0.67719638 0.31621861 0.023052812 920069
0.67971766 0.3178677 0.022761226 920325
0.68293148 0.32109797 0.023538768 1380102
0.68578517 0.32426459 0.022617579 1379848
0.68772596 0.32681373 0.021695375 1380104
0.68980074 0.32955068 0.022192299 1051655
0.69070482 0.33121744 0.022443473 985863
0.69239628 0.33407432 0.021559298 1117192
0.69404137 0.3366667 0.021228075 1117193
0.69502378 0.33874741 0.021870017 1182730
0.69684106 0.34316635 0.021548748 854279
0.66903514 0.30851439 0.022296309 591108
0.67009205 0.30984235 0.022200406 591108
0.67121124 0.31124848 0.022098839 657408
0.67314446 0.31476808 0.021238267 854534
0.67552876 0.31617126 0.021212876 1117445
0.6781227 0.31733018 0.021178305 1117190
0.69293654 0.33876699 0.018635094 459782
0.694628 0.3402983 0.018598497 328198
0.69622999 0.34245124 0.019979179 656646
0.66733336 0.30874979 0.02098155 591108
0.66826701 0.31281203 0.020165622 854532
0.66965961 0.31393537 0.020047545 1117189
0.67215753 0.3150996 0.020270407 1380100
0.67803955 0.32656717 0.018771589 1445639
0.68111932 0.32927859 0.017582774 1445895
0.6809082 0.33046234 0.019239366 1380102
0.68341279 0.33312547 0.018132448 1445893
0.69694495 0.34817016 0.0175336 2760216
0.65960932 0.30671644 0.019373536 591108
0.66206038 0.30830973 0.018817484 525315
0.66534019 0.30980587 0.018958747 591108
0.66556871 0.31262249 0.018291056 1117191
0.66772205 0.31357086 0.0193488 1380103
0.67257988 0.32299516 0.017265856 1380359
0.6749779 0.32496402 0.016894937 1183498
0.67674172 0.32665119 0.017152786 1183498
0.67898387 0.32910031 0.017576873 1117960
0.68098968 0.33133712 0.017005622 1117963
0.68282217 0.33402589 0.016559541 987149
0.68444288 0.33630127 0.016738951 1052682
0.68617064 0.33807522 0.016326249 1249289
0.68730307 0.34086975 0.016689122 1249291
0.68965673 0.34321636 0.016329467 1511687
0.6966821 0.35210833 0.015992939 5126962
0.65649712 0.30636641 0.01745224 723201
0.65795219 0.30732581 0.016638219 722949
0.65946931 0.30836326 0.015818536 591108
0.66197646 0.31200469 0.016943038 1117193
0.66417027 0.31244034 0.01595515 1248522
0.66952336 0.32204753 0.015953839 1249287
0.67128545 0.32346079 0.015651464 1052680
0.67345786 0.32457769 0.016062796 921610
0.67714101 0.32790285 0.014955997 1052430
0.68616474 0.34043092 0.014904797 1052944
0.68682146 0.3426677 0.014120519 1052688
0.68848199 0.34481934 0.014354169 1249548
0.69106805 0.34688139 0.014687181 1511433
0.69176853 0.34947851 0.01405549 1116935
0.69691849 0.35317165 0.013823509 7758158
0.65460271 0.30549103 0.015473008 590869
0.65664834 0.30719253 0.014605343 722697
0.6581223 0.31187153 0.014691412 919562
0.65990484 0.31191155 0.014802396 854025
0.66338885 0.3196466 0.014955819 987402
0.665604 0.32034963 0.014538109 1183496
0.66781437 0.32162109 0.014849484 1118216
0.68837261 0.34752637 0.012820303 1184270
0.6892606 0.35067579 0.012447774 1052430
0.69220537 0.35251462 0.013052344 722436
0.69264472 0.35534266 0.010966837 1838861
0.6960566 0.3577534 0.011933625 7098947
0.6520189 0.30580503 0.01350373 459547
0.65586537 0.31215861 0.013293087 722440
0.66167742 0.31927076 0.012871802 1249032
0.66433966 0.32008004 0.011939168 1183497
0.69003481 0.35471016 0.0097822547 526610
0.69012487 0.3565433 0.010457814 329230
0.69485867 0.36130208 0.0097613335 8021072
0.69570684 0.36352292 0.0090913773 8283200
0.71556395 0.38692814 0.0060770512 8874051
0.71900713 0.3926214 0.0067546964 8874054
0.64900607 0.3064487 0.012255311 393989
0.65220183 0.31241244 0.011884153 591369
0.65379852 0.31242085 0.011281788 854027
0.65797853 0.3183642 0.011312068 1183499
0.66017163 0.31887186 0.011314511 1511177
0.69008076 0.35921246 0.0079351068 1512724
0.69191182 0.36019686 0.0080686808 4335399
0.69541156 0.36469066 0.0078268051 8349254
0.69587529 0.36716545 0.0064374804 8480307
0.70423144 0.37658858 0.0056676865 8874049
0.7068584 0.37855771 0.0060501099 8939584
0.70949686 0.38111815 0.0058848262 8874049
0.71028566 0.38438499 0.006044507 8939588
0.71293205 0.3854838 0.0061116815 8873797
0.7137329 0.38853014 0.0063076019 8939589
0.71637833 0.39066672 0.0065518022 8939589
0.72002912 0.39713439 0.006946981 8809027
0.7212671 0.39820069 0.0034513474 9005617
0.64863765 0.31147003 0.0085960627 4534566
0.65049672 0.31232154 0.010150194 1905679
0.65451205 0.31789112 0.0098090172 1183245
0.65657157 0.31829512 0.0097405314 987153
0.69576079 0.3692148 0.0057814717 8545585
0.69763684 0.3714307 0.0045558214 8676659
0.69953871 0.37333906 0.0046720505 8808252
0.70072412 0.37618911 0.0049104095 8807995
0.7027601 0.37883392 0.0051825047 8939067
0.70503926 0.38034758 0.0045825839 8873780
0.70677519 0.38258004 0.0058817267 9005378
0.70788348 0.38607138 0.0035130382 8939563
0.71025085 0.38739246 0.0035830736 8873263
0.71274018 0.38899499 0.0035762191 8807729
0.71376938 0.39329135 0.0035076737 8807981
0.71650046 0.39497328 0.0037193298 8807987
0.71756506 0.39701825 0.0038862228 8873778
0.64574647 0.30828702 0.0088781714 2367008
0.64649594 0.31258917 0.0081712604 4008481
0.64857829 0.31316149 0.0083214641 5389339
0.65002143 0.31791425 0.0084987283 723465
0.65234733 0.31794772 0.0076526999 722953
0.66700137 0.33897597 0.0069100857 395012
0.66858435 0.33995682 0.0060306787 394503
0.67113847 0.34275246 0.0064184666 328971
0.67256045 0.34468997 0.0054914355 328970
0.67424965 0.34700692 0.0061155558 328965
0.67625767 0.35189053 0.0059121251 394756
0.68916112 0.36325163 0.0040985346 5919306
0.68899417 0.36636555 0.0037234426 5916217
0.69442278 0.37108806 0.0057492852 8611382
0.69540215 0.37275064 0.0049999356 8611119
0.6973362 0.37468275 0.0047668219 8742195
0.69812244 0.37939462 0.0037863255 8807979
0.69956577 0.38066173 0.0035598278 8873514
0.70185864 0.3825309 0.0033072233 8873775
0.70518535 0.38425493 0.0035767555 8939564
0.70637053 0.38879481 0.0032816529 8939565
0.70777452 0.38985258 0.0032661557 8939567
0.71053123 0.39132613 0.0035364628 8873521
0.63919151 0.30598503 0.0058000684 8281361
0.64136767 0.30871928 0.0056025982 7427347
0.64369118 0.30926508 0.0068610311 5323017
0.64454567 0.31326824 0.0061254501 7163685
0.6491785 0.31767929 0.006000638 591883
0.66310811 0.33651999 0.0048850179 329222
0.66583145 0.33803838 0.0045183301 394759
0.66846085 0.34131742 0.0040103793 394759
0.66987801 0.34184545 0.003898263 394759
0.67295551 0.34616187 0.0036387444 394758
0.67551327 0.35034069 0.0041644573 394755
0.6773994 0.35316086 0.0041799545 394756
0.67903543 0.35512856 0.0042542219 394757
0.68026316 0.35740799 0.0032631755 394761
0.68812615 0.36801693 0.0019559264 7299671
0.6896292 0.3697778 0.0021357536 7690042
0.70344985 0.38736385 -0.0008611083 8873519
0.70581949 0.39064842 -0.00016850233 8350791
0.70755982 0.39204746 -0.00061142445 8807985
0.62656677 0.29368284 0.0047419667 8019212
0.62781632 0.29612172 0.005310595 8216072
0.62986195 0.29782316 0.0044429898 8346396
0.63154072 0.29993242 0.0042906404 8346396
0.63374788 0.30270562 0.0040903687 8280094
0.63595498 0.30547887 0.0038900375 8214299
0.63841373 0.31059468 0.0049244165 7361039
0.64132553 0.31212622 0.0044569373 8017941
0.64194107 0.31358162 0.0048030019 8215565
0.64498055 0.31828293 0.0041368604 2564887
0.6472795 0.31778505 0.0048521161 2168585
0.65716052 0.33358222 0.0033890605 394759
0.65989935 0.3349334 0.0033882856 329224
0.66181791 0.335985 0.0023139119 395015
0.68077958 0.36151302 0.0010974407 460808
0.68763053 0.37097856 0.00087112188 7957334
0.68904734 0.37270537 0.00081175566 8545851
0.68989998 0.37499404 -0.00064259768 8611376
0.69300264 0.377574 -0.0016259551 8676904
0.69682431 0.38234439 -0.0015806556 8678721
0.69923902 0.38568452 -0.0013929009 8744515
0.70121664 0.3863551 -0.0013304353 8678722
0.70260096 0.38989234 -0.0017941594 8482639
0.70396936 0.39055479 -0.00058197975 8939314
0.70525151 0.39457452 -0.00080686808 8939570
0.70875156 0.39632273 -0.00095492601 8742191
0.70980334 0.39926583 -0.0011936426 8807985
0.62797403 0.30051214 0.0031440854 8346393
0.62967461 0.30184472 0.0025253296 8544016
0.6313445 0.30416036 0.0028887987 8346390
0.63335049 0.30700585 0.0029785633 8411666
0.63536143 0.30918002 0.0031024218 8215309
0.63738263 0.31102931 0.0031270981 8280845
0.63876235 0.3130855 0.0036717653 8281100
0.64306146 0.31859294 0.0026425123 4603694
0.65410173 0.33253491 0.0020014644 394758
0.65697938 0.33359545 0.00098413229 460552
0.68116057 0.36502245 -0.0010569692 395016
0.68169594 0.36645192 -0.00017809868 591880
0.68767416 0.37545624 -0.0010483265 8286290
0.68945777 0.37724346 -0.0016664863 8416321
0.69161201 0.37945515 -0.0019838214 8547135
0.69374025 0.38163996 -0.0018945336 8547392
0.694839 0.38468897 -0.0016287565 8743739
0.69718921 0.38543665 -0.0017125607 8744515
0.69861138 0.38885403 -0.001644671 8744516
0.70034218 0.39121735 -0.0024312139 8615257
0.70266163 0.39360964 -0.0024738908 8417364
0.70424604 0.39565873 -0.00308007 8221020
0.70664281 0.39883828 -0.0035405159 8483666
0.6186806 0.29181737 0.0026070476 8477715
0.62042779 0.29392248 0.0024445653 8412430
0.62194449 0.29658318 0.0025710464 8412431
0.62452543 0.29847896 0.0025689006 8412430
0.62528324 0.30140546 0.0025226474 8477964
0.62758827 0.30399504 0.0023643374 8411925
0.629403 0.3055504 0.0023941398 8412172
0.63162565 0.30734843 0.0027449131 8346384
0.63316214 0.3103072 0.0027460456 8412172
0.63967806 0.3181771 -0.00081574917 8149541
0.64010936 0.31923676 0.00088471174 6312771
0.650289 0.33161765 1.4424324e-05 394759
0.65208864 0.33210659 0.0009174943 460551
0.68109721 0.36948165 -0.0038198233 197388
0.68970233 0.38107029 -0.00199157 8417877
0.69191933 0.38379222 -0.0019093752 8742189
0.69268918 0.38469481 -0.0021967292 8549464
0.69495344 0.38824618 -0.0025141239 8681048
0.70055234 0.39569783 -0.0033615232 8352604
0.70196742 0.39869553 -0.0038654208 8090460
0.70448488 0.39926344 -0.0040649772 8024416
0.61621463 0.29374045 0.0019406676 8478220
0.61828971 0.29503182 0.0022191405 8412431
0.62042534 0.29642957 0.0016825795 8544005
0.62241757 0.30028403 0.0025627017 8609798
0.63711745 0.31883669 -0.00128901 7823412
0.64709026 0.33113465 -0.0020431876 460554
0.64837027 0.33121982 -0.00093889236 460551
0.68065357 0.37348115 -0.0056176782 723220
0.61367047 0.29269379 0.0013602972 8609804
0.6239816 0.30641174 -0.0034759045 8088911
0.62590015 0.30840725 -0.0025596023 8022863
0.62681293 0.31058085 -0.003169477 8348722
0.62964821 0.31308442 -0.0028415322 8088393
0.63155997 0.31571132 -0.003005147 8217646
0.63367075 0.31833375 -0.0022205114 8152107
0.63468039 0.319556 -0.0013483763 8152369
0.64197505 0.33111048 -0.0038007498 526092
0.64435893 0.33119223 -0.0034300089 460557
0.61098748 0.29419285 -0.0039042234 8609565
0.61330223 0.29628366 -0.0035064816 8154701
0.61498952 0.29906112 -0.0040598512 8609563
0.61607277 0.30022907 -0.0043097138 8283442
0.61865115 0.30305308 -0.0037036538 8349232
0.62012172 0.30581164 -0.003510952 8218424
0.6223309 0.30763793 -0.003359735 8153152
0.62385798 0.31040016 -0.0033777356 8347944
0.62570143 0.31251621 -0.0032438636 8283184
0.62783337 0.31446481 -0.0031356812 8348201
0.62908524 0.31673473 -0.0028133392 8152376
0.64076871 0.33103776 -0.0048080087 394510
0.60834903 0.29465464 -0.003899157 8284216
0.61033261 0.2973845 -0.0041509867 8349236
0.61260235 0.29990923 -0.0040887594 8218421
0.61476851 0.30205983 -0.0039671659 8283442
0.61575818 0.30495277 -0.0038174391 8218681
0.61795211 0.30638131 -0.0041703582 8348455
0.62055838 0.30805016 -0.0043344498 8478226
0.62149197 0.31079841 -0.0038491488 8543768
0.62509227 0.31548315 -0.0038826466 8478233
0.63718867 0.33151314 -0.0066604614 262687
0.63936603 0.33123159 -0.0060609579 197138
0.60869431 0.29831299 -0.0040317178 8088908
0.63478971 0.33152264 -0.0081515908 1973019
0.63212562 0.33198529 -0.0098342896 4011565
0.67780113 0.31254369 0.029347718 657408
0.67947078 0.31459332 0.029158294 656902
0.68179142 0.31595618 0.031060934 656903
0.68321884 0.31986654 0.029594004 788742
0.68523264 0.32139534 0.028958499 722949
0.68702853 0.32370341 0.02825284 854279
0.68835735 0.32598358 0.028236568 722698
0.68967199 0.32842359 0.028652728 920072
0.69111085 0.33035943 0.028331041 1051655
0.67471278 0.31039524 0.028488219 722948
0.67629814 0.31238729 0.028344333 657408
0.67668998 0.31676474 0.027692914 788743
0.67925251 0.31766075 0.027274668 920327
0.68175405 0.3193965 0.027770102 985862
0.68389636 0.32143915 0.026488602 1117445
0.68593442 0.32341725 0.026707172 788745
0.68829119 0.32651198 0.026403904 920329
0.68971515 0.3288568 0.025822282 1051655
0.69120455 0.33146799 0.026101053 985862
0.69251174 0.33469278 0.026224971 920072
0.69429582 0.33704355 0.025704265 854023
0.66837549 0.30836672 0.025390327 656906
0.6701839 0.30977297 0.025796115 656904
0.67234576 0.31043655 0.026904404 656902
0.6736294 0.31550485 0.025557101 985862
0.67604125 0.31619653 0.026146173 985862
0.69183266 0.33514279 0.023643672 788489
0.6933043 0.33681628 0.024038911 1248270
0.69514525 0.33996594 0.024570346 1379850
0.69622767 0.34249651 0.023683131 854026
0.69701564 0.34477338 0.02445507 1511189
0.66541791 0.30766594 0.023860157 656902
0.66682827 0.30825132 0.024466753 656902
0.67000741 0.3142938 0.0244115 920070
0.67210382 0.31504089 0.024181128 1051653
0.68412054 0.33296743 0.023744404 1380102
0.6933496 0.3414295 0.02194643 327949
0.69690037 0.34722197 0.020752907 1314319
0.6974839 0.35011005 0.02197504 2035724
0.66159755 0.30792296 0.023428023 722177
0.66649163 0.31305271 0.022366762 854533
0.66842616 0.31413329 0.022489488 1117701
0.67458248 0.32479918 0.021773636 1183498
0.6777634 0.32664317 0.021211445 1380105
0.67914951 0.32934868 0.021217525 1117961
0.68141019 0.33165276 0.021757782 1117963
0.68339312 0.33371899 0.021702051 1183499
0.68468738 0.33585736 0.020820379 1183498
0.6869489 0.33830416 0.021277308 1445639
0.68825668 0.34101823 0.021277368 1511688
0.65875089 0.30696064 0.022156298 657408
0.66256499 0.31184047 0.021420479 788742
0.66436553 0.31256798 0.020760417 1051654
0.6695745 0.32184273 0.020181417 1249033
0.67237991 0.32328743 0.020526767 1183498
0.6745891 0.32536906 0.019103527 1117964
0.67616081 0.32692477 0.020742655 986892
0.67792344 0.32851085 0.019589365 987146
0.68073142 0.3320232 0.019405484 986893
0.6824528 0.33439615 0.019830704 921358
0.68349862 0.33554769 0.01894182 921357
0.6855253 0.33941263 0.019459665 1052430
0.68738502 0.34121841 0.018874109 1249290
0.68797052 0.34385008 0.019226372 1249292
0.69049376 0.34674612 0.018448889 1577224
0.69612896 0.35286248 0.017680466 4009512
0.65534735 0.30743143 0.01952678 526848
0.65689445 0.30754685 0.020450294 526848
0.6586532 0.31190509 0.01864475 1051400
0.66111743 0.31201673 0.019577265 1182983
0.66592169 0.31981939 0.019028366 1314567
0.66857928 0.32148758 0.018475235 1117962
0.67087781 0.32289851 0.018440068 987147
0.68684316 0.34350473 0.017086864 1118479
0.68772054 0.34602088 0.017284095 1052943
0.68812722 0.34845755 0.016509295 1118734
0.69169402 0.35027534 0.017177105 1643018
0.69238621 0.35270202 0.016753614 1117190
0.69299096 0.35530722 0.016064703 918530
0.69619167 0.35688943 0.016525209 6178612
0.65096128 0.30602604 0.017315745 657666
0.65323168 0.3065533 0.018616855 722949
0.65627408 0.31198001 0.017392039 985609
0.66110212 0.31828719 0.017018199 1445638
0.66253018 0.31915092 0.01724112 1183497
0.66449553 0.32044768 0.016975343 987146
0.6890794 0.35149765 0.015037715 1184527
0.68965602 0.35445261 0.014153659 1183764
0.69286162 0.3552357 0.01364851 852994
0.69456422 0.36026984 0.015266538 7561029
0.64886183 0.3070451 0.015378356 525824
0.65322673 0.31255111 0.015054762 919821
0.65542597 0.31179261 0.015200913 919566
0.65841198 0.31829438 0.015122473 1249032
0.6607675 0.31924558 0.015964806 855818
0.68973625 0.35820925 0.011517704 723216
0.69281816 0.35906628 0.013036609 3348757
0.69434661 0.36159426 0.011708677 7889229
0.69445592 0.36488092 0.012338042 8348987
0.64729667 0.30681053 0.014380634 262696
0.65091872 0.31282353 0.014366686 788746
0.65474916 0.31804991 0.014621377 1117962
0.6566599 0.31796402 0.013217926 1511177
0.69453108 0.36581987 0.0093284249 8414788
0.71640193 0.39411753 0.0067360401 8939592
0.7179805 0.3966164 0.0073307753 8874053
0.64929557 0.31339735 0.012399614 657159
0.65104258 0.31806326 0.011181533 986896
0.65364408 0.31808981 0.011857867 1314574
0.66716802 0.3388564 0.010635734 394759
0.6699701 0.34038565 0.01040113 329222
0.67175388 0.34164938 0.011221528 328966
0.67342186 0.34447479 0.0098767281 328713
0.67514443 0.34721348 0.0098267198 328967
0.68902314 0.36206165 0.0091448426 1248784
0.70339406 0.38303697 0.0059664249 9005125
0.70461965 0.3844803 0.0057794452 9005381
0.70671779 0.3863942 0.0057718158 9005635
0.70949656 0.38874641 0.0060418248 9005638
0.71032846 0.3914631 0.0064451694 9005637
0.71311605 0.39307967 0.0066695213 9005380
0.7152167 0.39630663 0.0071484447 9005380
0.64459658 0.30935204 0.010952711 656428
0.64684677 0.31333637 0.011157155 525836
0.64675128 0.31449932 0.010256588 1971463
0.64888251 0.31790626 0.010607958 1051665
0.66227806 0.33577687 0.0098195672 394756
0.66447735 0.33721435 0.00920403 329220
0.66626501 0.33879173 0.0080586076 394758
0.66912293 0.34088963 0.0080435872 394757
0.6751942 0.34840664 0.0079884529 394501
0.67594171 0.35022879 0.0077806711 328964
0.67728698 0.3525767 0.007258296 394760
0.67880023 0.35425162 0.0063599944 460293
0.69277382 0.37145945 0.0069005489 8612417
0.69362056 0.37443697 0.0054653883 8676917
0.69512767 0.37662995 0.0051749349 8808001
0.697191 0.37869257 0.0050716996 8808004
0.70006394 0.38060164 0.0055587888 8873797
0.70142436 0.38343585 0.0057351589 8939588
0.70284778 0.38623744 0.0061512589 8939842
0.70474511 0.38752705 0.0050368309 8939830
0.70699298 0.3902995 0.0055696368 9005372
0.70839703 0.39310935 0.0038192868 9005360
0.71051311 0.39487016 0.0042553544 8939569
0.7121551 0.3972764 0.0042644739 8874031
0.64077735 0.3104873 0.0076263547 4074012
0.64162183 0.31166464 0.0093073845 1180939
0.64353049 0.31472698 0.0087556839 3285786
0.64508188 0.31840426 0.008705318 526087
0.64730775 0.31814963 0.0084404349 526352
0.65807486 0.33413669 0.0081438422 394758
0.66049767 0.33557266 0.0068696141 328965
0.66298229 0.33646423 0.0076011419 395012
0.68633687 0.36876234 0.0049680471 4733237
0.68801415 0.37109339 0.0043250322 7294262
0.69150174 0.37547988 0.0060114861 8743735
0.69351602 0.3781881 0.0047350526 8676911
0.6958859 0.3801192 0.0046813488 8742454
0.69774121 0.38235393 0.0045205951 8808242
0.6993109 0.38485098 0.0044012666 8873783
0.70161712 0.38695008 0.0037872791 8873777
0.70348793 0.38960665 0.004024446 8939566
0.70536077 0.39067525 0.0040125251 9005103
0.70745683 0.39469224 0.0047415495 8939569
0.63752806 0.31257129 0.007763505 3285248
0.63858497 0.31389934 0.0076676011 984859
0.64092243 0.31545353 0.006736517 6309925
0.6434468 0.31881791 0.0064587593 723466
0.64566815 0.31846315 0.0071200728 329491
0.65258372 0.33187431 0.0067003369 394763
0.65449297 0.33259332 0.0057916045 329223
0.65720975 0.33375633 0.0057499409 394758
0.63541055 0.3134712 0.0057518482 6772513
0.63764453 0.31490171 0.004801929 7952916
0.64124072 0.319318 0.0047285557 2302236
0.64847982 0.33114493 0.0045495033 394759
0.65118873 0.33156106 0.0041244626 394763
0.68544638 0.37309691 0.0019986033 7758677
0.68645954 0.37526816 0.0012785792 8151619
0.69637531 0.38810882 -0.0011542439 8874027
0.69955218 0.39267892 -0.0012381673 8874031
0.70095897 0.39624617 -0.001036346 8939568
0.70281887 0.39694542 -0.00099104643 8939571
0.70565772 0.39815223 -0.00085180998 8939315
0.6240418 0.30252022 0.0035683513 8542731
0.62572706 0.30481419 0.0033873916 8345882
0.62828052 0.30754405 0.0032134056 8346131
0.63042819 0.30914021 0.0034277439 8346131
0.63231766 0.3111006 0.003834188 8280848
0.63420135 0.31400937 0.0037777424 8215822
0.63589203 0.31696427 0.0044762492 8085014
0.63772202 0.32006526 0.003773272 3750719
0.63912821 0.32005036 0.0039964318 4074787
0.64682901 0.33128193 0.002436161 460551
0.64944512 0.33151859 0.0026367903 460554
0.68437213 0.37765276 6.7055225e-05 8615255
0.68615329 0.37980026 -0.0010821223 8547395
0.68820453 0.38214332 -0.0018686056 8676651
0.69004816 0.38357145 -0.0019558668 8482117
0.69183868 0.38723981 -0.0020319223 8678465
0.69377452 0.38866085 -0.0020852685 8679495
0.6959697 0.39161974 -0.0022100806 8744514
0.69722581 0.39449692 -0.0019987226 8745032
0.69920325 0.39624545 -0.0022283792 8548686
0.7008943 0.39870575 -0.0024350286 8483154
0.61516541 0.29502419 0.002245903 8543503
0.61685109 0.2974079 0.0024265647 8412174
0.61870039 0.29908895 0.0022125244 8412172
0.62095714 0.30131817 0.0025592446 8477711
0.62317681 0.30350885 0.0029991269 8412176
0.62416053 0.30628133 0.0028939843 8412173
0.6262064 0.30866882 0.0026645064 8411665
0.62796795 0.31144559 0.0026248097 8412428
0.63008475 0.31327087 0.0027775168 8346385
0.63238907 0.31447017 0.003125608 8346637
0.63240057 0.31719843 0.0029221177 8478727
0.63619208 0.32061219 0.0020179152 6049346
0.64330858 0.33122087 1.4960766e-05 526345
0.64533257 0.33133581 0.00086897612 460552
0.68638188 0.38301671 -0.001885891 8417876
0.68765271 0.38572124 -0.0021312833 8612151
0.6898728 0.38778287 -0.0022932887 8613447
0.69191736 0.39019233 -0.0019373894 8677945
0.69420904 0.393574 -0.0025286078 8615000
0.69662541 0.39689982 -0.0025205016 8680787
0.69872087 0.39983815 -0.0025541782 8352858
0.61213404 0.29285169 0.0016810298 8543513
0.61341518 0.29537785 0.0020342469 8478225
0.61455297 0.29804397 0.0018602014 8609799
0.61616766 0.30098844 0.0019327998 8544008
0.61884332 0.30261785 0.0025794506 8477965
0.62078363 0.30475211 0.0029979944 8412182
0.62204659 0.30797541 0.0021685958 8543752
0.62381059 0.30913222 0.0021765232 8477959
0.63368702 0.32112038 -0.00038343668 7889723
0.64121997 0.33115298 -0.00089889765 526091
0.60975593 0.29413414 0.0012084842 8675856
0.6107862 0.29742044 0.0013457537 8609559
0.6124649 0.29952967 0.0011934638 8609559
0.61638188 0.30445114 0.0008379817 8345870
0.62160146 0.3103919 -0.0029531717 7956815
0.62370706 0.31332707 -0.0029168725 8022599
0.62634027 0.31638014 -0.0025233626 8022854
0.62900484 0.31902266 -0.0021524429 8022861
0.63055503 0.32045132 -0.0018009543 8152886
0.63973486 0.33114111 -0.0023635626 460304
0.60608697 0.29398617 0.00037878752 8478740
0.60779667 0.29613447 0.00022363663 8740379
0.60891581 0.29754061 0.00012207031 8543001
0.61352164 0.30421919 -0.0037615299 8217649
0.61548394 0.30678248 -0.0033630729 8154442
0.61759651 0.30810428 -0.0034345984 8283184
0.61893028 0.31045544 -0.0031504035 8153149
0.62065279 0.31304255 -0.0032940507 8152635
0.62196624 0.31493658 -0.0033608079 8217393
0.62388051 0.31767792 -0.0027983785 7957059
0.62661344 0.31888455 -0.0032399297 8282667
0.62730706 0.3215667 -0.0027701259 8217385
0.63565421 0.33151811 -0.0040041804 328996
0.63787866 0.3314853 -0.0047596693 394526
0.60487139 0.294321 -0.0035060644 8415544
0.60531968 0.29788613 -0.004147768 8349492
0.60719478 0.30005729 -0.0043797493 8349491
0.60966486 0.30185789 -0.004160583 8218420
0.61125207 0.3048121 -0.0037258267 8153147
0.61317521 0.30720964 -0.0039847493 8348199
0.61503255 0.30949101 -0.0036250353 8283439
0.61687028 0.31193969 -0.0035293102 8413993
0.61856598 0.31544074 -0.0037183166 8543772
0.61990386 0.31676728 -0.0042844415 8477980
0.62242442 0.31795937 -0.0043138862 8477979
0.6240834 0.32115328 -0.0038434267 8412697
0.63253558 0.33180618 -0.0042513609 132655
0.63357049 0.33188224 -0.005972743 328996
0.59996593 0.29523534 -0.0039892793 8416321
0.60235214 0.29690576 -0.0041927099 8416063
0.60367107 0.29974109 -0.0041652322 8154958
0.60519373 0.30146152 -0.0043298006 8349492
0.60775369 0.30300826 -0.0043315291 8349489
0.6090135 0.30610096 -0.0043436289 8544281
0.63074398 0.33246988 -0.0077157021 2236977
0.6278857 0.33324224 -0.0096128583 4670009
0.67405307 0.31024766 0.031582236 723200
0.67712533 0.31252545 0.032282889 591875
0.67945421 0.31466037 0.032561243 592137
0.68028712 0.31758428 0.031709909 789507
0.68217641 0.31985611 0.031402886 854535
0.68453503 0.3220064 0.031455874 854278
0.68629026 0.3245191 0.031199753 1051655
0.68841267 0.32642254 0.031112492 985609
0.69004893 0.3291586 0.03066504 985863
0.69170243 0.33192515 0.030827343 920326
0.69330513 0.33444816 0.02995491 920073
0.69412494 0.33667269 0.030207276 1182984
0.66855937 0.30864292 0.03124094 591361
0.67056149 0.31000024 0.030149937 656900
0.67518127 0.31553102 0.029432595 986120
0.67686307 0.31674707 0.030241907 1051398
0.67875314 0.31779915 0.029892981 1314309
0.69285852 0.33441889 0.028469026 1380360
0.69422007 0.3371076 0.027530253 1183240
0.69522363 0.33989024 0.028078318 920075
0.69670963 0.34343362 0.0282318 1116938
0.66580057 0.30755028 0.030022085 525568
0.66729558 0.30860835 0.029242337 525570
0.66872859 0.30958816 0.028468192 591108
0.6715644 0.31411558 0.028467894 1249029
0.67293513 0.3150034 0.028688312 920327
0.69634444 0.34386861 0.025800884 1314823
0.69741309 0.34603691 0.026240885 1971986
0.69786775 0.34902608 0.025376201 2101002
0.66370583 0.30793166 0.027579069 656387
0.6656785 0.30931628 0.026541293 918276
0.66704965 0.31359267 0.026421905 985861
0.66928416 0.31417006 0.027134299 920326
0.67761087 0.32760167 0.025710702 1314569
0.67942119 0.32949138 0.025744081 1117963
0.68245226 0.33113164 0.025433183 1314311
0.68433744 0.33286047 0.026426077 1380359
0.68604958 0.33590722 0.02455765 1380359
0.68681467 0.33854014 0.025134087 1380359
0.65999907 0.3080233 0.025811732 656898
0.66365862 0.31233078 0.024751544 854278
0.66477525 0.31353354 0.024909616 1117446
0.67229748 0.32379541 0.023905039 986635
0.67410988 0.32536647 0.023977757 1117962
0.67689043 0.32739902 0.02382797 1052428
0.67878556 0.33013237 0.023182809 921358
0.68040383 0.33157498 0.024655104 986898
0.68215781 0.33441997 0.023999631 921105
0.68410373 0.33746317 0.023181736 921355
0.68533587 0.33950388 0.023067772 986894
0.68733275 0.34207749 0.023104072 1249291
0.68902504 0.34415501 0.022662163 1446153
0.68997824 0.34626812 0.022544384 1511944
0.65513361 0.30611217 0.023720086 723201
0.65706348 0.307302 0.024241626 657408
0.6609146 0.31240654 0.023567677 1117446
0.66342974 0.31364453 0.022696972 1249029
0.66626036 0.31977117 0.022624731 1314566
0.66917127 0.32210216 0.022874415 1117961
0.6702745 0.3231487 0.024118423 1314568
0.68618035 0.34248662 0.02050072 1052688
0.6875757 0.34582916 0.02012217 1052686
0.68919098 0.34800574 0.021090746 1315084
0.69162536 0.3507106 0.020675421 1708809
0.69256961 0.35276413 0.020520627 1511179
0.69606495 0.35702419 0.018767118 6243637
0.65307832 0.30709028 0.021702886 722697
0.65781856 0.31216973 0.021973252 1182982
0.65943038 0.31275922 0.021310747 1380102
0.66180259 0.31797245 0.021265268 1445639
0.66345501 0.31888849 0.021731853 1183240
0.6651684 0.32055849 0.021197498 855816
0.68830323 0.34955236 0.01942873 1118477
0.68873578 0.35178056 0.01871264 1184268
0.69313824 0.35549796 0.018555105 1378052
0.65025735 0.30591947 0.020489633 723201
0.65137649 0.30732566 0.020388067 722697
0.65445846 0.31187576 0.02164036 854280
0.65547359 0.31221598 0.019814193 986118
0.65759033 0.31737936 0.018921733 1576712
0.6593129 0.31829274 0.019532859 1183243
0.6615662 0.31945449 0.019684136 921354
0.68931949 0.35603815 0.017038405 1249556
0.69257194 0.35998392 0.015938282 3544848
0.64780414 0.30726615 0.01919055 657408
0.65187216 0.31293061 0.018380821 985609
0.65544164 0.31737566 0.018233895 1511430
0.65709794 0.31874943 0.017694771 921101
0.68966711 0.35925335 0.014577925 723213
0.64574879 0.30824417 0.017173231 787728
0.64823526 0.31316727 0.017026842 919822
0.64984989 0.31317028 0.015956581 1051405
0.65068269 0.31763861 0.016401231 1249034
0.65333664 0.31784302 0.016869128 1117963
0.66998339 0.34055433 0.013768494 329219
0.67175776 0.34191549 0.013175786 394758
0.69296348 0.36759835 0.01224637 8349244
0.6461792 0.31351614 0.01426667 722706
0.64759815 0.31476983 0.014472306 920843
0.64937401 0.3179749 0.014020145 1379853
0.65200162 0.31813425 0.013870001 1249034
0.66373467 0.33676305 0.012940586 394759
0.66660762 0.3384473 0.013417661 328966
0.66887587 0.3398779 0.012875199 328965
0.67328405 0.34395993 0.012220383 394254
0.68804252 0.36423764 0.010742843 984841
0.68698454 0.36650613 0.010997117 1379597
0.71205688 0.39684922 0.0073119998 9137221
0.64340252 0.31045794 0.013107061 787728
0.64402366 0.31414407 0.012499034 656652
0.64496756 0.31569967 0.012536943 526084
0.64777088 0.31790626 0.012832642 1248787
0.65856755 0.33373007 0.011487365 394758
0.66110146 0.33506554 0.01181978 394757
0.66329539 0.33648038 0.011275589 328965
0.69077945 0.37319356 0.0071608424 8612694
0.70588452 0.392046 0.0066071749 9071172
0.70784849 0.39364755 0.006998837 9071428
0.70936459 0.39587474 0.007280767 9071428
0.71098518 0.39892817 0.0071545839 9137221
0.64078838 0.313658 0.01176995 656910
0.64182842 0.31591105 0.011001885 1248007
0.64509887 0.31859258 0.011500597 986645
0.65460497 0.33220655 0.010532677 329223
0.6574136 0.333471 0.010249734 329222
0.68920088 0.37586772 0.007294476 8415287
0.69040656 0.37617591 0.0062378645 8677962
0.69409406 0.38223833 0.0058588982 8873790
0.69611156 0.38390684 0.0059952736 8874048
0.69879627 0.38625276 0.0060282946 9005121
0.70014608 0.38904184 0.0063473582 9005378
0.70187271 0.39065117 0.0056509972 8939577
0.70357692 0.39301002 0.0060447454 8939835
0.70582646 0.39490592 0.0062765479 9005885
0.70689833 0.3980692 0.0045782924 9005105
0.70916915 0.39995873 0.004365623 9005359
0.63778889 0.31463659 0.0091038346 328457
0.63923597 0.3171128 0.0088226199 3483411
0.64261073 0.31897813 0.0093595982 396051
0.65118051 0.33154005 0.0090602636 394504
0.65366399 0.33254516 0.0083960891 394506
0.65575379 0.33354861 0.0080992579 328968
0.68425131 0.37279224 0.0058792233 4929839
0.68999934 0.3786982 0.0056573153 8743227
0.69116187 0.38017428 0.005230546 8676913
0.6929543 0.38212031 0.0046610236 8676655
0.69415474 0.3855767 0.0043040514 8742186
0.69641417 0.38654763 0.0042433143 8808236
0.69822061 0.38926384 0.0050408244 8874036
0.69914722 0.3935957 0.0043331981 8939313
0.70178789 0.39508355 0.0044063926 8939311
0.704193 0.39662844 0.0044451356 9005106
0.63583946 0.31638038 0.0076293349 2365447
0.63892496 0.31959254 0.0069385767 1186594
0.63968623 0.31970233 0.0088707805 592645
0.64789593 0.3310436 0.0073484182 394757
0.64999098 0.33155465 0.006492734 394761
0.68428695 0.37507784 0.0024696589 7759179
0.68325424 0.37708968 0.0029951334 8022345
0.69107926 0.384902 0.004199028 8807975
0.69767368 0.39283568 0.0041573644 8939567
0.63357168 0.31614053 0.0064955354 4340250
0.63387197 0.31853989 0.0058062673 6835990
0.63624597 0.32004583 0.0058476925 5061915
0.64371061 0.33062917 0.0051159859 395015
0.64610791 0.33052123 0.0052260756 395013
0.68290401 0.38001695 0.00067162514 7622702
0.69535166 0.39453048 -0.0015088916 8874031
0.69794542 0.39827314 -0.00086468458 8873775
0.69966042 0.39882219 -0.00094783306 8939313
0.63072008 0.31648955 0.0040090084 7099145
0.63264322 0.31867456 0.0047636628 7821846
0.63553816 0.3209849 0.0048479438 3619384
0.63952124 0.33064473 0.003475368 460810
0.64194608 0.33065534 0.0028713942 395017
0.68343246 0.38165164 -0.0010026097 8613961
0.6849193 0.38398916 -0.0018797517 8676913
0.68613887 0.38558641 -0.001773119 8418136
0.68813735 0.38896415 -0.0021070838 8612410
0.69036424 0.3922132 -0.0017051101 8678722
0.69242859 0.39316905 -0.0017617941 8743738
0.69340491 0.39652348 -0.0020131469 8744258
0.6960392 0.39864838 -0.0019049644 8548171
0.69783229 0.40090472 -0.0014761686 8482377
0.60970628 0.29490978 0.0025374293 8608794
0.61162311 0.29683667 0.0024853349 8543258
0.61412686 0.29915869 0.0025556684 8543512
0.61633325 0.30108613 0.0027474165 8477716
0.61849928 0.30355126 0.0028495789 8476699
0.61981475 0.3066107 0.0026347637 8411668
0.62200719 0.30855894 0.0027245879 8411161
0.62351263 0.3106972 0.0028372407 8280087
0.62568849 0.31313726 0.0024647117 8215056
0.62716848 0.31600457 0.0025845766 8149520
0.6289798 0.31866175 0.0028566122 8018443
0.63104236 0.3195712 0.0030818582 8478732
0.63238162 0.32278311 0.0020499825 6443317
0.63881069 0.33067885 0.0014347434 526093
0.64042431 0.33094037 0.0015682578 460809
0.6811319 0.38324729 -0.00071561337 8615506
0.6829474 0.38602084 -0.0018600821 8547910
0.68554831 0.38808775 -0.0020059347 8482376
0.68646514 0.39120758 -0.0018773675 8547391
0.68858987 0.39216608 -0.0024136305 8549461
0.6902535 0.39534953 -0.0020396113 8679495
0.691315 0.39880165 -0.0028057694 8680793
0.69365895 0.40065542 -0.0027088523 8615254
0.6077944 0.29273239 0.0027207732 8675103
0.60772604 0.29547092 0.0017783642 8807440
0.61016631 0.29843336 0.0018921494 8609554
0.61152434 0.30172133 0.0016775727 8609555
0.61358559 0.30307925 0.0020728707 8609298
0.61610615 0.30504578 0.0021346211 8477966
0.61775529 0.30702549 0.0019904971 8411669
0.61929852 0.31047916 0.0016787052 8411669
0.62142533 0.31233254 0.0015927553 8411663
0.6231696 0.31420419 0.0019747615 8280337
0.62455618 0.31761503 0.0011176467 8083726
0.62667555 0.31896234 0.0014753938 8346891
0.62882841 0.32309365 -1.6212463e-05 7563085
0.6303674 0.32324618 0.0004452467 7429949
0.63600302 0.33115354 -0.00033378601 460056
0.67950082 0.38607565 -0.0025703311 7820847
0.60454136 0.29447174 0.0015915036 8741144
0.60592663 0.29724553 0.0014992952 8806682
0.60796362 0.29959047 0.0011739135 8676110
0.61067593 0.30181062 0.0012450814 8741392
0.61302084 0.30764765 0.0009688139 8609799
0.61557728 0.3090778 0.0010875463 8544007
0.62110281 0.31680736 0.00062078238 8412424
0.62287426 0.31758845 0.00082564354 8412678
0.62507558 0.32121438 -0.0026981235 7957066
0.62646383 0.32377511 -0.0015722513 7956025
0.6293568 0.3236748 -0.0012122989 8282147
0.63355136 0.3314175 -0.0019848347 394274
0.60140145 0.29339698 -3.5762787e-05 8872755
0.60308015 0.29550618 -0.00018811226 8741156
0.60538054 0.29839662 -0.00039684772 8675859
0.61232054 0.30890983 -0.0034512877 8088901
0.61451125 0.31179175 -0.0032151341 8154444
0.61723387 0.31485945 -0.0034062266 8152632
0.61989045 0.31782937 -0.0030196905 7957059
0.62110752 0.32041174 -0.003775239 8216868
0.62332332 0.32233626 -0.0029293299 7891527
0.624547 0.32518631 -0.0025653243 8215831
0.63106871 0.33205366 -0.0028102398 198708
0.59882259 0.29571751 -0.0028235912 8611635
0.60091424 0.29900736 -0.0039379597 8741663
0.60205203 0.29968172 -0.0042175055 8481077
0.60394531 0.30259085 -0.0042228103 8154963
0.60641223 0.30511296 -0.0041502118 8415027
0.60804564 0.30693156 -0.0035100579 8088649
0.60961848 0.30981117 -0.003732264 8348971
0.61155987 0.31173074 -0.0036165714 8218418
0.61357886 0.31435168 -0.0035671592 8348459
0.61520666 0.31722584 -0.003614068 8217648
0.61723739 0.31891799 -0.0038897991 8151853
0.61831266 0.3213217 -0.0036608577 8282404
0.62076366 0.32354206 -0.0038077831 8151854
0.62846994 0.33356863 -0.0051535964 1185595
0.59480935 0.2947275 -0.0039213896 8612154
0.59636635 0.29701781 -0.0040587187 8547131
0.59867251 0.29950541 -0.0044648647 8351044
0.59974617 0.30235565 -0.0047168136 8611889
0.60186625 0.30372804 -0.0042983294 8350790
0.6042257 0.30627701 -0.0043305159 8480305
0.60648066 0.30812162 -0.004278183 8675611
0.60707068 0.31111157 -0.0042328238 8610076
0.62643749 0.33441535 -0.0069654584 2829388
0.59441549 0.29800236 -0.0043920875 8352339
0.62430817 0.33533269 -0.0088672638 4933695
0.679353 0.3142547 0.037350595 723200
0.6810112 0.31755739 0.036657751 722949
0.68296611 0.31991255 0.036088467 854278
0.6847502 0.32211983 0.035573423 854279
0.68628037 0.32402015 0.03502816 920073
0.68843818 0.32657778 0.034606278 854536
0.69012952 0.32933784 0.034390092 1117446
0.69179946 0.3318277 0.034685016 920328
0.69337976 0.33402649 0.03409791 854282
0.67127782 0.30922198 0.033766389 723202
0.67384225 0.31086177 0.034513056 591618
0.6762538 0.31405446 0.034632742 723202
0.67709422 0.3166123 0.033935964 854534
0.67951763 0.31799638 0.033873916 920069
0.68210232 0.32032871 0.033525527 985863
0.68401659 0.3227073 0.032964408 1380104
0.68616319 0.32473099 0.033240616 853275
0.68737274 0.32707119 0.033774972 722189
0.68954885 0.32980534 0.033577502 722948
0.69169587 0.33243066 0.033325851 788737
0.69314998 0.33436766 0.033335865 920322
0.69431722 0.33686131 0.032869816 986125
0.69550419 0.34033793 0.032348812 985609
0.69717008 0.34258702 0.032514393 1117456
0.66780758 0.30933928 0.032597363 591361
0.66892666 0.31074545 0.032495856 657408
0.67127204 0.31467342 0.032969952 1051398
0.67353702 0.31543067 0.032374442 985862
0.67535794 0.31643215 0.031449199 1051399
0.69533575 0.34100434 0.029970706 1511689
0.6961 0.34354067 0.030972123 1577226
0.69783056 0.34526545 0.030795336 3418404
0.69910049 0.34808087 0.030304551 3745047
0.66504884 0.30824661 0.031378567 591361
0.66616791 0.30965281 0.031277001 591361
0.66747868 0.31383684 0.030983567 788742
0.67021811 0.31417456 0.030991733 985862
0.68297195 0.3320815 0.028951705 1314566
0.68402338 0.3341442 0.030104816 1314825
0.6851992 0.33619726 0.028950632 1380361
0.68647474 0.33744574 0.02839011 1380360
0.69778872 0.34909123 0.027178824 6968396
0.6989283 0.35049123 0.027217031 5981233
0.6592949 0.30750173 0.030326426 723201
0.66215122 0.3089869 0.030081809 591616
0.6630345 0.31200629 0.029334724 789001
0.66574526 0.31321722 0.029004037 985861
0.66785663 0.31388927 0.028784871 788741
0.67457336 0.32591486 0.027963638 1117962
0.67746627 0.32786626 0.027782023 1183500
0.6790579 0.32948846 0.028965652 1183242
0.68100798 0.3316834 0.028088391 1052429
0.68318009 0.33401072 0.027826071 1052425
0.6842767 0.33660859 0.027434349 1052428
0.68643117 0.34015143 0.027561784 1249033
0.68799901 0.34216732 0.026372492 1445896
0.65732479 0.30621332 0.029770553 723201
0.65973735 0.3075071 0.028187633 657408
0.65958524 0.31142578 0.02759552 854281
0.66224086 0.3124693 0.027353764 1051399
0.66761053 0.32125276 0.026998997 921100
0.66894495 0.32215837 0.026772499 1183497
0.67116421 0.323791 0.026863575 1117963
0.67430305 0.3257266 0.026218593 1183498
0.68287683 0.33616304 0.025926411 986891
0.68530452 0.34023935 0.024928689 986637
0.68646693 0.34304094 0.026014745 986639
0.68796867 0.34562749 0.02520597 1249292
0.69001377 0.34767726 0.024723291 1511945
0.69107151 0.35034445 0.024567068 1643275
0.69280207 0.35306728 0.025507033 1445388
0.69424379 0.3545562 0.024789751 1443077
0.65251076 0.30609867 0.026534498 591360
0.65444779 0.30719429 0.026419044 591362
0.65628958 0.30801886 0.025637925 657408
0.65817189 0.31196523 0.025250673 985607
0.65928239 0.31296933 0.026134074 1379847
0.6631124 0.31951457 0.025147498 921354
0.66614151 0.32096362 0.025545478 1117703
0.68693912 0.3457576 0.022751212 1052689
0.68734837 0.34889179 0.02368772 1117968
0.68827963 0.35123277 0.022939503 1118478
0.69256234 0.35330561 0.022619843 1576715
0.69357443 0.35499299 0.021687984 1246212
0.65087152 0.3068271 0.023873329 657156
0.65232646 0.30778655 0.023059309 656903
0.65416801 0.31164473 0.024104595 919815
0.65567458 0.31208378 0.023742914 1117190
0.66008961 0.31844258 0.023521066 1183241
0.66217721 0.3194387 0.023540139 1249031
0.6879915 0.35054505 0.020876944 1118479
0.68845475 0.35350397 0.020868003 1184270
0.68879855 0.35605615 0.021001637 1249811
0.69377172 0.3585161 0.021241963 3609868
0.64910758 0.30698442 0.022564173 723201
0.652542 0.31283033 0.02200985 1248519
0.65653801 0.31758159 0.022088468 1380104
0.65789855 0.31838596 0.022962272 1183243
0.68878704 0.35529912 0.019253373 1315601
0.68929935 0.35796666 0.019295871 1315350
0.64665425 0.30833113 0.02126509 788994
0.650069 0.31331614 0.020389736 1314056
0.65421844 0.31767428 0.020410657 1117964
0.68898678 0.36132509 0.016270578 788492
0.68904412 0.36181948 0.018429816 657422
0.64459896 0.30930912 0.01924777 788994
0.64785492 0.31323999 0.019159913 920074
0.64758676 0.31442714 0.018464506 1445646
0.65045488 0.31743029 0.01898247 1249034
0.64432669 0.31480855 0.017359912 1116687
0.6469028 0.317918 0.017609239 1314576
0.64849877 0.31773546 0.015830338 986897
0.65766662 0.33089775 0.017288148 329222
0.65972036 0.33321917 0.016232073 329219
0.6619938 0.33519107 0.015414476 394757
0.66382247 0.33761498 0.014181197 394501
0.6414566 0.31226021 0.016617835 722949
0.64288628 0.31533885 0.015328467 985103
0.64526808 0.31811723 0.01505518 1380117
0.65333939 0.33070576 0.014800131 329220
0.65588939 0.33189255 0.013693154 329221
0.65845495 0.33385593 0.013762474 329221
0.66052097 0.33489427 0.013685286 394758
0.68563581 0.36906952 0.012129486 1444618
0.63907897 0.31401986 0.013895273 656919
0.64152014 0.31651998 0.013672471 919047
0.64222407 0.31891084 0.013472378 986390
0.64996779 0.33065516 0.012393355 395011
0.65222651 0.33116525 0.012443602 394757
0.70274055 0.39570957 0.0076209307 9071170
0.70390141 0.39720011 0.007373929 9136962
0.70571756 0.39938545 0.0071333051 9071426
0.63659483 0.31574255 0.011258125 459796
0.6385954 0.31779987 0.011718154 1839112
0.64001781 0.32001036 0.010588408 985606
0.64841616 0.33083844 0.011125982 394755
0.65026027 0.33166006 0.010034442 394759
0.68746579 0.3797231 0.0061081648 8480840
0.68951201 0.38110623 0.0061563849 8677695
0.69213748 0.38374674 0.0060679317 8873789
0.69285214 0.38680285 0.0063364506 9005119
0.69556069 0.38797992 0.0063980222 8939581
0.69638157 0.39067212 0.0069330931 9071168
0.6990335 0.39299333 0.0071486831 9005636
0.70099533 0.39476848 0.0072622299 9005632
0.63510853 0.31812158 0.0095054507 2693386
0.63721138 0.32083395 0.0096755028 1118474
0.64346868 0.33038354 0.0096825957 395015
0.64615798 0.33106375 0.0091528296 395011
0.68774664 0.38296512 0.0053514838 8809281
0.68957436 0.38466299 0.005576551 8874039
0.69100612 0.38892132 0.0041004419 8873769
0.69379133 0.39006138 0.0044949055 8873771
0.6962328 0.39144325 0.0044495463 8939566
0.69613439 0.39571911 0.0040798783 9005101
0.69864297 0.39737821 0.0041798949 9005105
0.70058483 0.39994764 0.0044385195 9070634
0.63237762 0.31724653 0.0086498857 2956054
0.63517195 0.32097387 0.0081912279 3551511
0.64178312 0.3306694 0.0074736476 460551
0.64462048 0.33099154 0.007752955 460548
0.68142152 0.3773919 0.0047066212 5916226
0.68571341 0.38475496 0.0044754148 8743492
0.68768746 0.3867107 0.0042732358 8874025
0.68947542 0.3878327 0.0040615201 8808228
0.69097972 0.39277452 0.0039877295 8939303
0.69261694 0.39390028 0.0039412975 9005095
0.69443011 0.39476562 0.0040007234 8939562
0.62986213 0.31851506 0.0073563457 4204032
0.63264328 0.32065922 0.0065438747 6310422
0.63260889 0.32245615 0.005936563 5062950
0.63857603 0.3305071 0.0062181354 526345
0.6409924 0.33095586 0.005384326 460554
0.67933702 0.38176763 0.0015557408 7627591
0.69306374 0.3989808 -0.00054979324 8939312
0.69466507 0.39986849 -0.00074452162 8939566
0.62770039 0.31945592 0.0054245591 6309892
0.62940496 0.32178915 0.0046702027 7492880
0.63038731 0.32376531 0.0060801506 4802875
0.63668931 0.33086035 0.0036123395 525839
0.68308914 0.38967127 -0.0018632412 8742446
0.68746525 0.39439461 -0.0016745329 8743740
0.68893576 0.3978712 -0.0011402369 8939306
0.6908161 0.39856425 -0.00095510483 8939308
0.61388564 0.30668199 0.0024451613 8543766
0.61619031 0.30832613 0.0027531981 8412182
0.61866301 0.31114405 0.0025517941 8346388
0.62071288 0.31278884 0.0027182698 8346131
0.62209058 0.31400654 0.002856791 8346130
0.62360013 0.31859171 0.0032195449 7624207
0.62533176 0.3206943 0.0028493404 7689484
0.62722194 0.32167476 0.0025163293 8215815
0.62882262 0.3248103 0.0024206042 6509886
0.63319522 0.33146191 0.0026827455 525609
0.63514835 0.33108887 0.0022022724 525849
0.67858839 0.38587973 -0.0011581779 8615245
0.68010068 0.38886437 -0.0022490621 8679751
0.68174422 0.39118692 -0.0021961927 8613707
0.68313038 0.39340028 -0.0020627379 8678722
0.68542975 0.39524665 -0.0016735196 8744514
0.68691218 0.3980962 -0.0021579862 8679757
0.68932009 0.40048742 -0.0023328662 8745550
0.60155165 0.29535726 0.0021743774 8807198
0.60298908 0.29677823 0.0022416115 8807198
0.60506797 0.29863566 0.0021270514 8806688
0.60712302 0.3005279 0.0022320151 8741148
0.60963678 0.302681 0.0024365187 8609817
0.61103517 0.30549699 0.001891315 8609812
0.61264253 0.30760914 0.0024707913 8543259
0.6152423 0.3101536 0.0025428534 8476957
0.6170724 0.31214809 0.0024707317 8345629
0.61867654 0.31443655 0.0022059083 8345882
0.62049836 0.31707403 0.0019571781 8083477
0.62248319 0.31930006 0.0020488501 7952143
0.62297249 0.32247835 0.0016701818 8281097
0.62579191 0.32467771 0.0017487407 7363370
0.6310482 0.3320182 1.6570091e-05 459832
0.67762554 0.38911551 -0.0024129748 8349507
0.67913532 0.39245826 -0.0024148822 8876360
0.68300164 0.39678636 -0.0026817322 8681045
0.59984505 0.29473639 0.0013591647 8872729
0.60167992 0.29707995 0.0014446378 8872475
0.60402405 0.29956532 0.0014262199 8741145
0.60540593 0.30199885 0.001903832 8741145
0.60719979 0.30404973 0.001200676 8741905
0.60902387 0.30647087 0.0020729303 8674595
0.61039048 0.3098129 0.00078052282 8609300
0.61272442 0.31139755 0.0011770725 8542748
0.61460733 0.31404749 0.00071829557 8477717
0.61589932 0.3164039 0.0009098649 8411921
0.61764985 0.31863451 0.00027555227 8412424
0.62256622 0.32528874 -0.0022954345 7759946
0.6249997 0.3273229 -0.00048691034 7558944
0.62818283 0.33318448 -0.0012302995 1052466
0.59594178 0.29420471 0.0012024045 8807192
0.59735286 0.29711837 0.00084805489 8872729
0.59926647 0.2992745 0.00021272898 8872986
0.60152251 0.30103368 0.00024688244 8872979
0.60356128 0.30301732 0.00010788441 8741654
0.60427105 0.30625468 0.00046861172 8873241
0.6067661 0.30815297 0.00018781424 8807441
0.61094654 0.31448203 7.0393085e-05 8610058
0.61332905 0.3166979 -0.0032557845 7957065
0.61548454 0.32033736 -0.0035533905 8477973
0.61997801 0.32598445 -0.0034604073 7760198
0.62168723 0.3270424 -0.0024713278 7757097
0.62557471 0.33459163 -0.0033982992 2631724
0.5941053 0.29614499 0.00014919043 8939030
0.60146123 0.30640864 -0.0035490394 8352086
0.60324341 0.30678546 -0.0035066009 8220498
0.60450578 0.30975294 -0.0034530163 8220493
0.60687512 0.31188494 -0.0033595562 8154441
0.6084125 0.31467757 -0.003878355 8349234
0.61045158 0.31624967 -0.0039520264 8218425
0.6123547 0.31956717 -0.0039528012 8217647
0.61413205 0.32181624 -0.0041848421 8151852
0.61589473 0.32433304 -0.0043244362 8086579
0.61787575 0.32671374 -0.0041227341 8151337
0.61949986 0.32800245 -0.0029441118 7757874
0.62440431 0.3353312 -0.0060559511 3487280
0.59205294 0.29702553 -0.0040721297 8612671
0.59288847 0.29962808 -0.0040259957 8547655
0.59571868 0.30136144 -0.004491806 8677686
0.59701413 0.30444771 -0.0043806434 8482377
