# .PCD v0.7 - Point Cloud Data file format
VERSION 0.7
FIELDS x y z rgba
SIZE 4 4 4 4
TYPE F F F U
COUNT 1 1 1 1
WIDTH 1173
HEIGHT 1
VIEWPOINT 0 0 0 1 0 0 0
POINTS 1173
DATA ascii
0.68366838 0.274948 0.10173708 1249285
0.68510759 0.27868167 0.10114634 1117955
0.68636835 0.2792064 0.10104489 1117955
0.68963385 0.28574899 0.10021079 855042
0.69158137 0.28759456 0.099719942 789506
0.69353735 0.28974777 0.099814177 855042
0.69515252 0.29231173 0.099838853 855043
0.69703549 0.29450667 0.099285841 855043
0.69922137 0.29690856 0.099286735 920836
0.70059282 0.29982653 0.098948479 855300
0.70203561 0.30234361 0.09814024 855299
0.70308101 0.30493379 0.097709537 921091
0.70359123 0.30715549 0.09731698 986884
0.70922756 0.31193042 0.09671092 1512455
0.70930028 0.31508464 0.096340537 1643780
0.67683476 0.27016944 0.099807382 789256
0.67800176 0.27106661 0.10031998 789514
0.68001592 0.27363873 0.09976548 1249029
0.68104118 0.27739447 0.099746466 1183748
0.68329161 0.27802277 0.09923923 1183492
0.6843859 0.28185591 0.098981678 789250
0.68694854 0.2834827 0.098665714 789250
0.68914402 0.28471851 0.098445117 789251
0.703668 0.30589509 0.09594202 986628
0.70381486 0.30880952 0.095440507 986626
0.70419705 0.31165069 0.09515655 986627
0.7099455 0.31831798 0.093483806 1775365
0.71111345 0.3206256 0.092997313 2627590
0.67342734 0.27178895 0.097972572 985868
0.67617494 0.27259752 0.097669125 986117
0.6775111 0.27391505 0.097889781 1512455
0.67953002 0.27771789 0.097553968 1117700
0.6813221 0.28005713 0.097232699 789252
0.68373924 0.28093126 0.097007632 789507
0.7043159 0.31131995 0.093161643 986374
0.70471692 0.31445774 0.092428625 986626
0.66949987 0.2702719 0.09647119 722944
0.67203474 0.27142382 0.095797777 920070
0.67449939 0.27312911 0.095802009 1249541
0.67555642 0.27610388 0.095607996 1315077
0.67765212 0.27800447 0.095297039 986372
0.67949003 0.27912396 0.094343424 920582
0.70446521 0.31779394 0.09116447 1052676
0.66936839 0.27045092 0.093766928 854537
0.67032313 0.27286071 0.094066381 986115
0.67200434 0.27459359 0.09358567 1577989
0.67353284 0.27704105 0.094002962 1117958
0.67614377 0.27811804 0.09329325 986116
0.69745255 0.31476378 0.088912487 1185030
0.70419824 0.31949309 0.087688267 1117955
0.70410919 0.3210324 0.088463843 1183746
0.66675979 0.27122271 0.092212915 986368
0.66894031 0.27346963 0.092066348 1315078
0.66986668 0.27579135 0.09192872 1380868
0.67240757 0.27732736 0.091500342 1052165
0.69535255 0.31368929 0.087323785 329475
0.69676471 0.31449741 0.087883711 724229
0.70345008 0.32281193 0.086731493 1314819
0.70345247 0.32479629 0.087018013 1380611
0.66557455 0.27279413 0.088285208 920832
0.666462 0.27423567 0.090059757 1446662
0.66974366 0.27612099 0.089663506 1249541
0.69150746 0.31327757 0.085364699 395010
0.69348854 0.31384936 0.085482001 461315
0.70288527 0.32542303 0.083392322 1314819
0.70352781 0.32801414 0.083674252 1446662
0.66257381 0.27341747 0.087863028 986117
0.66468704 0.27491087 0.088324904 1446664
0.6664505 0.27668709 0.088154554 1249800
0.69034678 0.31297082 0.083368778 263425
0.69164312 0.31339175 0.084421456 329729
0.70374203 0.33021054 0.081209183 2628103
0.65920782 0.27278286 0.0854491 788737
0.66122556 0.27436519 0.086050987 1380868
0.66300404 0.27610841 0.08590889 1645328
0.6883713 0.31317648 0.081197679 131841
0.65830791 0.27244756 0.084655285 788737
0.6593498 0.27527261 0.084134698 3222549
0.68645126 0.31407139 0.080554545 263425
0.65542328 0.27407497 0.082045972 854785
0.65738195 0.27591932 0.082274556 2761227
0.6601721 0.27682287 0.082101226 1973001
0.68415022 0.31509751 0.077114403 197378
0.65333915 0.27669629 0.080661237 1838599
0.65578502 0.27660322 0.080331504 3945241
0.67952693 0.31248695 0.07670027 131586
0.68058091 0.3131333 0.076926649 131586
0.68170536 0.31592152 0.075560033 197378
0.65120625 0.27417469 0.079017222 1117454
0.65186775 0.27619982 0.079149127 1248772
0.65392208 0.27753925 0.07792455 6115632
0.68050253 0.31673878 0.07315886 197377
0.65286458 0.27794513 0.076344371 1576453
0.67111397 0.30764508 0.073727012 394756
0.67741829 0.31699336 0.071927905 263168
0.67860031 0.31760189 0.071577847 263169
0.66297817 0.30460465 0.070107102 131585
0.6698975 0.31372786 0.067279458 328705
0.67232966 0.31472087 0.06776309 197376
0.66113311 0.30386195 0.068670392 197632
0.66379941 0.30891705 0.067178071 66305
0.66489184 0.31305483 0.065804243 329219
0.66728258 0.31433338 0.065986574 197891
0.66850924 0.3174482 0.065373421 131840
0.6633153 0.31130001 0.065057456 197634
0.66502762 0.31274164 0.06420368 395012
0.66669548 0.31489632 0.063611388 197890
0.667629 0.31623864 0.063869238 131840
0.66914952 0.32000184 0.065261066 131840
0.69700193 0.28265846 0.11240172 1249541
0.69914186 0.28382647 0.1120311 1249541
0.70145881 0.28596789 0.11188591 1249287
0.70329463 0.2885085 0.11229593 1380872
0.70530152 0.29110467 0.11189449 1380617
0.70646918 0.29334247 0.11133587 1446410
0.70807338 0.29586697 0.11132097 1315084
0.70956314 0.29865807 0.11017764 1446920
0.71105254 0.30120558 0.11015713 1512458
0.71244943 0.30388376 0.10950196 1643531
0.71385646 0.30634609 0.10912788 1315082
0.7154848 0.30841985 0.10929692 5259051
0.6919837 0.27867436 0.11118454 1052163
0.69432193 0.28022796 0.11141092 1052421
0.69591641 0.28240627 0.11069745 1315335
0.6974867 0.28497064 0.11031592 1709832
0.69978082 0.28694159 0.11022604 1709832
0.70145947 0.28926191 0.11069369 1710346
0.70346004 0.29157165 0.11019433 1710089
0.70574975 0.29451483 0.10961556 1841416
0.70704478 0.29681954 0.10973907 1710088
0.70895958 0.29970056 0.10890055 1776136
0.71003175 0.30196279 0.10817599 1776136
0.71138811 0.30427057 0.10794479 1841419
0.71189511 0.30665261 0.1071583 2038284
0.71523297 0.30794609 0.10753703 3942935
0.68902379 0.27612835 0.10903311 920834
0.69048637 0.27853969 0.10916483 1249284
0.69284165 0.28095746 0.10912561 1446919
0.69452238 0.28165299 0.10879397 1446919
0.69861603 0.29161352 0.10659373 1512716
0.70025486 0.29387552 0.10637528 1446922
0.70171762 0.29626125 0.10650581 1381126
0.70321512 0.2988084 0.10600597 1380872
0.71208501 0.30805004 0.10621512 2104075
0.71307629 0.31053984 0.10553432 2104073
0.71399891 0.31262326 0.10502976 2563335
0.68522334 0.2746827 0.10749888 920837
0.68710196 0.27673203 0.10694122 1249285
0.68891335 0.27808356 0.1070019 1380869
0.69145197 0.28485012 0.10582566 1315335
0.69371074 0.28688711 0.10613567 1512713
0.69591391 0.28895539 0.10626072 1512715
0.69791579 0.29099992 0.10652184 1512714
0.69964617 0.29377204 0.10659683 1381643
0.70388561 0.29889178 0.10498697 1380871
0.70494437 0.30115986 0.10504884 1446665
0.70607722 0.30384275 0.1046418 1512455
0.7070787 0.3067925 0.10291803 1578250
0.70713603 0.30934066 0.10353029 1709323
0.67996144 0.27188262 0.10580266 920332
0.68127745 0.27333432 0.10627145 920582
0.68372875 0.27577806 0.10604692 1446405
0.68643951 0.28049412 0.10475278 1183749
0.68903637 0.28254029 0.10513723 1314821
0.69382727 0.29267916 0.10298759 1183751
0.6977694 0.29826084 0.10230505 921350
0.6992867 0.29986602 0.1016922 921094
0.70789862 0.30983374 0.10190618 1578247
0.70856482 0.31269813 0.10097581 1644038
0.67803633 0.27208227 0.10403037 920327
0.68066716 0.27423951 0.10431248 1315077
0.68114674 0.27797955 0.10403442 1183749
0.68338215 0.27877495 0.10348105 1183494
0.68639308 0.28476226 0.10207343 855301
0.68841159 0.28638691 0.10241497 986628
0.69052792 0.28833127 0.10276353 1118213
0.69243467 0.2909601 0.10263008 1052677
0.6944623 0.29389203 0.10203397 1117959
0.69581568 0.29582632 0.1018765 986630
0.69927609 0.3011421 0.10160315 986629
0.70084757 0.30354065 0.10092324 986629
0.70214522 0.3060613 0.099973857 1117957
0.70288169 0.30906767 0.099264979 1052423
0.70924222 0.31592083 0.099219441 1709574
0.70986009 0.31856412 0.097994447 1906696
0.67505836 0.27086616 0.10279095 920326
0.67661774 0.27308089 0.10171193 1183493
0.67804134 0.27531177 0.10198009 1315078
0.68028891 0.27725023 0.10226959 1183748
0.68103719 0.28117973 0.10042804 855043
0.68311185 0.28249323 0.10119009 855043
0.685022 0.28346729 0.10142022 855044
0.70396543 0.31171343 0.09809655 987139
0.70426989 0.31475765 0.097011626 1118467
0.71032083 0.31989372 0.096204996 1841159
0.71007907 0.32191959 0.096703529 2299907
0.67264527 0.27154663 0.10032713 920324
0.67451108 0.27321535 0.10011834 1249029
0.67634922 0.27639982 0.099856973 1314820
0.67788732 0.27878729 0.099602222 920579
0.67995483 0.28017247 0.099921286 789251
0.70475316 0.31510618 0.09513545 1052419
0.70446658 0.31814638 0.094481647 1118211
0.70463991 0.32047302 0.094054997 1249539
0.66899711 0.27104416 0.098429918 526080
0.67086518 0.27254069 0.098383546 986114
0.67279601 0.27419525 0.097995162 1380869
0.67428774 0.27737194 0.097764611 1051910
0.67623401 0.27833164 0.098426342 986118
0.69925475 0.31546414 0.09270215 263683
0.70067656 0.31698304 0.093150616 855558
0.7042774 0.31989864 0.092346549 1183746
0.66675788 0.2710596 0.096508741 855298
0.66892755 0.27353209 0.096400499 1380868
0.6709739 0.27617687 0.095824182 1249285
0.69611168 0.31422555 0.090905547 263937
0.69768137 0.31500179 0.091275752 461314
0.69987464 0.31606007 0.09111768 1250566
0.7033425 0.32312742 0.090130985 1249539
0.70336008 0.32566902 0.089594841 1446405
0.6640352 0.27161992 0.094587684 986121
0.66701937 0.27441108 0.094361424 1315076
0.668432 0.27643168 0.094059587 1183749
0.6944654 0.31448284 0.090271473 329985
0.69648457 0.31410211 0.089035869 263938
0.70304239 0.32592607 0.087468743 1446405
0.70406914 0.32886428 0.08710897 2103301
0.66302282 0.27430618 0.092238665 1249029
0.66490096 0.27558452 0.092289925 1643785
0.66776896 0.27629742 0.092272758 1249285
0.69089401 0.31366253 0.087519467 329729
0.69197226 0.31420654 0.088035524 264194
0.70315301 0.32985342 0.086827517 1840902
0.66159034 0.27439708 0.090416133 1446407
0.66246414 0.27625817 0.089674413 1579537
0.68901467 0.31363338 0.085264742 263681
0.65820807 0.27363938 0.086819053 854787
0.65945041 0.27538413 0.088382304 2104076
0.66160607 0.27628803 0.08764267 1842963
0.6869446 0.31409654 0.083464503 131841
0.689574 0.31666863 0.083359122 395522
0.65663183 0.2741769 0.086372912 2301190
0.65751302 0.27572834 0.08660841 2959126
0.68594676 0.315083 0.081980944 197889
0.65443695 0.27576661 0.084123969 723714
0.65526342 0.27666759 0.084163785 3353625
0.68338692 0.3161881 0.078728557 263170
0.65263283 0.27679622 0.082464218 2104332
0.65505677 0.27713799 0.081915975 1445638
0.6791091 0.31294224 0.078052402 131586
0.68060458 0.31675798 0.077451408 328961
0.65099347 0.2776981 0.079710066 3023111
0.67415285 0.31281561 0.076179028 328704
0.6750046 0.31396139 0.075390756 394241
0.66655844 0.30560064 0.074801505 66048
0.67572474 0.31774807 0.072577834 263168
0.6638844 0.30492738 0.072785676 131584
0.66469514 0.30599266 0.07340467 131584
0.67340243 0.31746972 0.0717507 197632
0.65887594 0.30319285 0.071740925 328706
0.66127551 0.30514339 0.071578979 131584
0.66234446 0.30771342 0.072000384 131840
0.66433918 0.30942494 0.070548177 131840
0.65572864 0.30230066 0.070418119 658177
0.65803945 0.30303594 0.069471836 394753
0.66001725 0.30442727 0.06999898 131585
0.66362333 0.31178957 0.069691598 263169
0.66440904 0.31328428 0.06824398 394754
0.66614985 0.31578359 0.06788224 263172
0.66797507 0.31818089 0.06790024 197377
0.66900527 0.32039481 0.067129076 131840
0.66747642 0.31804901 0.065815926 131841
0.70452619 0.2927044 0.11507857 1118474
0.70547485 0.29434013 0.11484057 986888
0.70655441 0.29652786 0.11486149 921095
0.69572449 0.283131 0.11405188 1315588
0.69813287 0.28510642 0.11464846 1512970
0.70026684 0.28723878 0.11494851 1381386
0.701594 0.28969306 0.11455959 1512969
0.70331395 0.29259336 0.11366898 1381639
0.70487899 0.29492986 0.11297375 1381640
0.70693421 0.29734021 0.11291093 1315592
0.70799446 0.29975346 0.1124835 1381641
0.70995462 0.30276471 0.11241692 1446669
0.71128303 0.30519807 0.11167073 1578250
0.71277899 0.30790699 0.11131829 1578251
0.71429431 0.30996525 0.110906 3221532
0.7155633 0.31217512 0.11100507 8547910
0.69053185 0.2788569 0.11336589 1117958
0.69327748 0.28092432 0.11398566 1118216
0.69412553 0.28399771 0.11270142 1447176
0.69621539 0.28605968 0.11254436 1776396
0.69832337 0.28850847 0.11281896 1710349
0.70089012 0.29083389 0.11234647 1907724
0.70087576 0.29317439 0.11295295 1184258
0.70307851 0.2957395 0.11240184 1250053
0.70528919 0.29826516 0.11206615 1447943
0.708552 0.30270824 0.11109579 1907724
0.7094391 0.30562192 0.11047161 1973260
0.71078521 0.3086552 0.10904878 2170124
0.685314 0.27620435 0.11172193 1051906
0.68765342 0.27734414 0.11195368 1117956
0.68874884 0.27989501 0.11133146 1512454
0.69142866 0.28179997 0.11152965 1512712
0.69231021 0.28345042 0.11250484 1447433
0.6976704 0.29265815 0.10830164 1578508
0.69922251 0.29527438 0.10849184 1052677
0.70077693 0.29761535 0.10795456 986628
0.70210874 0.2991344 0.10742188 1183754
0.70322788 0.30114174 0.10719156 1315594
0.70448214 0.30503559 0.1081686 1250059
0.71149528 0.31136858 0.10832119 2301966
0.71272087 0.3141799 0.10735381 2432780
0.71326149 0.31721824 0.10654199 5062169
0.67974931 0.27152181 0.11063051 855302
0.68165457 0.27445132 0.10955822 1051908
0.68394059 0.27563539 0.10992742 1117699
0.68585002 0.27769756 0.10964 1446661
0.6887753 0.28481889 0.1079601 1117959
0.69020015 0.2861394 0.10820198 1117956
0.69245398 0.28818229 0.10840297 1249800
0.69385993 0.29059944 0.10831058 986377
0.69608331 0.29275388 0.10874796 789254
0.69742471 0.2954089 0.10848278 657668
0.69914639 0.29716778 0.10826957 592130
0.70102704 0.30050635 0.10797977 591876
0.70316005 0.30278397 0.10728025 1118472
0.70445681 0.30477911 0.10695136 1315592
0.70542812 0.30811685 0.10504621 1578762
0.7066319 0.31018272 0.10457748 1710091
0.71357572 0.31917655 0.10637903 7955256
0.67601728 0.27158302 0.10859001 658947
0.67822993 0.27217287 0.10808837 855555
0.6802702 0.27435243 0.10824221 1249028
0.68181169 0.27620578 0.10885316 1512198
0.68283141 0.28081942 0.10771817 1380871
0.68541467 0.28196275 0.10721421 1315335
0.68756199 0.28368708 0.10785174 1183752
0.69007695 0.28849334 0.10841554 394500
0.69187915 0.29292214 0.10497379 723717
0.69353306 0.29408389 0.1038363 1118471
0.6957795 0.29723841 0.10336459 855301
0.69643831 0.29925257 0.10407692 657924
0.70599878 0.31154466 0.10444283 1710347
0.70701939 0.31384498 0.1032362 1841672
0.70816761 0.31597966 0.10184258 1906694
0.67451549 0.27155596 0.10617954 658183
0.67679107 0.27300119 0.10634613 1052164
0.67917335 0.27478144 0.10598087 1446661
0.67988312 0.27835506 0.10537392 1315077
0.68224955 0.2797361 0.10609859 1380613
0.68469799 0.28542542 0.10425878 855299
0.68722332 0.28755039 0.10520637 789252
0.68886191 0.29019195 0.10485458 723461
0.69069719 0.29196733 0.10489309 657924
0.69262016 0.29497379 0.10448599 658181
0.69423383 0.29744133 0.10403162 460803
0.69587815 0.30070323 0.1043213 263425
0.69745779 0.30230629 0.10338199 657923
0.69909477 0.30468279 0.10293227 855301
0.70038611 0.30712107 0.10198951 1118215
0.70164734 0.30948624 0.10058969 1118725
0.7080853 0.31796527 0.1016736 1972743
0.70904011 0.31981477 0.10103375 2038280
0.70995033 0.32252499 0.10059983 2299651
0.67174566 0.27032924 0.10535526 921091
0.67303729 0.27142495 0.10462797 723719
0.67491865 0.27364379 0.10441941 1249286
0.67648411 0.27712476 0.10428691 1315076
0.67840338 0.27883723 0.10316062 1052163
0.67948544 0.28182459 0.10269648 986371
0.68179327 0.28379354 0.1036647 921092
0.68310398 0.28613615 0.10493958 658436
0.70085168 0.3116143 0.1005739 1250307
0.70220661 0.31313932 0.10033172 1250309
0.70340574 0.31607202 0.099049628 1250051
0.70370948 0.31874377 0.098848999 1315588
0.6690408 0.27105349 0.10313666 526853
0.67101514 0.27306992 0.10201299 1051906
0.67276454 0.27496082 0.10216278 1446661
0.67441344 0.27815366 0.10188985 1052164
0.67599773 0.28006327 0.10221028 986372
0.7011826 0.3181684 0.096440136 198146
0.70330572 0.31947875 0.096553802 855045
0.70433712 0.32191372 0.0966084 1249540
0.66706902 0.27132308 0.10048902 593153
0.66927576 0.27370828 0.10014576 1314820
0.67095864 0.2764473 0.10044259 1315077
0.67315555 0.27795142 0.10043955 986373
0.69747376 0.31622654 0.094994068 331525
0.69962251 0.31787041 0.094794571 461571
0.7008003 0.3198989 0.095217824 855815
0.70371312 0.32297724 0.094378591 1249798
0.70367205 0.3259142 0.094245911 1381380
0.66500109 0.27132705 0.099740267 854791
0.66741121 0.27478558 0.098892808 1380868
0.66939759 0.27728561 0.098633647 1052419
0.69455075 0.31503987 0.093735039 660485
0.69641644 0.31609845 0.093747735 396802
0.69696188 0.32097304 0.092993438 662279
0.70334244 0.32636845 0.091779768 1446917
0.7033937 0.33025095 0.091331303 2234887
0.66185308 0.27259403 0.097483039 920323
0.66339201 0.27350879 0.097083092 1051909
0.66559851 0.27580452 0.096207857 1512199
0.66716683 0.27721569 0.096806765 1052166
0.69632185 0.31960961 0.091575861 594180
0.70341682 0.32945901 0.089346886 1971974
0.66153908 0.27474046 0.094401717 1249283
0.66309118 0.27661556 0.094512999 1578764
0.65975177 0.27568257 0.092377424 2104331
0.66264772 0.27677706 0.092396438 1447950
0.65628576 0.27535701 0.091970265 3549967
0.65713465 0.27626944 0.090174675 3156247
0.65580022 0.27582055 0.088136315 3484174
0.65609121 0.27668232 0.088988662 2630421
0.65189815 0.27688897 0.086562335 1841170
0.65376431 0.27774492 0.086348832 3024410
0.65262699 0.27737701 0.08415401 1970182
0.65140778 0.27907339 0.084700048 2233349
0.67187345 0.31304473 0.077943683 460547
0.67423421 0.31431955 0.077933133 328960
0.66183543 0.30678022 0.076373041 262912
0.66219717 0.30664676 0.074362636 131840
0.65607536 0.30285877 0.073373318 131586
0.65798903 0.30411166 0.073709071 131584
0.6600576 0.30557317 0.074027359 131840
0.66171032 0.30906969 0.072936356 131584
0.66213858 0.31098586 0.072023034 131840
0.66622281 0.31783178 0.071832538 197633
0.66882575 0.31867361 0.073344469 263170
0.65427494 0.30254334 0.072187304 197376
0.65740108 0.30304176 0.071868658 262915
0.66175902 0.31244928 0.071570754 197377
0.66301841 0.31429115 0.070298016 263169
0.66521484 0.31654707 0.070652068 197633
0.66761947 0.31881267 0.07011199 197377
0.65271008 0.30250505 0.070121646 395009
0.64896077 0.30255777 0.069479227 197120
0.70399976 0.29352659 0.11584455 723973
0.70616299 0.29716259 0.11584324 526853
0.69282568 0.28180394 0.11757177 526340
0.69485718 0.28377253 0.11686647 592131
0.69662768 0.28554219 0.11660123 592388
0.70034623 0.29021084 0.11608374 394753
0.70222569 0.29182369 0.11589205 592130
0.70688725 0.29837883 0.11491787 789764
0.70752555 0.30092537 0.11490095 723972
0.70856035 0.30319729 0.11437428 987143
0.70971304 0.30630457 0.11361939 1184007
0.71082127 0.30822539 0.11288047 1578505
0.71353853 0.31200874 0.11222041 2630679
0.71409106 0.31342381 0.11243236 5719084
0.6874941 0.27921551 0.11510539 921348
0.68956262 0.28017718 0.11610603 855301
0.69084954 0.28222463 0.11484039 1052423
0.69237083 0.28461933 0.1134131 1184005
0.69436109 0.28754053 0.11357063 788739
0.69685888 0.29110777 0.11387956 328706
0.69893587 0.29150563 0.1138289 788995
0.70027626 0.29428744 0.11320651 592129
0.70690155 0.3019889 0.1126712 1513737
0.70820165 0.30757058 0.11082351 1776394
0.70965505 0.30933961 0.11227578 1578763
0.71187615 0.31119651 0.11269397 1512460
0.71388793 0.31444794 0.11219847 6114098
0.71409118 0.31706491 0.1118201 9402438
0.6839813 0.27714938 0.11424983 1118214
0.68578029 0.27877045 0.11405373 1315336
0.68759418 0.28106913 0.11358023 1446920
0.6893754 0.28320107 0.11415964 854531
0.6908043 0.28573754 0.11376667 526082
0.69279993 0.28892797 0.11318195 263168
0.69496274 0.29064858 0.11280608 328704
0.70847023 0.31149194 0.10986203 2039565
0.70962363 0.31301361 0.10990024 2236941
0.71078187 0.31559148 0.10918224 2368015
0.71232939 0.31848127 0.10844684 4865309
0.71274763 0.32074532 0.10853851 8350268
0.67839873 0.27242729 0.11215758 921095
0.68041837 0.27559477 0.11217111 1117957
0.6821149 0.27732122 0.11210239 1446662
0.68452191 0.27850479 0.11261809 1578503
0.68699992 0.28588426 0.11015916 460292
0.68819761 0.28610507 0.10923082 723461
0.69078517 0.28987896 0.10875946 394757
0.69279778 0.29187012 0.10907561 328453
0.6950829 0.29421175 0.10946405 197121
0.69673836 0.29667428 0.10947907 262913
0.69810009 0.29888761 0.1083262 262913
0.69921625 0.30132371 0.10955918 197376
0.7015146 0.30231029 0.1090939 329218
0.70346415 0.30680734 0.10798228 658696
0.70453727 0.3073788 0.10771453 1184777
0.67593145 0.27192926 0.11089051 920591
0.67704546 0.27413964 0.11055028 1052167
0.67878062 0.27589238 0.11056453 1446662
0.68187702 0.28157857 0.10855812 1249545
0.68341315 0.28343126 0.1090523 1512717
0.68512064 0.28540701 0.10919702 592135
0.68804294 0.28770003 0.10895282 263170
0.6957888 0.30079398 0.10683441 197376
0.6976577 0.30312026 0.10660517 263424
0.70425534 0.31003767 0.10598511 1119499
0.70562756 0.31512803 0.10352629 1841676
0.70620441 0.31682843 0.10371625 1973259
0.67283571 0.27224839 0.10848731 854539
0.67467654 0.27433711 0.10847843 1249285
0.67678428 0.27543908 0.10854173 1512454
0.67812842 0.27962905 0.10766566 1315079
0.68047142 0.28146172 0.10849297 1117957
0.68360424 0.28649461 0.10665238 329986
0.68728137 0.29156888 0.10500735 131840
0.69570065 0.30165616 0.10512149 262913
0.69818145 0.30567497 0.10407251 395010
0.7035234 0.31281561 0.10371411 1381643
0.70418632 0.3158657 0.10298425 1776140
0.70567489 0.31877524 0.10338402 2039563
0.70734912 0.32123902 0.10295892 2170123
0.70876586 0.32375273 0.10217154 2563080
0.70844376 0.32623553 0.10251987 4270860
0.67017972 0.27118269 0.10710454 854280
0.67187274 0.27384549 0.10655493 1183491
0.67322826 0.27469933 0.10671425 1380869
0.67527688 0.2779364 0.10643494 1381126
0.6783216 0.28278887 0.10409731 986117
0.67991209 0.28579873 0.10481846 1184008
0.68193614 0.28718305 0.10495847 526596
0.70007658 0.31497097 0.10087752 1186308
0.70149547 0.31729484 0.10097897 1449224
0.70327532 0.31996736 0.10125279 1645578
0.70515513 0.32365638 0.10090053 790282
0.66759837 0.27150792 0.10471231 723207
0.6696679 0.27397454 0.1048364 1249283
0.67129713 0.27648735 0.10496378 1446919
0.67295563 0.2801612 0.103535 920838
0.67448199 0.28180966 0.10396814 789253
0.67640638 0.28392631 0.10376376 657669
0.67806596 0.2855103 0.10415089 1052424
0.70033705 0.31924719 0.099655926 1451529
0.70144331 0.32119262 0.098858595 1187850
0.703035 0.32331586 0.098612785 1053957
0.70333505 0.32629913 0.098405361 659970
0.66361761 0.27192581 0.10279435 460551
0.66556203 0.27259034 0.10293102 789762
0.66746855 0.27467087 0.10277879 1577989
0.66919088 0.27854365 0.10212266 1117954
0.67138851 0.27923799 0.10270053 1052165
0.67441428 0.28463483 0.10328162 328962
0.69596434 0.31726056 0.097415864 2312715
0.69785178 0.3192696 0.097065568 2376985
0.69970298 0.3220095 0.096495271 1386507
0.70177758 0.32445621 0.097741544 1318661
0.70328104 0.3267957 0.096229494 1512964
0.70411932 0.32900473 0.096072495 1775109
0.66229397 0.27286625 0.10013098 723723
0.66411334 0.27416077 0.10023314 1183750
0.6657598 0.27540344 0.10062999 1643782
0.66726488 0.27811182 0.10086006 1118211
0.69343376 0.31620175 0.0964185 1718023
0.69455081 0.31794012 0.095765352 1916172
0.69639862 0.32061911 0.09658289 3560738
0.69669729 0.32226413 0.094558835 2308620
0.70329499 0.33093435 0.092357576 2366215
0.66045445 0.27333671 0.098679364 985864
0.66205573 0.27583003 0.099130332 1775368
0.66375524 0.27711248 0.098819733 1381389
0.69424081 0.32158118 0.092846513 3033885
0.65849352 0.27512324 0.096362472 2432266
0.66032743 0.27612516 0.096519589 2433554
0.66211319 0.27702802 0.09732759 1645585
0.69099134 0.32119429 0.092242718 4087854
0.69244868 0.32237762 0.092150331 4021281
0.65674275 0.2759831 0.095587492 5391907
0.65834832 0.27632222 0.094796181 2433044
0.68975204 0.3232024 0.089805484 3758875
0.65471745 0.27690649 0.092838764 2169357
0.65563416 0.27780119 0.092347383 1643530
0.68734884 0.32294467 0.088212907 3497506
0.65414357 0.27718323 0.091252983 2104336
0.65432203 0.27783564 0.091275811 1576714
0.65135753 0.27738416 0.089279234 1051910
0.65229583 0.27862632 0.088678718 1379593
0.65939713 0.30693585 0.077408791 197377
0.66136497 0.30860436 0.078148365 131840
0.65629977 0.30510366 0.075640261 131585
0.65889525 0.3065753 0.076158524 197377
0.66129506 0.31037992 0.075877666 131840
0.66630042 0.31864411 0.072906911 328704
0.65116268 0.30289251 0.073511779 262657
0.65294695 0.30385941 0.074653149 197376
0.66038948 0.31256771 0.072808743 131840
0.64975917 0.30285832 0.073341131 197121
0.64772737 0.30280074 0.070022166 197120
0.69308066 0.2818408 0.12336552 131586
0.69499171 0.28426152 0.12005675 197121
0.69117332 0.28123063 0.1197201 131585
0.69245422 0.28247067 0.11960214 131584
0.693663 0.28510132 0.11948669 131585
0.68612057 0.27999496 0.11722159 592133
0.68879294 0.28115988 0.11747253 328964
0.70849174 0.30860376 0.11385638 657670
0.70839709 0.31099749 0.11298406 657925
0.71008211 0.31328225 0.1132012 1249806
0.71119601 0.31613371 0.1128692 1644045
0.71296012 0.31863189 0.11254597 7626555
0.67793328 0.27241218 0.11598802 920589
0.68261439 0.27859706 0.11557174 921352
0.68390584 0.28016612 0.11586821 1052683
0.68609488 0.28220659 0.11429453 1380873
0.68827724 0.28401506 0.11538047 328709
0.70839059 0.31443316 0.11117798 1381900
0.70985466 0.3166135 0.11129916 1776396
0.71112549 0.31959501 0.11091709 3484438
0.71218926 0.32113111 0.11246657 7823675
0.67594832 0.2728118 0.11512184 920075
0.67664415 0.272672 0.11294329 855062
0.67911392 0.27673894 0.11436623 1117959
0.68072999 0.27850991 0.11380029 1249798
0.68258345 0.2802659 0.11402726 1315592
0.70851028 0.31865513 0.1088798 2302733
0.70941597 0.32086855 0.10919237 3025169
0.71118176 0.32305643 0.10917532 7298356
0.67415261 0.27306259 0.11312759 920325
0.67606091 0.27512443 0.11302996 1117702
0.67700529 0.27723175 0.1122579 1512710
0.6788038 0.27947414 0.11354858 1249796
0.67983997 0.28114772 0.11344326 788994
0.68301225 0.2838735 0.1121816 1907988
0.69658327 0.30226564 0.10899055 197120
0.70630276 0.319114 0.10596496 1908492
0.70664901 0.32100448 0.10836411 2172684
0.67142069 0.27372023 0.11058164 986125
0.67373729 0.27571669 0.11095244 1380869
0.67701697 0.28136533 0.10895872 789251
0.67850745 0.28309566 0.10838664 525826
0.6806764 0.28501141 0.10895652 1578773
0.70550644 0.32305223 0.10352248 2236427
0.70707679 0.32517964 0.10339606 2366213
0.70790982 0.32717505 0.10320705 4467464
0.66859651 0.27215558 0.10930431 854279
0.6700536 0.2747404 0.10893834 1183748
0.67177725 0.27704012 0.10818613 1446919
0.67313957 0.2792325 0.10836428 1249544
0.67504352 0.28162241 0.10886967 657667
0.67642409 0.28420028 0.10807109 262913
0.67719972 0.28598055 0.10641456 328962
0.70338392 0.32164413 0.10239172 2304008
0.70358956 0.3238067 0.1034317 2107398
0.70460236 0.32590091 0.10315043 1448454
0.6655435 0.27242213 0.10680193 657668
0.66754299 0.27512538 0.10702157 1380869
0.66931474 0.27769345 0.10705554 1512201
0.67208844 0.28112769 0.10488671 855298
0.67267656 0.28284875 0.1049794 460802
0.67607772 0.28714824 0.10521239 657926
0.70019621 0.32252407 0.10007012 1976583
0.70158958 0.3245523 0.10037357 1843464
0.70210832 0.32694966 0.099807858 1253636
0.66274345 0.27244639 0.10460472 657678
0.66434455 0.27444094 0.10496521 1052166
0.66700161 0.27634934 0.10457838 1643782
0.6677134 0.28016335 0.10437739 986634
0.67008519 0.28108799 0.10489202 723970
0.6712631 0.28382292 0.10534531 131585
0.67321873 0.28578016 0.10344982 131585
0.67451048 0.28748021 0.10268235 460290
0.6948573 0.31947282 0.098705947 4616977
0.69668329 0.32118058 0.098841906 4221202
0.69826972 0.3235333 0.09851861 3298569
0.70005059 0.3256703 0.099295259 2176517
0.7012763 0.32816041 0.098536193 1645061
0.70310736 0.33050123 0.098205328 2169352
0.66142857 0.272695 0.10376716 723469
0.66283882 0.27566093 0.10324699 1643528
0.66426063 0.27760193 0.10260987 1512713
0.6658901 0.27934068 0.10320061 1183750
0.67167556 0.28757283 0.10201192 197634
0.6915378 0.31770149 0.097529769 3166473
0.69285649 0.31938165 0.097618759 4483610
0.69450164 0.32160091 0.097898364 4615719
0.69637406 0.32434979 0.097121775 3757843
0.69785494 0.32680708 0.097958148 2967559
0.65917832 0.27459806 0.10079658 1051932
0.6609053 0.27621385 0.10098481 1709834
0.66225219 0.277834 0.10194099 1118993
0.67047334 0.28859133 0.10015112 131585
0.69336098 0.32371503 0.093227983 3164684
0.69424546 0.32587904 0.094427466 3691281
0.69584441 0.32791534 0.096574724 3297040
0.65732384 0.27526492 0.099858463 2958340
0.65863168 0.27668306 0.099014759 3419930
0.66817546 0.29114258 0.096740365 131586
0.69101828 0.32393539 0.0927279 4285222
0.69214725 0.3263436 0.093167484 4153378
0.69359791 0.32826626 0.093883872 3955738
0.65491879 0.27764076 0.096895278 1577227
0.65639126 0.27744716 0.097085357 1051914
0.68891799 0.32553393 0.090963542 3956511
0.69029987 0.32766247 0.091438591 3758621
0.6529479 0.27809399 0.094584227 1445384
0.65360951 0.27868587 0.095147729 1183744
0.68552065 0.32446784 0.088908315 3891491
0.68631101 0.32626826 0.089607537 3891494
0.6883834 0.32896096 0.090337694 3956262
0.65068161 0.27789736 0.09211725 1182987
0.66150868 0.30886292 0.080518544 197632
0.65652239 0.30687881 0.080200732 263170
0.65825975 0.3078984 0.079749346 197632
0.65509498 0.30650392 0.077951133 262915
0.65004909 0.30257654 0.07511574 328448
0.69222558 0.28097174 0.12342358 131584
0.67638987 0.27373463 0.11810309 592137
0.70944363 0.3186394 0.11257559 1053192
0.70965838 0.32081687 0.11264676 1316109
0.71053553 0.32304841 0.11255735 4471076
0.67424774 0.27368307 0.116422 855314
0.67778599 0.27816421 0.11634088 526598
0.67926973 0.2799404 0.11638236 197379
0.70738149 0.32240731 0.11190474 1053965
0.70860565 0.32453233 0.11059111 2235923
0.67177069 0.27385342 0.1151666 855304
0.67370725 0.27616978 0.11433405 1117703
0.6755746 0.27824897 0.11485517 986631
0.67710829 0.28081775 0.11415255 591874
0.67814833 0.28294337 0.11316639 328705
0.70632493 0.32312042 0.10849667 1712134
0.70791656 0.32489526 0.10914481 3024657
0.70883185 0.32722071 0.10912156 6245674
0.67003429 0.27486753 0.11314404 920586
0.67207402 0.27711043 0.11307418 1446919
0.67403227 0.27795291 0.11356038 1512713
0.67702973 0.28499731 0.11175931 263168
0.70504642 0.32441407 0.10832202 1515271
0.70441973 0.32636625 0.10749936 1646344
0.70700115 0.32888353 0.10799402 4932129
0.66632456 0.27335715 0.11154878 789006
0.66856134 0.27589589 0.11133957 1315075
0.669783 0.2784251 0.11119056 1381382
0.67180228 0.28054997 0.11040175 723715
0.67311609 0.28339016 0.1104908 197377
0.67457098 0.28565884 0.10917008 197376
0.70295203 0.3249962 0.10538948 2372864
0.70418382 0.32700393 0.10415471 1777417
0.70481676 0.32992738 0.10436052 3548684
0.66420805 0.27407119 0.10881823 723722
0.66628134 0.27572122 0.10935509 1446659
0.66797423 0.27841055 0.10885346 1709316
0.67496502 0.28819591 0.10700452 197632
0.70088983 0.32616672 0.10148853 2700296
0.70172453 0.32869464 0.10299802 2042119
0.66168547 0.27375394 0.10747629 592648
0.66369343 0.27577758 0.10737586 1446405
0.66528499 0.27815744 0.10670257 1644036
0.66846454 0.28246963 0.10703003 263170
0.66981488 0.28518546 0.10667723 131584
0.67112601 0.28637189 0.10548222 131584
0.69691706 0.32572433 0.099559546 4353813
0.69865358 0.32765961 0.10006744 2571015
0.69939828 0.32952374 0.10039407 2043656
0.70150065 0.33189023 0.099187851 2103561
0.65962315 0.27463308 0.10498255 395777
0.66091824 0.27642989 0.10569173 1446405
0.6628958 0.27917427 0.10455912 1315336
0.66457272 0.28047189 0.10522109 986888
0.69045544 0.31927389 0.098322511 4682001
0.69132328 0.32049388 0.099191666 4748821
0.69273603 0.32328328 0.099352241 4485921
0.69468552 0.3257913 0.099068105 4617252
0.69638872 0.32813209 0.098939896 3693072
0.69731015 0.33027878 0.099633813 2374407
0.69987094 0.33290467 0.099583328 2037771
0.65693069 0.27608633 0.10330176 1183756
0.65895808 0.27707338 0.10314083 2038795
0.66067147 0.27898878 0.10381007 1316362
0.6884926 0.32006472 0.097782612 4155163
0.69015741 0.32179928 0.098363698 4747806
0.69096315 0.32434517 0.097796738 4681511
0.69259036 0.32664561 0.098017454 4944685
0.69456035 0.32928586 0.097354233 3758356
0.65594697 0.27652311 0.10091007 3747596
0.65567541 0.27816576 0.10134906 1380360
0.6917665 0.3287425 0.093497872 4548137
0.69213521 0.33107683 0.094498634 3890202
0.65449393 0.27755004 0.10001671 2563850
0.65405041 0.27895805 0.097795665 986368
0.68699718 0.32655317 0.092726946 4351525
0.68898124 0.32890245 0.09273231 4548397
0.69003522 0.33110631 0.09316045 4614448
0.6486733 0.27764121 0.097746313 1512201
0.65115881 0.27905369 0.096960664 1380099
0.65232778 0.28037041 0.096718788 1052416
0.68534571 0.32738021 0.091259003 4285734
0.68704802 0.33032098 0.089992225 4022314
0.68835676 0.33220446 0.090786695 3759137
0.64908433 0.2769641 0.095557094 1379859
0.65001392 0.27842706 0.095783055 1971211
0.68217832 0.32615674 0.089449108 4023336
0.68353164 0.32862806 0.089501739 4088618
0.68490183 0.33098394 0.089618027 4482610
0.68609571 0.33314365 0.089797676 4022316
0.67701173 0.32629758 0.087587893 4743217
0.679555 0.32674456 0.089025617 4417069
0.67485821 0.32685494 0.086083949 5070124
0.65534282 0.30747938 0.081460834 525829
0.65673864 0.30763072 0.081552744 328961
0.67358446 0.27364197 0.12115288 722442
0.67511165 0.27489471 0.1203745 394500
0.67282057 0.27403757 0.11817527 723729
0.67488742 0.27927893 0.11862546 262914
0.67710227 0.281259 0.11784798 131328
0.6699717 0.27506983 0.11600578 657930
0.67233688 0.27747631 0.11692047 920583
0.67423725 0.27958968 0.1170553 591873
0.6759429 0.28198969 0.11684555 328705
0.70635068 0.32649869 0.11070251 1250056
0.70780158 0.32889295 0.11099941 4271638
0.66795695 0.27649945 0.11498237 723724
0.67065632 0.277551 0.11523134 1315333
0.67109066 0.28225279 0.11427283 591873
0.67618906 0.28554779 0.11399162 197632
0.7048558 0.32803053 0.10857987 1974027
0.70627928 0.33003941 0.10889423 4799520
0.70658267 0.33240795 0.1075654 8151859
0.66504508 0.27467024 0.11367285 789764
0.66699719 0.27714178 0.1132158 1380867
0.66880071 0.28013486 0.11337131 920835
0.6705457 0.28140098 0.11285442 526081
0.67196763 0.28391778 0.11314368 460288
0.67312503 0.28634328 0.1119979 197632
0.70250565 0.32930589 0.10670322 856582
0.70411372 0.33112067 0.10642993 3090703
0.70518017 0.33355176 0.10756046 6640425
0.6627872 0.27595711 0.11067045 986629
0.66497457 0.27689239 0.11170506 1512708
0.6676212 0.28350967 0.11016929 263168
0.66898268 0.28499326 0.11000407 328960
0.70101339 0.33046234 0.10474551 1318407
0.70163679 0.33210671 0.10435259 2236170
0.70299625 0.33383641 0.10419387 5849108
0.65914512 0.27575776 0.1089232 724739
0.6612078 0.27667534 0.10948497 1315076
0.66316539 0.28098673 0.10844892 855301
0.66841394 0.2838597 0.10854107 131841
0.6686275 0.28662348 0.10939586 263424
0.69894361 0.33110362 0.10272717 1649930
0.70034659 0.33258909 0.1037336 1053448
0.65758228 0.2757771 0.10749328 987144
0.65897679 0.27707487 0.10800463 1577988
0.6613363 0.28042907 0.10687339 1117962
0.69454646 0.33001703 0.099444926 4354840
0.69674003 0.33182487 0.10058743 2441484
0.69804293 0.33417472 0.10036772 1907465
0.69883204 0.33582571 0.10018867 3088393
0.65575892 0.27722153 0.1049822 2300941
0.65812755 0.27703857 0.10578489 1774852
0.65946829 0.2796509 0.1047833 1316372
0.68815809 0.32346654 0.099109948 4946203
0.68945134 0.32541662 0.099417925 4880672
0.69103825 0.32804233 0.099020958 5077549
0.69267255 0.33068967 0.098865509 4486432
0.69448209 0.33277822 0.099179864 3231766
0.65408206 0.27829677 0.10340989 2497802
0.68592763 0.32568327 0.097945452 5273885
0.68776548 0.32684574 0.098115921 5010731
0.68988669 0.32904303 0.098271549 5010993
0.69083852 0.33148691 0.098177791 4813866
0.69209886 0.33363888 0.097197235 4350752
0.65208876 0.27892751 0.1017459 3614990
0.68480045 0.32569915 0.097251654 4879379
0.68774229 0.33063608 0.093399227 4877614
0.68974543 0.33288652 0.094112754 4219943
0.69062853 0.3344298 0.095213771 4086824
0.64789128 0.27857172 0.098951519 2233354
0.64967209 0.27972698 0.099759817 2103563
0.65101564 0.28160298 0.099058867 986117
0.68365717 0.32896537 0.093008161 4811815
0.68585503 0.33087468 0.093731225 4746537
0.68752295 0.33395404 0.09289825 4154408
0.6881876 0.33550066 0.093803167 4219175
0.68152189 0.32948613 0.091520607 4745259
0.6835041 0.33242369 0.089651108 4285996
0.68494171 0.33511871 0.090688586 4088363
0.67831075 0.32832897 0.089318335 4416811
0.67992318 0.33067587 0.089689314 4285995
0.68175805 0.3333894 0.089911163 4352042
0.68265998 0.33522928 0.090563238 4548654
0.67434824 0.32767585 0.087417603 5202738
0.6764065 0.32927787 0.089096785 4940845
0.67416537 0.32941556 0.087167263 5202483
0.67125356 0.27292538 0.12363529 592133
0.67289633 0.27395463 0.12396866 591618
0.67401659 0.27550632 0.12413949 591616
0.672212 0.27883512 0.12120372 920066
0.67408234 0.28065836 0.12096632 788738
0.67596889 0.28273004 0.12028033 460032
0.67762375 0.2846739 0.11877465 263168
0.67082596 0.27830666 0.11940736 920068
0.67337406 0.28010398 0.11936289 854529
0.67582315 0.28356692 0.11856896 460036
0.707026 0.33311376 0.11174703 10123317
0.66706538 0.27765334 0.11723924 920584
0.66894519 0.27964509 0.11694503 1249284
0.67007989 0.28263313 0.11664903 1051907
0.6715399 0.28502735 0.11626369 854529
0.67299414 0.28661278 0.11473882 459522
0.70472145 0.33164498 0.10978162 1445895
0.70567262 0.33373076 0.11047763 6439960
0.66348207 0.2759037 0.11572409 1117197
0.66526902 0.27827886 0.1151998 1446406
0.66833234 0.28042907 0.11575794 1117954
0.66706574 0.28448543 0.11493248 723968
0.67059469 0.28569013 0.11467421 591873
0.70254421 0.33271763 0.10836965 1907209
0.70354939 0.33485842 0.10858142 4338965
0.66128123 0.27737981 0.11324012 1183494
0.6626035 0.27891389 0.11430454 1709832
0.66715777 0.28402758 0.11302733 592128
0.6685468 0.28598788 0.11264694 461057
0.69916111 0.33208936 0.10526133 399874
0.70044124 0.33324772 0.10741282 1315848
0.7019496 0.33526635 0.10794485 3548675
0.65751028 0.2770282 0.11109662 855309
0.65943217 0.2780942 0.11186445 1446918
0.69833875 0.33419168 0.10482281 987397
0.6999805 0.33627182 0.10518587 4073483
0.655967 0.2765227 0.10996282 1052170
0.65734148 0.27846205 0.10977638 1709317
0.69628966 0.33360794 0.10263252 663811
0.69644749 0.33570307 0.10242832 1184517
0.69763112 0.33807909 0.10187912 5848337
0.65455723 0.27764204 0.10746807 3024400
0.65458345 0.27990156 0.10795009 1774599
0.68921638 0.33004984 0.10070097 5406231
0.69040048 0.33206999 0.10019797 4814101
0.6930185 0.33484602 0.10011846 1715982
0.69464266 0.33630443 0.10130107 1185799
0.6954664 0.33884081 0.10194975 3023111
0.65294433 0.27930328 0.10717422 1970953
0.68361503 0.32645828 0.099425435 6716455
0.68584514 0.32791042 0.099807382 5667102
0.68796515 0.33015209 0.099530876 5339427
0.68967849 0.33304691 0.099518001 4877602
0.69107533 0.33549565 0.098978579 2111509
0.69246447 0.3370645 0.10003763 724229
0.65112364 0.28002518 0.10442346 2956803
0.682477 0.32611054 0.098038018 6057771
0.68505836 0.32679999 0.097722411 5272877
0.68903118 0.33723837 0.096244693 925707
0.68906379 0.33877015 0.096489608 67584
0.64923382 0.28059161 0.10151148 3154960
0.68152338 0.33064085 0.095015824 6255666
0.68396598 0.3328096 0.095089614 6060086
0.68571258 0.33534712 0.094991624 6124845
0.68717879 0.33732048 0.094702959 2834959
0.67938375 0.32924527 0.094444871 7568959
0.68482995 0.33810964 0.092356801 2506256
0.67783618 0.3324824 0.091210723 6321722
0.67988849 0.33474818 0.090852559 5994041
0.68192351 0.33715236 0.091019273 5729579
0.68284822 0.33880585 0.091931641 4675099
0.67483795 0.33094573 0.090099216 7569224
0.67193711 0.32985729 0.088621259 7568706
0.64537299 0.31045175 0.081757843 1184269
0.67045116 0.27330762 0.12827504 854528
0.6722877 0.2750724 0.12756878 985862
0.67026639 0.27383626 0.12531334 657668
0.67255908 0.2793538 0.12644899 1183234
0.67327917 0.28041041 0.12617517 1182979
0.66877145 0.2776556 0.12377608 1577479
0.6711731 0.27910709 0.12369651 1249028
0.67302048 0.28092867 0.1233741 1117699
0.67496061 0.28308636 0.12364876 657666
0.66811931 0.2782903 0.12186313 1249029
0.66898578 0.27950597 0.12138867 1314563
0.66902137 0.28312206 0.12109542 1315073
0.66637111 0.27880692 0.11908561 1249285
0.66834152 0.28155726 0.119636 1380354
0.66989052 0.28357279 0.11922878 1117698
0.67020714 0.28522265 0.11953771 986370
0.70515949 0.3365643 0.11058521 11110974
0.66249132 0.27754205 0.11766928 920580
0.66389048 0.27971974 0.11741191 1379846
0.66609156 0.28509468 0.11669374 657923
0.70137084 0.33459914 0.10967332 1577731
0.70265985 0.33633554 0.11106372 5191700
0.65988183 0.27877074 0.11562097 920323
0.66150153 0.28104562 0.11588901 1511688
0.66553026 0.28453147 0.11565554 789250
0.66762406 0.28592157 0.11485809 592385
0.69911832 0.33564383 0.10892504 1447172
0.70065784 0.33727247 0.10813344 4272397
0.65559423 0.27788842 0.11332119 789516
0.65794945 0.2795631 0.11375314 987141
0.65957022 0.28095353 0.11382073 1381132
0.69685042 0.33638483 0.10703129 1381636
0.69781828 0.33725291 0.10507494 2104065
0.65339243 0.27632427 0.1131084 789002
0.65438318 0.27703828 0.11255288 789002
0.65604746 0.28066191 0.11225063 1249284
0.69295537 0.33658963 0.10429871 657415
0.69489241 0.33694676 0.104518 1184260
0.69610965 0.34018046 0.10400862 3286531
0.65348405 0.28128618 0.11007297 1380105
0.68529499 0.32912004 0.10369086 11121745
0.68730247 0.33100682 0.10338676 10661464
0.68889147 0.33366206 0.10344088 8160806
0.69161999 0.33606678 0.10286522 461058
0.69310248 0.33800948 0.1027016 1512965
0.69471759 0.34004402 0.10259271 4141067
0.65111244 0.28100592 0.10814762 2694151
0.68238616 0.327245 0.10223049 10660429
0.6849671 0.3287245 0.10189605 8491580
0.68714297 0.33084828 0.10156649 7900989
0.68846411 0.33385015 0.10162461 7372841
0.68998307 0.33581758 0.10131794 2043140
0.69093776 0.33894163 0.10090005 1184259
0.69330889 0.34171668 0.1014204 5586194
0.65041834 0.28079203 0.10620308 3286274
0.67965591 0.32629144 0.10107863 10265143
0.68137848 0.32700068 0.10040367 9475660
0.6834532 0.33379799 0.099560738 10923365
0.68496573 0.33569783 0.099164665 10462291
0.68661332 0.33841264 0.098392129 4804125
0.68874478 0.3394531 0.098742247 658689
0.67633498 0.32882729 0.098271608 9343048
0.6779654 0.32965714 0.097763777 9935177
0.68045354 0.33103934 0.098091066 9870162
0.68248022 0.33271641 0.09775871 9608283
0.6849854 0.33624509 0.097311199 8949573
0.68636203 0.33904386 0.096926451 2238728
0.67584509 0.32872733 0.095757663 8817215
0.67772484 0.32939523 0.095810294 9409092
0.67759073 0.33322254 0.096439958 10266203
0.67965555 0.3358717 0.09580493 10989160
0.68312222 0.33978337 0.094756365 5199901
0.67484981 0.33171445 0.094203889 9936473
0.67710936 0.33323908 0.093685985 9476698
0.67909759 0.33532751 0.093588471 9871457
0.68036515 0.33832675 0.093169749 9016138
0.68161213 0.33969569 0.093246937 7173432
0.67130154 0.33065081 0.092071593 8883790
0.67306542 0.33104384 0.091726184 9344084
0.66931558 0.33055502 0.090404868 8357700
0.66825092 0.27207774 0.12993479 1116946
0.66967702 0.27354699 0.13033432 985610
0.67132008 0.27596855 0.13021338 1182736
0.67247128 0.27827817 0.12955391 1249030
0.66888511 0.27524012 0.12994593 1511173
0.6696834 0.27706724 0.12797606 1511939
0.67177248 0.27935028 0.12795752 1314819
0.67250645 0.28108543 0.12782437 1380614
0.66774577 0.27622476 0.12669599 1775620
0.66849983 0.27734357 0.12613064 1840646
0.67004114 0.27920705 0.12609029 1643272
0.66768301 0.28221357 0.12355292 1446406
0.6687485 0.28391194 0.12328702 1249029
0.66429454 0.28019571 0.12100124 2037509
0.66470575 0.2844747 0.11945808 920577
0.66438854 0.28571504 0.11951435 789251
0.70088184 0.33748293 0.11153531 4665109
0.66056824 0.28146777 0.11658514 1643022
0.66446435 0.28692317 0.11724252 592131
0.69740987 0.33758831 0.10942131 1710086
0.69919229 0.33866704 0.11060226 2758402
0.69933581 0.34139466 0.11045778 8938295
0.65466899 0.27946264 0.11499023 658944
0.65627742 0.28102773 0.11488026 658190
0.65787989 0.28301391 0.11510134 854281
0.65903461 0.28545052 0.11487585 1380111
0.69545507 0.33799076 0.10835338 1710084
0.69711995 0.33950603 0.10903352 2893062
0.65274167 0.27944988 0.11406726 920835
0.65476382 0.28207499 0.11398077 1051655
0.6558755 0.28426689 0.11356026 1117697
0.68606925 0.32911587 0.10847694 13227093
0.68836606 0.33176911 0.10784692 12896859
0.68907559 0.33415514 0.10815573 9408560
0.69157839 0.33666182 0.10707647 1248514
0.69329512 0.33812839 0.10719043 1841414
0.69476646 0.34064305 0.10863346 2960137
0.65110916 0.27951974 0.11249542 1183495
0.65265369 0.28352541 0.1113261 1380105
0.65392262 0.28515992 0.11291748 1182725
0.68283123 0.327793 0.10641289 12239183
0.68506372 0.32954305 0.10624647 12305241
0.68695903 0.33132628 0.10601068 12305248
0.688609 0.33418244 0.10540581 9212466
0.69007283 0.33590829 0.10546428 3815944
0.69182038 0.33965707 0.10408366 1973507
0.69278228 0.34210181 0.10429716 3220998
0.65047044 0.28369966 0.10976267 2364935
0.67969364 0.32667962 0.10478377 10857530
0.68132597 0.327728 0.10418212 11185747
0.68397194 0.32905748 0.1039781 10857302
0.6849944 0.33604255 0.10354674 11580511
0.68797022 0.33913231 0.10216838 2566407
0.68946278 0.34052426 0.10296518 1579011
0.69078457 0.34264636 0.10232544 3615496
0.64928281 0.28217515 0.10811555 3680771
0.64833552 0.2847231 0.10818887 3877890
0.6780355 0.3269245 0.1031062 10198600
0.67857027 0.33035487 0.10179085 10987344
0.68100202 0.33174789 0.10213965 11251292
0.68300366 0.33376521 0.10244304 11777895
0.68486083 0.33555216 0.10181427 11317344
0.68587208 0.33858258 0.10121214 7830063
0.68759394 0.34177285 0.10094547 1842443
0.68894064 0.34382349 0.10211623 3220482
0.64690614 0.28590703 0.10640562 4141312
0.67741644 0.33024529 0.10053194 10395726
0.67843223 0.33429086 0.099853277 11515242
0.67925686 0.33559626 0.10019362 12173430
0.68109852 0.33857059 0.09898448 10791773
0.68413997 0.34054822 0.099065959 3949589
0.68562436 0.34143776 0.099454343 1054214
0.67552233 0.331745 0.098628163 11054686
0.6775896 0.33352906 0.097911716 11054950
0.67935568 0.33583373 0.098083138 11647083
0.68105245 0.33851105 0.096953928 9936978
0.6827327 0.3401171 0.097892523 6910512
0.67276525 0.33059204 0.097683787 9672531
0.67464769 0.3315742 0.096363068 10462041
0.66816652 0.3299703 0.094785988 8620605
0.67079961 0.33064607 0.094482064 9080648
0.66720051 0.32966357 0.093533218 7765053
0.66737318 0.27247134 0.13168323 1445650
0.66852129 0.27396184 0.13210928 919816
0.67012757 0.27667403 0.13221473 1117449
0.67171592 0.278427 0.13098991 1445643
0.66764641 0.27647176 0.12910414 2103562
0.6693213 0.2786237 0.13113046 1578500
0.67034632 0.27923039 0.12990427 1643785
0.66737735 0.28224742 0.12775826 1511684
0.66417515 0.28470001 0.12322927 789252
0.66481984 0.2857829 0.12177449 789511
0.69744688 0.34189329 0.11188805 6898706
0.65600044 0.28452948 0.11732429 1904146
0.68474329 0.32828826 0.1127885 13621326
0.68651915 0.32942539 0.11244887 13950030
0.68829811 0.33118257 0.1118046 14015328
0.6897406 0.3341257 0.11181456 10132005
0.69100261 0.33660322 0.11174124 3222275
0.69360948 0.33897847 0.11042476 1840906
0.69573647 0.34089291 0.11129624 3022344
0.65284193 0.28063798 0.11583453 920832
0.65337312 0.28321791 0.1154967 920834
0.68113494 0.32699925 0.11096126 11712832
0.68305385 0.32787347 0.11073321 12765776
0.68498266 0.32936883 0.11031121 13094226
0.68682659 0.33172348 0.11049664 13159530
0.68835801 0.33461934 0.10980356 11448657
0.69016266 0.33709419 0.1092726 4275721
0.69197059 0.3394894 0.10877067 2236423
0.69363546 0.34213746 0.10931468 3747082
0.64982688 0.28280067 0.11318356 1182985
0.65100437 0.28386652 0.11500603 1051906
0.67989254 0.32666737 0.10929132 11120448
0.6814307 0.32804531 0.10885882 11580506
0.68407023 0.32938826 0.10814232 12238681
0.6842252 0.33488989 0.10717332 12830063
0.69014615 0.34401277 0.10634482 3023619
0.6516304 0.28690195 0.11200476 986115
0.67818797 0.32662916 0.10723919 10725953
0.67832303 0.33027819 0.10665119 11053139
0.68126273 0.3321597 0.10613602 11843167
0.68316174 0.33444312 0.10589075 12632681
0.68504119 0.33698022 0.10569906 11975009
0.6863724 0.33982375 0.1047886 6645797
0.68813807 0.34184504 0.10529166 2237447
0.6894713 0.34343207 0.10579932 2697221
0.64775503 0.28665617 0.11023188 2693893
0.67589504 0.32953411 0.10444313 9868872
