# .PCD v0.7 - Point Cloud Data file format
VERSION 0.7
FIELDS x y z rgba
SIZE 4 4 4 4
TYPE F F F U
COUNT 1 1 1 1
WIDTH 1125
HEIGHT 1
VIEWPOINT 0 0 0 1 0 0 0
POINTS 1125
DATA ascii
0.73337829 0.3510479 0.005291624 10124884
0.73455387 0.35486755 0.0053966707 9993558
0.73662853 0.35578033 0.0062643941 10125142
0.73707241 0.35903391 0.0065246206 9927505
0.73893476 0.36040768 0.0050024386 10125143
0.74127555 0.36436898 0.0053186198 10190680
0.74395502 0.36900324 0.00575432 10125145
0.74776047 0.37399992 0.0068077082 9993816
0.7487396 0.37756637 0.0054284707 9993816
0.7504195 0.37781879 0.0041738027 9993560
0.7524389 0.38190168 0.005222572 9404005
0.75327581 0.384716 0.0054610632 9797469
0.75522494 0.38625205 0.0042457539 9928022
0.75668347 0.38952753 0.0063828216 9667169
0.75851816 0.39344865 0.0061845472 9535331
0.75994313 0.39509195 0.0041869222 9796440
0.76135665 0.39633352 0.0037387498 9862234
0.72112054 0.3339144 0.0030381288 9730388
0.72148269 0.33733538 0.0028797395 9664336
0.72367632 0.33944759 0.0031650811 9861715
0.72554278 0.34199697 0.0031161588 9927509
0.72686303 0.346295 0.0029424399 9993300
0.72873825 0.34701681 0.0032470811 10124886
0.7300508 0.35032102 0.0036205379 10059093
0.72966921 0.35361439 0.0034848251 9861714
0.73247081 0.35435095 0.0038292669 10059094
0.73378706 0.35824004 0.0036478199 10059350
0.73637897 0.35939983 0.0036890884 10125144
0.73708892 0.36289996 0.0036974479 9928023
0.73901528 0.36547121 0.0037530018 10059609
0.74119174 0.36777002 0.0038657 10256474
0.74247491 0.371445 0.0040351055 10125144
0.7451123 0.37269402 0.0038642273 10125143
0.745628 0.37607911 0.0039122682 9993815
0.74818951 0.38013902 0.004081443 10059096
0.75039458 0.3825382 0.0043719737 9993558
0.75170273 0.38461071 0.0049340827 9600610
0.7529875 0.38869467 0.0041559585 9928282
0.75555754 0.39004397 0.0038832889 9928026
0.75681514 0.39220583 0.0039534243 9862233
0.75807756 0.39436477 0.0041649295 9862231
0.75971425 0.39764512 0.0046685808 9862232
0.76155734 0.40108955 0.0038239383 9928022
0.76246381 0.40364468 0.0036304933 10060122
0.71885449 0.33631578 0.0028777251 9598544
0.72129917 0.33997765 0.0031492384 9598544
0.72321421 0.34443679 0.0028879067 9664080
0.7250123 0.34532347 0.0029152583 9796179
0.72717696 0.34974641 0.0031401308 9861714
0.72475511 0.33714113 0.0079315808 9141343
0.73034132 0.34626794 0.0084151831 9338983
0.7309528 0.34853676 0.0092876162 9402194
0.73263854 0.35054925 0.0079960153 9336913
0.73487639 0.35333979 0.0082576293 9536358
0.73690051 0.3562032 0.0083155828 9796428
0.73766828 0.35878757 0.0097018778 9141861
0.73958021 0.36124989 0.009549398 9469792
0.74133497 0.36298594 0.0092644431 9601892
0.74299735 0.36668408 0.0089214323 9798237
0.74505049 0.36956427 0.0084763393 9929316
0.74555212 0.37190101 0.0093654627 9601123
0.74750185 0.37392783 0.0089557134 9666141
0.74941415 0.37633157 0.009150099 9797209
0.75063813 0.37953275 0.0088227578 9732187
0.75275803 0.38237694 0.0094196359 9862485
0.75423217 0.3839933 0.0094720777 9862485
0.75492716 0.38667917 0.0092528611 9796950
0.7579084 0.38865671 0.0094737187 9796948
0.75999945 0.39047927 0.0096154902 9862739
0.75922793 0.39430732 0.0091846641 9928276
0.7616573 0.39697936 0.0094730053 9928277
0.72028488 0.33426064 0.0067763049 9137989
0.72203445 0.33720061 0.0073166448 9073487
0.72372293 0.33991858 0.007100048 9139792
0.72561967 0.34283689 0.0067858966 9402192
0.72713161 0.34413618 0.0071022217 9336395
0.72858059 0.34709132 0.0074466406 9270349
0.7299819 0.34970406 0.0080454852 9204555
0.73168367 0.3525221 0.0081901392 9139536
0.73297864 0.35540703 0.0079367664 9402707
0.73462152 0.35761213 0.0076528918 9468243
0.73702216 0.35983196 0.0082754735 9730125
0.73731226 0.36327744 0.0077307643 9730383
0.73921716 0.36503902 0.0079600802 9665881
0.74102604 0.36729041 0.0076479223 9535070
0.74203753 0.36989978 0.008566482 9863518
0.74454081 0.37223005 0.0076604169 9993813
0.74532068 0.37533638 0.0090740668 9600862
0.74705666 0.37770995 0.0079410039 9731935
0.74819112 0.38065276 0.0074878898 9601638
0.75016463 0.38236195 0.0076490934 9731933
0.75231236 0.38605908 0.006863961 9535591
0.75423437 0.38760489 0.0075073023 9732702
0.75508159 0.39083463 0.0079598436 9732188
0.75701642 0.39318466 0.0078575537 9928278
0.75866264 0.39557528 0.0072586481 9666141
0.76035601 0.39817405 0.0079123098 9928024
0.76221013 0.40051511 0.0076828375 9862488
0.71778864 0.33658814 0.0062212488 9072195
0.72005516 0.33757743 0.0066121332 9071940
0.7216869 0.34060565 0.0067808237 9204818
0.72331232 0.34344104 0.0066865431 9204812
0.72441095 0.34534845 0.0067218239 9335367
0.72634435 0.34736574 0.0062357103 9336400
0.72734678 0.35062647 0.0064773294 9269832
0.72988105 0.35364369 0.005907753 9598544
0.73116744 0.35616067 0.0063494998 9664336
0.73245281 0.35989329 0.0066967951 9533006
0.73504394 0.36140606 0.006497236 9795921
0.7369563 0.36598465 0.0063798139 9861715
0.73887312 0.36905047 0.0055960547 9993558
0.7406587 0.37127709 0.0054139066 10059351
0.74272388 0.37438959 0.0054280544 10059351
0.74451476 0.37659496 0.0062595233 9993816
0.74521154 0.37959298 0.0057987235 9994073
0.74612856 0.38188523 0.0045383736 10059352
0.74885482 0.38396311 0.0057132384 9731677
0.75001007 0.38607115 0.0060926042 9731680
0.75112045 0.3893244 0.0066723619 9666401
0.75367421 0.39179802 0.004475872 9928026
0.75484198 0.39401945 0.0072393301 9666912
0.75605464 0.39735222 0.0050338218 9731420
0.75718027 0.4005661 0.0052702921 9666657
0.75909913 0.40125868 0.0041929609 9861976
0.76118845 0.40478975 0.0057476563 9730901
0.76299834 0.40719455 0.0036810571 9993816
0.7639091 0.4098075 0.004620811 10059608
0.71501172 0.33539966 0.0022109705 9466958
0.7170366 0.33567619 0.0027142959 9598544
0.71858221 0.33895397 0.0030793976 9532493
0.71998292 0.34255582 0.0031725999 9269835
0.72113544 0.34454763 0.0032430226 9466958
0.72285962 0.34741983 0.0029928754 9664336
0.72554183 0.34899411 0.0030390895 9795664
0.72706306 0.35234606 0.0036895433 9664078
0.72887218 0.35698798 0.0031875444 9598544
0.73024875 0.35925311 0.0035506107 9664336
0.73343641 0.3615731 0.0036531929 9796178
0.73357975 0.36518818 0.003364464 9730130
0.73587388 0.36753213 0.0036155432 9861973
0.73711318 0.3692354 0.0040313588 9993558
0.73841971 0.37324801 0.0037818367 9862230
0.74067348 0.37532306 0.004064525 9993815
0.74278736 0.37771943 0.0042165341 10125145
0.74338031 0.38088065 0.0044345842 9993816
0.74492747 0.38450986 0.0046294765 10059353
0.74665189 0.38626426 0.0040392429 10059609
0.74862415 0.38645586 0.0045426637 10059608
0.75003654 0.39028576 0.0045337258 9994074
0.75170863 0.39383775 0.0048645716 9994074
0.75343955 0.39476576 0.0046826266 9928024
0.75406104 0.39802715 0.0050785462 10059353
0.75712466 0.40301013 0.0046471739 9993561
0.75986904 0.40478069 0.0043058763 9796694
0.76053834 0.40812996 0.0045603849 9796182
0.7623266 0.4091402 0.0045197243 9730646
0.76347059 0.41401669 0.0035846431 10125660
0.7147491 0.33797327 0.0025880125 9401165
0.71614516 0.34163705 0.0026471531 9269577
0.71804029 0.34199336 0.0028733877 9269834
0.71852219 0.34545842 0.0029240046 9269579
0.72240788 0.35093284 0.0028990551 9401420
0.72406101 0.35226193 0.002869034 9532493
0.72627515 0.3559489 0.0032195661 9532494
0.73093754 0.36400086 0.0035012974 9532750
0.72842717 0.34757334 0.010769321 9008987
0.74078202 0.36756325 0.010456527 9140326
0.7559939 0.39343053 0.011293439 7895652
0.71925324 0.33513799 0.0093518365 8615774
0.72950202 0.35243189 0.0085625481 8877398
0.73101795 0.35608032 0.0087235272 8811088
0.73320615 0.35743177 0.0091713183 8615774
0.73424852 0.36146685 0.0090302322 8942421
0.73696285 0.36251676 0.0097800521 9142118
0.73722076 0.36635554 0.0098808855 9074780
0.73887902 0.3679938 0.0091136266 9468248
0.7410965 0.37085608 0.0097783171 9207146
0.74211115 0.37402919 0.0088915825 9469022
0.74410743 0.37479329 0.0089982422 9993559
0.74505568 0.37871408 0.0088297836 9665884
0.74779654 0.38121298 0.0091750417 9928019
0.74985045 0.38699678 0.0085808076 9666656
0.75231642 0.38858816 0.0091299694 9993815
0.75519466 0.3948622 0.0090127904 9994325
0.75721806 0.39701986 0.0085971905 9928280
0.75789827 0.39915812 0.0095531195 9993814
0.76003236 0.40180582 0.009019427 9993815
0.76145077 0.404183 0.0099966135 9731673
0.71646076 0.33709788 0.0072900578 8482379
0.71817029 0.33972371 0.0067170616 8809023
0.72028834 0.34209836 0.0069511947 8810054
0.72103858 0.34431908 0.006956954 8875847
0.72286141 0.34775826 0.0072569828 8744003
0.72444713 0.34964463 0.0074859126 8875847
0.72661453 0.35217977 0.0082773603 8612942
0.72749174 0.35470977 0.0080232304 8744268
0.72895652 0.35684487 0.0078878291 8875590
0.7313177 0.35962704 0.0077736387 9073228
0.73173678 0.36327809 0.0080246357 9072449
0.73461884 0.36511093 0.008033799 9336398
0.73614067 0.36766842 0.0085273404 9467464
0.7367177 0.36954439 0.0075887972 9664590
0.73911017 0.37171111 0.0087531125 9599310
0.73997492 0.37472254 0.0081452895 9468762
0.74239302 0.37789881 0.0080969976 9534811
0.74295384 0.38114977 0.0078508127 9141611
0.74507833 0.38251087 0.0081416983 9534816
0.74639344 0.38505241 0.0077750599 9600100
0.74813122 0.38688362 0.0079996018 9797214
0.74961758 0.39009437 0.0079762302 9732446
0.75192076 0.39290741 0.0078468146 9863518
0.75301951 0.39601099 0.0083770184 10059865
0.75421631 0.39812353 0.0079057738 9732446
0.75677764 0.40099573 0.0079457927 10059610
0.75788426 0.40307391 0.0076656505 9471338
0.75877947 0.40640071 0.0076998477 9666143
0.76127636 0.40814838 0.0077201966 9797723
0.76175565 0.4106741 0.007682147 9928279
0.76436085 0.41235414 0.0073438734 9730900
0.7134307 0.33567765 0.0057370188 8809025
0.71465677 0.33791852 0.0063228561 8743231
0.71662724 0.34016749 0.0057869311 8679762
0.71811801 0.34275031 0.0063527115 8744261
0.71964097 0.34694678 0.0063472041 8811082
0.72151899 0.34749004 0.0064006215 8876618
0.72239608 0.35035676 0.0058957404 9138248
0.72421211 0.35287869 0.0060249073 9072711
0.7260133 0.35564512 0.0061592516 9072200
0.72804803 0.35834569 0.0065320944 9007439
0.72870338 0.36115476 0.0068120528 8875335
0.73097229 0.36304292 0.0063121179 9138505
0.73210484 0.36534089 0.0063537229 9335884
0.73401475 0.367746 0.0064774998 9533007
0.73535222 0.37203148 0.0050291913 9598801
0.73767936 0.37335673 0.0061440794 9730642
0.73833954 0.37647679 0.0065713567 9664594
0.74076605 0.37879565 0.005508373 9862229
0.74231541 0.38124958 0.0070958249 9796949
0.74312437 0.38374412 0.0046754559 9993560
0.74736059 0.38911915 0.0045658723 9994072
0.74796277 0.39250961 0.0046111569 9993817
0.74956357 0.39363557 0.0043666912 10059867
0.75123125 0.39691719 0.0055297567 9863266
0.75278765 0.40081394 0.0050337296 10125404
0.75477606 0.40162361 0.0060203965 9601636
0.75620526 0.40481785 0.007402048 10190939
0.75771844 0.40693483 0.0045614275 9928024
0.76086581 0.41204265 0.004271138 9862233
0.76211607 0.41491899 0.0072566909 9928023
0.76372248 0.41586334 0.005947046 9862232
0.71185952 0.33687985 0.0024164943 9137994
0.71260619 0.33994606 0.0027336325 9072200
0.71490645 0.34146512 0.0042777536 8940869
0.71692145 0.34433258 0.0031684998 9204042
0.71771669 0.34678388 0.005595047 8875076
0.7187196 0.34956896 0.0025721886 9269834
0.72076416 0.35183245 0.003007171 9204297
0.72266883 0.35441738 0.003311343 9269322
0.7238428 0.35645443 0.0032404102 9203785
0.72587287 0.35878515 0.0033586603 9269578
0.72637224 0.36200413 0.0034748781 9072201
0.72851235 0.36444318 0.0036268099 9138249
0.73076791 0.36686972 0.0037393146 9335885
0.73188549 0.36941198 0.0037861643 9335886
0.73351347 0.37228581 0.0041407337 9467473
0.73544496 0.37473619 0.0041230423 9598802
0.73679447 0.37731171 0.0042453399 9664595
0.73888659 0.37907472 0.0043032421 9796180
0.74048215 0.38249788 0.0047049508 9664851
0.74262273 0.38705271 0.0044378848 9862232
0.74453288 0.39051497 0.0039096787 9928023
0.74596232 0.39198306 0.0043852972 9993816
0.74778146 0.39520955 0.0050586453 9994073
0.75068057 0.40082312 0.0043264232 10190941
0.75420427 0.40493482 0.0048180446 10125404
0.75543308 0.40928945 0.0046131522 10125403
0.75732189 0.41047251 0.0044308444 9993817
0.75859451 0.41238993 0.0044958517 9928282
0.76075375 0.41493464 0.0045431079 9862233
0.76259786 0.41885018 0.0046274471 9862488
0.76433384 0.41965717 0.0043723122 10059351
0.76500797 0.42300373 0.0047680084 10322528
0.70932096 0.33762711 0.0023040855 8875079
0.71074063 0.33921894 0.0027117045 8940870
0.71313608 0.34349865 0.0026429109 8941127
0.71482897 0.34421536 0.0026705961 9072456
0.71615899 0.3483898 0.0025649709 9071942
0.7191928 0.35256982 0.0032511896 9072455
0.72141516 0.35695714 0.003402723 8940613
0.72384018 0.36086616 0.0035381138 8809030
0.758093 0.41587275 0.0028108719 9998964
0.75609678 0.39442733 0.01279526 7961444
0.73535508 0.36657038 0.010761574 8548179
0.73734117 0.37133989 0.011494553 7958366
0.73917419 0.37161681 0.011438146 8813675
0.75449181 0.39753613 0.012060191 7895147
0.75800461 0.40253317 0.010340168 9994324
0.75981855 0.40705577 0.010649538 9994070
0.76143372 0.40817335 0.010829048 9928277
0.76282853 0.40907449 0.010941001 9928280
0.76379198 0.41288862 0.011336101 9928535
0.72144496 0.34901062 0.0096876202 8023364
0.72314256 0.35115525 0.0099077672 7956798
0.72388512 0.3524996 0.010380575 7957560
0.72927153 0.36060098 0.0089935269 7956037
0.73074079 0.36301512 0.0098221768 8023366
0.73243886 0.36574697 0.0096880402 8350273
0.73385578 0.36861318 0.0094716605 8350783
0.73574257 0.37053365 0.010188334 8219978
0.73731124 0.37376577 0.0094017889 9073996
0.73792684 0.37803108 0.010188885 7628626
0.73979491 0.37781486 0.0093787126 8878949
0.74204111 0.38163778 0.0088934302 9665630
0.7429232 0.38344511 0.0097949691 9534824
0.74457103 0.3865895 0.0091929063 9403487
0.74715304 0.3890186 0.0086753191 10059864
0.7476595 0.39223358 0.0090033766 9994327
0.74960196 0.39403027 0.0089727165 10059608
0.75123978 0.39678052 0.0093952511 10191450
0.75299114 0.39916673 0.0099485014 10125655
0.75471181 0.4020122 0.0099809458 9469533
0.75614721 0.40456441 0.01047731 10125913
0.75774735 0.40710187 0.01022481 9732965
0.75954634 0.40919337 0.010346172 9601633
0.76168007 0.4117842 0.011032052 10059608
0.76399183 0.41699791 0.011054991 10060118
0.71078074 0.33667248 0.0071192649 7956039
0.71316236 0.33878618 0.0075516263 8285262
0.71513265 0.34074154 0.0071928496 8414518
0.71594828 0.34529331 0.0071118483 8348467
0.71750331 0.34644803 0.0072941529 8218686
0.71887672 0.34942061 0.0075706616 8283193
0.72038025 0.35119385 0.0068997624 8545852
0.72271121 0.35404527 0.0079200501 8217664
0.72398859 0.35637122 0.0078689111 8152643
0.72605753 0.35905382 0.0077732834 8218437
0.72678024 0.36172962 0.0083915591 7823159
0.72907269 0.3643674 0.0078169256 8677952
0.72995657 0.36767229 0.0082048783 8415039
0.73213798 0.36957631 0.0083097648 8875334
0.73307651 0.37191364 0.0069080037 9072712
0.73533362 0.37495241 0.008235259 9204301
0.73736948 0.37711909 0.0085152443 9205335
0.73891968 0.37957728 0.0080623515 9599059
0.7399376 0.38205263 0.0084721688 9402974
0.74213147 0.38499868 0.0082147177 9665625
0.74282038 0.38822973 0.008310576 9730900
0.74475092 0.38973948 0.0079562645 9666141
0.7457819 0.39226472 0.0079208286 9732448
0.74832559 0.39461869 0.0080363359 9928796
0.74941766 0.39755288 0.0079264864 9666404
0.75215161 0.39932981 0.0075740046 10125660
0.75177121 0.40256414 0.0078085521 9667170
0.75403225 0.40530983 0.0073609296 9536362
0.75608206 0.40763849 0.0077908551 9863521
0.75759465 0.4110539 0.0079947375 9797728
0.75882232 0.41307652 0.0074734916 10059865
0.75984949 0.41526344 0.0076227733 9994073
0.76179492 0.41794038 0.0075735794 9993817
0.76418114 0.42093214 0.0074448716 9862486
0.76546156 0.42366791 0.0075254035 9862488
0.71054929 0.33691207 0.0060937274 8414267
0.71132737 0.33960554 0.006072443 8414267
0.71252662 0.34280643 0.0064915251 8086591
0.71510178 0.34489799 0.0059579983 8350276
0.71539432 0.34839866 0.0066597797 8150836
0.71723378 0.34943575 0.0064645428 8284482
0.71855062 0.35391146 0.0056339134 8283195
0.72121704 0.35496691 0.0059890943 8480831
0.72183973 0.35758168 0.006973994 7954231
0.72423685 0.35897946 0.0068142181 8348991
0.72581017 0.36271021 0.0071163387 8086333
0.72731733 0.36589465 0.0079055531 7625524
0.73107803 0.37144634 0.0077446732 8414781
0.73107177 0.37262109 0.004441665 9072716
0.73291498 0.37583238 0.0049370425 9138255
0.73365241 0.37872842 0.0055342936 9072717
0.73637092 0.38125971 0.0052557681 9401940
0.73755759 0.38413146 0.0050826222 9599318
0.73991299 0.38596579 0.0044726697 9796182
0.74504536 0.39408022 0.0050935335 9928023
0.74610353 0.39613277 0.0068312632 9142120
0.74730611 0.39856064 0.0048209396 9993817
0.74906355 0.40092501 0.0064114854 9666403
0.75046802 0.40354213 0.0047400123 10059611
0.75255758 0.4070141 0.0061874208 10190940
0.75379092 0.40830815 0.0056401524 9798247
0.75575554 0.4119145 0.0061743986 10059610
0.75783175 0.41392401 0.0070986752 9077351
0.75872815 0.41701153 0.0049345163 9993819
0.76051158 0.41802445 0.0047524683 9862232
0.76344818 0.42396894 0.0049099661 9928024
0.76486778 0.42744496 0.0071230181 10059611
0.76655555 0.42828229 0.0072239991 9928282
0.7078135 0.33856237 0.0040004691 8480321
0.71118826 0.34305716 0.0024169423 8875078
0.7137627 0.34663934 0.0029655644 8940613
0.71406674 0.35021424 0.0030952154 8677700
0.71667582 0.35118747 0.0033091698 8874820
0.71729732 0.35433227 0.0043751318 8348732
0.71888906 0.35752037 0.0033217275 8414783
0.72011864 0.3592881 0.0035620737 8414531
0.72137398 0.36145136 0.003561639 8282688
0.72347641 0.36361995 0.0038158402 8348738
0.72488618 0.36606023 0.0040514274 8217405
0.72721153 0.36865976 0.0045658811 8283454
0.72856677 0.37117282 0.004745719 8480830
0.73037684 0.37411085 0.0054845978 8414529
0.73827046 0.38727745 0.0054024691 9730906
0.74058741 0.38919419 0.0046538906 9796439
0.74158758 0.39169148 0.0045623258 9730901
0.7431553 0.39360282 0.0047941813 9862231
0.74435806 0.39785585 0.0044819373 9796438
0.74610978 0.40118265 0.0050534224 9993815
0.74802291 0.4021157 0.0051485794 10059611
0.7482931 0.4059462 0.004718143 9928280
0.75022119 0.40663484 0.0048080506 10059611
0.75264108 0.41066483 0.0050167739 10125659
0.75424671 0.4117879 0.004913643 10125403
0.75516117 0.41498575 0.0052984748 10191197
0.75687236 0.41616073 0.0049805245 10125405
0.75764227 0.42050469 0.0042837462 9929314
0.76075506 0.42298919 0.004769423 10059610
0.76186383 0.4251841 0.0047745313 9928279
0.76266795 0.42833263 0.0052328482 9993306
0.76418632 0.42986241 0.0049990374 10190944
0.70415187 0.337356 0.0021191258 8480579
0.70542836 0.34074128 0.0024245759 8480834
0.70829368 0.34202549 0.0022114606 8677956
0.708848 0.34532827 0.0023980911 8414527
0.71099126 0.347413 0.0028615622 8546113
0.71226865 0.34932771 0.0030678492 8480320
0.71450073 0.35359135 0.0032873743 8151354
0.71610165 0.35471714 0.0030429345 8348732
0.71642065 0.35804778 0.0031672912 7954233
0.75667018 0.41898653 0.0023528684 9472110
0.73332822 0.36782798 0.01311855 3880725
0.73516911 0.37092397 0.014213284 3486242
0.73531061 0.37307137 0.014639238 461062
0.75274658 0.39850044 0.013623687 7434596
0.72021157 0.35289365 0.01206862 5916707
0.72203475 0.35329407 0.011944264 5785375
0.72398549 0.35690722 0.011169994 6379563
0.72986573 0.36561605 0.010998722 4932117
0.73093033 0.36723384 0.012999132 3288333
0.7336849 0.37066248 0.011675324 3813889
0.73574215 0.37485784 0.011722568 4933160
0.73837876 0.37959686 0.012232477 5787690
0.73991776 0.3827979 0.011063101 7759198
0.75282896 0.40068045 0.011398528 7631975
0.75258768 0.40278897 0.01095207 8287840
0.75432444 0.40512681 0.012448333 7369057
0.7563597 0.40751144 0.011340907 9272416
0.7575084 0.41189584 0.011103874 10257497
0.7588442 0.41353846 0.010807617 10256985
0.7611503 0.414758 0.011071965 10125659
0.76206279 0.41883853 0.011297047 10257242
0.76425719 0.42071441 0.011153208 10125912
0.76645279 0.42635259 0.011082128 10191192
0.71734208 0.35062805 0.0096919332 6642229
0.71939611 0.35174963 0.010623349 6971187
0.72139829 0.35586125 0.010599965 5984044
0.72237289 0.35841298 0.010121135 6311205
0.72364438 0.35999703 0.0096666981 5983007
0.72539157 0.36323804 0.0099358186 5983515
0.72749501 0.36546913 0.010277129 5391389
0.72841179 0.36821991 0.010390351 5850138
0.72996622 0.37037301 0.0094833113 6836774
0.73175907 0.37320411 0.010232437 6771241
0.73354375 0.37545088 0.0099091306 7823671
0.73539019 0.37829101 0.010734166 7430207
0.73637509 0.38089517 0.0095605217 8678982
0.73802197 0.38328704 0.009933399 8482121
0.73964316 0.3856234 0.0097682979 8810849
0.74110317 0.38831806 0.0096013173 9337694
0.74278784 0.39113268 0.0095707076 9468767
0.74488574 0.39406735 0.0090614259 9928018
0.74621361 0.39630327 0.0090599442 9666139
0.74725282 0.39913005 0.009610381 9994069
0.74946827 0.40175772 0.0097634559 9666651
0.75089192 0.40408906 0.010991791 9207393
0.75294417 0.40656608 0.010706408 10191705
0.75399309 0.4097591 0.01106298 9271900
0.75577974 0.41125888 0.010123705 9798500
0.75643569 0.41514641 0.010990554 10520153
0.7584213 0.41703367 0.010677071 10388569
0.76066798 0.4179374 0.011185018 10257244
0.7615937 0.42259744 0.011137748 10454363
0.76379293 0.42447057 0.011135316 10454617
0.76507783 0.42520431 0.011106208 10323032
0.76692945 0.43005633 0.011420665 10388824
0.70604646 0.33707497 0.0082417084 7497814
0.70863259 0.3388252 0.007445443 7692868
0.70981556 0.34144482 0.0075740903 7495747
0.7108112 0.34553304 0.0079970639 7102794
0.71276248 0.34620649 0.0074313721 7429687
0.71430528 0.3488043 0.0081124781 7167030
0.71536517 0.35200521 0.0078744609 7099172
0.71794242 0.3535468 0.0081948806 7296294
0.71921819 0.35624591 0.0080625098 7164970
0.72095871 0.35906994 0.0085184816 6770214
0.72240847 0.3617298 0.0083264932 5719067
0.72407836 0.36378399 0.0087050172 5587487
0.72538543 0.36567974 0.0086033065 6113313
0.72689891 0.37273899 0.0080518899 3942923
0.72958004 0.37595949 0.0076346481 5126933
0.73127162 0.37732267 0.007073333 6704937
0.73273265 0.38010392 0.0074552661 6705450
0.73325777 0.38209221 0.0078062676 6442270
0.73852241 0.3867161 0.0094167218 9599579
0.74024993 0.38911593 0.0092633534 9731413
0.74153382 0.39255384 0.0085612424 9403751
0.74304336 0.39524493 0.008037609 9731930
0.74439907 0.39607283 0.0085858675 9928019
0.74542177 0.40043598 0.0073973462 9601376
0.7470873 0.40143552 0.0084574502 9470054
0.7484563 0.40543845 0.0078871995 9403997
0.75111377 0.40643871 0.0069679553 10125401
0.75268626 0.40990591 0.0076364931 9797988
0.75323164 0.41342002 0.0079514589 10125402
0.75615877 0.41562715 0.0081313811 10191196
0.7564016 0.41798562 0.0082159787 10256988
0.75886041 0.41969761 0.0078832395 10191451
0.76045835 0.42288315 0.0076079285 9864555
0.761406 0.42558914 0.0074867895 10256987
0.76323736 0.42668992 0.0071633696 10059866
0.76603574 0.43224865 0.0067873048 9994074
0.76763248 0.4362005 0.0073406566 10125919
0.70600826 0.33968246 0.0061491984 7691056
0.70765543 0.34180975 0.0066514611 7625785
0.70910352 0.34470573 0.0064109843 7624751
0.71150053 0.34772113 0.0066538984 7560248
0.71260434 0.35000744 0.0066786529 7427885
0.71498394 0.35176748 0.0057834024 8019767
0.71561873 0.35560834 0.0059069386 7362346
0.71732563 0.35776764 0.0067403615 6967848
0.72141159 0.36589897 0.0051678 6178852
0.72368234 0.36784637 0.0057304706 6244894
0.72488922 0.37004128 0.0069706524 4930067
0.72795153 0.37243739 0.0060292259 6903072
0.728163 0.37430739 0.0071904934 5061135
0.73457444 0.38374573 0.0069447276 8152380
0.73562521 0.38621122 0.006567752 8349763
0.73683989 0.38822344 0.0068134703 9401684
0.73831558 0.39103284 0.0059216926 9599322
0.73848879 0.39378697 0.0058039464 9796960
0.74062735 0.39593285 0.005791082 9600346
0.74250841 0.39882675 0.0064028976 9469535
0.74390054 0.40000412 0.0066617867 9666396
0.7448802 0.40341645 0.0070839641 10059609
0.74716407 0.40511766 0.005801585 9928022
0.74899751 0.40911889 0.0063124634 10059609
0.75073111 0.41131914 0.0062612575 10059608
0.75183588 0.41316399 0.0063659558 9732452
0.75313979 0.4172371 0.006153034 9273455
0.75486332 0.41834468 0.0051964661 10191196
0.75702643 0.42167127 0.0053647966 9798763
0.75816834 0.42316145 0.0065345699 10060642
0.75939906 0.42600569 0.0061824797 10256989
0.76085114 0.42922312 0.0062311813 10125404
0.76267606 0.4318561 0.0056545231 10059611
0.76427907 0.43445128 0.0058983192 10059869
0.76596439 0.43511584 0.0073759188 10125663
0.70242196 0.33872595 0.0058127809 7691061
0.70420033 0.3398596 0.0057040285 7822390
0.7060774 0.34410748 0.0056521269 7559729
0.70838791 0.34820014 0.0026105822 8151356
0.71055698 0.35113332 0.0042926115 7625267
0.71227551 0.35361743 0.0043181144 7559473
0.71377951 0.35623366 0.0039288471 7493936
0.71529669 0.36050758 0.0035357487 7098930
0.7176559 0.36147949 0.0043714675 6967856
0.71920329 0.36391312 0.0046730298 6573613
0.71951813 0.36566079 0.0061114319 4863761
0.74065745 0.39867675 0.0052593937 9862743
0.74232465 0.40229055 0.0055560516 9862489
0.74470156 0.40417019 0.0048047514 9928025
0.74503392 0.40808016 0.0046568159 9928026
0.74687976 0.40905452 0.0045427526 9928282
0.74858809 0.4125255 0.0049414644 9928027
0.74996394 0.41655454 0.0050791819 10125145
0.75182968 0.41728181 0.0051011508 10190937
0.75465184 0.4197675 0.0040634391 9208424
0.75381583 0.42222539 0.0043868567 9798247
0.75603151 0.42520678 0.0052190172 9929831
0.75979823 0.43010911 0.005788371 10256476
0.76428986 0.43738258 0.0046809218 10191709
0.70184165 0.33896255 0.0026525289 8151871
0.70287454 0.34196764 0.0018619534 8151615
0.70417929 0.34488466 0.0021456452 8085820
0.70553684 0.34702429 0.0025777165 7888442
0.70704728 0.35102832 0.0023565474 7625271
0.70901453 0.35134071 0.0029332691 7822391
0.71017176 0.3555046 0.0028332069 7428145
0.71189296 0.35849789 0.0036115055 6901547
0.71355116 0.35970604 0.0035081981 7033135
0.70011133 0.34226623 0.0019961582 7822393
0.72892785 0.36315015 0.018412875 394752
0.73287457 0.36717451 0.017508559 658432
0.73268455 0.36823517 0.019021517 658179
0.73475021 0.37189469 0.018315054 66312
0.72728485 0.36181259 0.016956327 132608
0.72933298 0.36489418 0.01549625 1051904
0.73102617 0.36631808 0.016882015 789513
0.73312086 0.36995971 0.016138855 526848
0.73494041 0.37083414 0.016802141 256
0.73513818 0.37471008 0.016905759 66820
0.72692674 0.3656759 0.01447195 1380356
0.72859514 0.36887574 0.013722813 2825991
0.73156726 0.37350532 0.01425474 2892298
0.73261523 0.37638518 0.014581691 1971720
0.73488021 0.37745318 0.01447895 1512965
0.7359314 0.38108301 0.014433408 1578766
0.73793972 0.38461429 0.014207631 131586
0.75095224 0.40460837 0.013660541 7369562
0.75287819 0.40512279 0.014242532 7501149
0.75547832 0.41205817 0.013652137 7501418
0.71569133 0.35216287 0.012277478 5783848
0.71831465 0.35312775 0.01291541 5259815
0.71913731 0.3567338 0.012438431 3353624
0.72038347 0.35988131 0.011655416 3221001
0.72210848 0.36157489 0.012512187 2365955
0.72391927 0.36388808 0.012395062 2168324
0.72465199 0.36684474 0.01229487 1970952
0.7267403 0.36837468 0.012236457 2562314
0.72925609 0.37131724 0.012880854 2694921
0.73004347 0.3739754 0.012781883 1511429
0.73228329 0.37646985 0.012542382 3417870
0.73429835 0.37886903 0.012921842 5193497
0.73533809 0.38163474 0.012185555 6179365
0.73666394 0.38447937 0.012089705 6180404
0.7383464 0.38732252 0.01192523 7429451
0.73852503 0.38953939 0.011311019 9797721
0.7491104 0.40410066 0.013005141 7434584
0.7511214 0.40761769 0.012120819 8878686
0.7522518 0.41085762 0.01210995 7500389
0.75417781 0.41137195 0.012691941 7697770
0.75487804 0.41411108 0.010952216 10519899
0.75941765 0.42118013 0.010935983 10519900
0.76303428 0.42782095 0.011084061 10520156
0.76466566 0.43022236 0.011535544 10520411
0.76624715 0.43359467 0.011405891 10454877
0.76831418 0.43554896 0.011055622 10257499
0.70606166 0.3397719 0.0093901623 6971205
0.71222049 0.34989744 0.010245348 6310979
0.71485454 0.35091448 0.010866256 6247473
0.71612537 0.35600629 0.0097896168 5651476
0.71791893 0.35736725 0.010581151 4862737
0.71884042 0.36036345 0.010206952 4073997
0.72047865 0.36260331 0.010265859 3614473
0.72234887 0.36350343 0.0098664789 3813384
0.72550011 0.37137106 0.0087093841 2694408
0.72611833 0.37257856 0.01044561 1511434
0.72807872 0.37501106 0.010391257 1774088
0.73034072 0.37810025 0.010775888 1642246
0.7319544 0.3805517 0.011075515 1905419
0.73312819 0.38264763 0.011111869 2299659
0.73409814 0.38492647 0.0096726231 3614995
0.73584062 0.38806286 0.010193413 5193005
0.73766941 0.39018548 0.010697762 6048827
0.73946273 0.3932921 0.01041176 8811611
0.74090576 0.39585456 0.0097607486 9863260
0.74276775 0.39878923 0.0098608397 10125144
0.74397707 0.4010984 0.0099119609 9862742
0.74479198 0.40371099 0.010276986 9928791
0.74765503 0.40634918 0.010196186 9732444
0.74880743 0.4102219 0.0099846264 9797982
0.75105536 0.41165438 0.010644216 10256983
0.75336802 0.41316345 0.010772455 10388313
0.75257999 0.41682556 0.010409768 10388568
0.75563365 0.41864091 0.010766687 10520411
0.75784028 0.42039195 0.010761594 10520155
0.75743747 0.42393228 0.0098527921 10258018
0.76010078 0.42599019 0.010828979 10586203
0.76111752 0.42953658 0.011464763 10651741
0.76257473 0.43039915 0.011644688 10652253
0.76649356 0.43720543 0.011608928 10454878
0.70289803 0.33784816 0.008999534 6775125
0.7042287 0.33949503 0.0094465837 6971462
0.70538437 0.3445403 0.0083021279 6442563
0.70752525 0.34615535 0.0082435552 6772807
0.70896405 0.34855765 0.0082025742 6639406
0.71078032 0.35084426 0.008242283 6441502
0.71242028 0.35312286 0.0087264078 6112793
0.71423554 0.35541081 0.0092757232 5520657
0.71474612 0.35915002 0.0080569405 5389846
0.71728957 0.36034179 0.0093389219 4403473
0.71758366 0.36533228 0.0082931928 2430983
0.72013223 0.36657724 0.0080545265 2825224
0.72186029 0.36829269 0.0089848535 2168840
0.72379875 0.37007236 0.0090954471 2036999
0.73621732 0.3895511 0.0079922061 7888452
0.7369709 0.39273149 0.008735979 6971218
0.73779386 0.39527667 0.0068468545 9599843
0.73900783 0.39679298 0.0092412457 8944491
0.74087805 0.39975971 0.0081741326 9404767
0.74222744 0.40252993 0.0074745975 9732962
0.74485862 0.40431333 0.0081281494 9274987
0.74487424 0.40747765 0.0075047137 9797985
0.74708682 0.4102852 0.0088053718 10059863
0.74958378 0.41226605 0.0074858242 9732451
0.75027019 0.41548762 0.0080203703 10125402
0.75303549 0.4163053 0.0082968157 10256988
0.75317895 0.42103663 0.0074634724 10322780
0.75561863 0.42270204 0.0073427595 10388827
0.75785261 0.4275918 0.0076215724 9864551
0.75997823 0.4308821 0.0074602333 9602921
0.76081496 0.4321894 0.0089787273 9340008
0.7618773 0.43494049 0.0077223973 9864298
0.76381934 0.43803054 0.0074689845 10257503
0.7008909 0.33911514 0.0061902637 7296300
0.70223349 0.34183002 0.0062753903 7164457
0.70477468 0.34409153 0.0064976774 7164458
0.70646632 0.34759182 0.0064375931 6901544
0.70772773 0.34896523 0.0051243892 7427633
0.7102533 0.35510537 0.0054764254 6704679
0.71210724 0.35766459 0.0068433131 5981471
0.71379626 0.35926393 0.0057558781 6244900
0.71503347 0.36263415 0.0060152616 4929304
0.7179122 0.36465585 0.0064292019 4469005
0.73840082 0.39866453 0.0070334342 9731681
0.73975044 0.40065029 0.0060356758 9994334
0.74008435 0.40364933 0.0068784067 9666656
0.74239469 0.40591386 0.0065908525 9864032
0.74338633 0.40833724 0.0060971919 9994074
0.74502945 0.41063246 0.0058149225 9928282
0.74763477 0.41447204 0.0078064026 10191450
0.74824136 0.4161512 0.0056246878 9863784
0.74957335 0.41826767 0.0061160959 9405047
0.75155455 0.42044002 0.0058508217 9863524
0.75311023 0.42425075 0.0052280733 9929830
0.75434482 0.42628735 0.0063085407 10191712
0.75690073 0.42849216 0.0061613787 10322525
0.75704449 0.43134442 0.0071079903 10127461
0.75959176 0.43329516 0.0063876724 10322782
0.76139534 0.43600115 0.0064853551 10256990
0.76223111 0.43918636 0.005315722 10256990
0.7021957 0.34556836 0.0056341784 7164719
0.70442414 0.34724647 0.0052730739 7296304
0.70529962 0.35093656 0.0042062998 7099182
0.70803553 0.3531251 0.0046990658 6967340
0.70801699 0.35646817 0.0045519308 6573097
0.7097252 0.35866383 0.0040061334 6507562
0.71113056 0.36014712 0.004659778 6179369
0.74112308 0.40961796 0.0047828276 10059869
0.74539047 0.41503295 0.0048145652 9993818
0.74770176 0.41936511 0.0049265912 10125403
0.74926764 0.4232181 0.0052313968 10193260
0.75107592 0.42386296 0.0051122461 9798502
0.75190175 0.42699763 0.0053218468 9995366
0.75635624 0.43235597 0.0056646336 10388317
0.75962257 0.43791947 0.0054498874 10322783
0.69563615 0.33850923 0.0022865492 7822908
0.69739676 0.34124121 0.0019970315 7691064
0.69804305 0.34413463 0.0024557852 7493689
0.70008463 0.34669328 0.0024718232 7558966
0.70228273 0.34903744 0.002443142 7362100
0.70368761 0.35298946 0.0024368227 7164980
0.70568335 0.35500807 0.0023850244 7099187
0.70605975 0.35693166 0.0027869935 6770221
0.69313389 0.33917537 0.0022421177 7757116
0.70155752 0.35254276 0.001933774 7230773
0.7360636 0.37203065 0.0233685 197632
0.72501159 0.36028489 0.020683026 328965
0.72800016 0.36114109 0.021070726 197377
0.72878426 0.36477095 0.020642722 198147
0.73195779 0.36951095 0.021052105 132353
0.73452169 0.37180507 0.020903988 197890
0.72546154 0.36141214 0.017080741 328965
0.72972167 0.36732385 0.018726243 263940
0.72957951 0.37115565 0.018970225 919560
0.73219287 0.37253633 0.018307408 525826
0.73361617 0.37667432 0.019223997 657414
0.73500848 0.37890798 0.018229663 329221
0.71817112 0.35474861 0.015145324 1446658
0.71891773 0.35646546 0.017347014 1052163
0.72021592 0.36007002 0.016063785 591620
0.72244573 0.361357 0.016780185 460035
0.72392124 0.36416727 0.016478136 853768
0.72603625 0.36638725 0.016921619 788230
0.72711557 0.36947191 0.016526267 985864
0.72886777 0.37106305 0.016480274 920328
0.73048902 0.3738699 0.016317245 1117449
0.73229742 0.37652609 0.016647292 854278
0.73372954 0.37910843 0.016206676 1380363
0.73522061 0.38192075 0.017130809 789256
0.73620707 0.38421953 0.016239749 1511950
0.73659045 0.38651198 0.01726182 5654334
0.75224227 0.40928033 0.015051888 7697768
0.71376193 0.3528887 0.013948666 4208423
0.71590024 0.35433105 0.015266696 2498832
0.71835119 0.35804632 0.014495233 1775623
0.71866375 0.36004767 0.014263937 1116681
0.72035366 0.36213723 0.013846461 920069
0.7222358 0.36502188 0.015065368 1183242
0.72438425 0.36689782 0.015736954 1182985
0.72492355 0.3696197 0.014356107 1051913
0.72620022 0.3728292 0.015224323 920328
0.72842681 0.37527347 0.015373535 1116937
0.73005098 0.37754029 0.014454465 1116935
0.73196626 0.38119626 0.014448874 1116937
0.73295927 0.38369751 0.014145294 1182475
0.7341972 0.38587332 0.015419425 1117195
0.73650742 0.38764659 0.01419062 3089694
0.73758489 0.39098781 0.014224783 6246207
0.74831557 0.40512392 0.014537659 7960147
0.74946076 0.40876615 0.01441028 7632732
0.75057948 0.4124248 0.014390239 7961453
0.75135177 0.41488683 0.01434109 7829860
0.7541551 0.41485709 0.014175342 7698284
0.75354558 0.41905713 0.014984692 7829860
0.7094276 0.3499217 0.011171227 5324091
0.71050662 0.35156962 0.013077449 4667695
0.71295154 0.3516238 0.01243007 5389615
0.71364915 0.35736632 0.012765253 1773064
0.71567136 0.35799572 0.012072431 2496009
0.71772903 0.36083853 0.012234945 2103555
0.71892744 0.36254784 0.012888182 1314055
0.71919662 0.36681032 0.012654817 1182474
0.7218371 0.36878309 0.012769086 1116936
0.72379237 0.37043262 0.011367032 1117190
0.72602093 0.37293607 0.01257878 920326
0.73396361 0.3855437 0.012944221 1116682
0.73507529 0.38850227 0.013600867 1313803
0.73599243 0.39138317 0.012870796 1511437
0.73716819 0.39414319 0.012153322 4866612
0.73878127 0.3962028 0.012280334 9402717
0.73995399 0.399003 0.010950394 10191449
0.74665272 0.4082683 0.013876054 7829339
0.74878412 0.41247731 0.014451738 7764832
0.75080413 0.41439846 0.01169645 9076321
0.75258112 0.41800553 0.01358154 7763562
0.7581405 0.42785007 0.011037122 10783327
0.75956821 0.42908332 0.011012835 10783069
0.76136392 0.43314746 0.011667846 10783838
0.76350802 0.43493688 0.011594811 10717792
0.76458585 0.43915042 0.011816872 10717792
0.70342362 0.34528545 0.0099393073 6509644
0.70596141 0.34818372 0.0098391213 6312003
0.70706773 0.34918612 0.010764789 5851968
0.70946544 0.35271686 0.008747316 5980697
0.71039832 0.35465056 0.010262857 4994064
0.71225023 0.35634831 0.011412753 3416331
0.71374446 0.36018571 0.010964857 2299914
0.71453208 0.36228409 0.010106109 2299913
0.71681309 0.36504841 0.010754978 1050888
0.7190485 0.36689809 0.010043235 1182471
0.73654819 0.39370039 0.010042666 6441274
0.73724198 0.39750555 0.010729704 4536107
0.73892498 0.40058014 0.010779646 8943967
0.74069005 0.40266219 0.01028868 10191195
0.74195248 0.40599662 0.010063004 10125912
0.74482554 0.40815824 0.0099726254 10125653
0.74603665 0.40958408 0.0098886061 9405043
0.74737126 0.41314921 0.010242838 10323031
0.74761373 0.41707581 0.010334171 10520154
0.74978763 0.41843548 0.010358031 10454360
0.75279027 0.42051739 0.010544788 10454617
0.75357991 0.42384982 0.010016479 10586201
0.75444639 0.42596018 0.010417291 10717530
0.75598902 0.42835772 0.010800922 10783324
0.75809658 0.43112993 0.010583 10390114
0.75984412 0.43232334 0.011419995 10783582
0.76087922 0.43632835 0.011710249 10849632
0.76306605 0.43832639 0.011569014 10783327
0.69928575 0.34031624 0.0076120212 6772276
0.70084274 0.34370503 0.0085450299 6247482
0.70271689 0.34532848 0.0084543619 6508343
0.70424664 0.3474395 0.0084907766 6245176
0.70566046 0.35107154 0.0078528821 6046750
0.70687121 0.35295027 0.0089098429 5651991
0.71037281 0.35850507 0.0084983194 4601366
0.71319592 0.36334348 0.0084024435 2431496
0.71576583 0.36469269 0.0081297504 2430984
0.73735988 0.40136886 0.0086421389 9007457
0.73980969 0.40375382 0.0090185432 9601122
0.74003369 0.40679875 0.0081971064 9471080
0.74162221 0.40941316 0.0087720267 9863777
0.74330491 0.41223288 0.0086283237 10061159
0.74614739 0.41415736 0.0077441768 9798498
0.74604756 0.41680777 0.0088248495 10519901
0.74858224 0.41911826 0.0075104022 10256987
0.74990493 0.42306456 0.0091225412 10520154
0.75147134 0.4249143 0.0068175229 10454108
0.75477469 0.42651802 0.0082233073 9864815
0.75459057 0.43031532 0.007406611 9996135
0.75595546 0.43229493 0.0086490931 9930598
0.75751603 0.43496469 0.0084711891 9865064
0.75882691 0.43706304 0.007830685 10454368
0.7603687 0.4394803 0.0079316497 10258532
0.69588101 0.3387287 0.0065000327 6903093
0.69688433 0.34115297 0.0060992106 6703908
0.69886494 0.34416059 0.0059844498 6703911
0.69988555 0.34664685 0.0069475658 6243615
0.70230687 0.34946918 0.0062365863 6507047
0.70501804 0.35440469 0.0051084086 6573098
0.70729691 0.35687807 0.0069193295 5850145
0.70820773 0.35954848 0.0070817526 4798233
0.71112078 0.36203778 0.006772296 4009491
0.73760295 0.40574282 0.0066309292 9863018
0.73855722 0.40838555 0.0062960717 9994081
0.74233228 0.4142198 0.004441781 10125404
0.74313277 0.41643369 0.0074652089 10388318
0.74443173 0.41868436 0.0054127187 9798502
0.74652654 0.42091757 0.0064468584 10061424
0.74748313 0.42308879 0.0061735017 9995882
0.74931514 0.42628542 0.0054070181 9863520
0.75078505 0.42888609 0.0066107162 10126950
0.75269115 0.43125406 0.006545186 10454109
0.75390935 0.43320438 0.0061880136 10388318
0.75625128 0.43634203 0.0064528431 10388831
0.75696278 0.43946862 0.0063949553 10191977
0.69388312 0.34048188 0.0064172139 6440992
0.69492543 0.34259859 0.0051139253 7098930
0.69609183 0.34699178 0.0048410664 6901550
0.69869524 0.34837943 0.0047802855 6901550
0.69995439 0.35201055 0.0050203158 6704426
0.70241648 0.35330933 0.0048917527 6704170
0.70302892 0.35606587 0.0046413522 6375977
0.70441651 0.35889095 0.0040359679 6047272
0.70689988 0.35982499 0.0047606132 5653028
0.73903495 0.41179252 0.0052135782 10125406
0.739811 0.41478029 0.0045022042 10125404
0.74102092 0.41679534 0.0046065096 10256989
0.74233603 0.41898027 0.0047106179 10256990
0.7448402 0.42180237 0.0052115414 10061161
0.74620563 0.42511281 0.005441857 10322782
0.74784452 0.42645001 0.0049879113 9800305
0.74865842 0.42947492 0.0055143032 10454367
0.75135636 0.43368566 0.0057171313 10454371
0.75391918 0.43821514 0.0059307255 10454110
0.69079119 0.34144777 0.0021526101 7559739
0.69349647 0.34381112 0.0020364181 7362103
0.69484401 0.34617236 0.0022844258 7164725
0.69684052 0.34852377 0.0022979723 7164469
0.698865 0.3512691 0.0021413576 7098934
0.69968891 0.35411137 0.0026284584 6835759
0.70166308 0.35659626 0.0039899289 6573101
0.69411463 0.34938669 0.0019818419 6967606
0.69659698 0.35337803 0.0022584447 6836017
0.73180425 0.3657333 0.026362337 263680
0.7337904 0.37050286 0.027095232 591616
0.72840792 0.36300915 0.023522658 67073
0.72909451 0.36476302 0.025727166 197633
0.73266977 0.3688806 0.025143811 263426
0.73416668 0.3722648 0.024215296 526084
0.73589116 0.37366948 0.025635028 394759
0.72488409 0.361307 0.022263933 197897
0.72601455 0.36221591 0.023163339 131848
0.72744775 0.36648318 0.022843726 591366
0.7289387 0.3676967 0.022651825 591621
0.73043191 0.3715159 0.022734355 919816
0.73216283 0.37338594 0.023455258 920072
0.73315662 0.37559184 0.02261526 985610
0.73494905 0.37901056 0.022833215 525577
0.73645407 0.37990335 0.023648955 263172
0.72083008 0.35914785 0.020448025 394496
0.72311968 0.36045721 0.021563875 197121
0.72364414 0.36442289 0.020313725 854023
0.72565544 0.36670551 0.01975937 788487
0.72683728 0.36903277 0.020484023 986120
0.72861677 0.37087345 0.021756981 1117451
0.73106682 0.37403652 0.020886457 985865
0.73219484 0.37653801 0.0215337 1183497
0.73393732 0.37822312 0.021366108 854791
0.73517776 0.38115942 0.021044914 657669
0.73635012 0.38485488 0.020606264 723464
0.71732944 0.35711697 0.018686749 394496
0.71890384 0.35929835 0.01874675 591621
0.72034031 0.36252531 0.018778376 788743
0.72229433 0.36457953 0.018699218 920071
0.72420943 0.36730525 0.019147409 1051911
0.72579151 0.3703247 0.019258581 986121
0.72714001 0.37278208 0.018676912 1051400
0.72846311 0.37566814 0.019024231 1116936
0.72998142 0.37714034 0.019567663 1116934
0.731363 0.37987012 0.018300166 1117192
0.73386753 0.38243768 0.019220814 1248778
0.73585802 0.38461602 0.019018935 1183244
0.73694551 0.38813743 0.019109376 1446413
0.73760289 0.39153233 0.018787129 5917504
0.71270436 0.35431069 0.016169991 1906712
0.7144025 0.35567272 0.01758986 1117703
0.71573067 0.35896575 0.016936503 722695
0.71677053 0.3606143 0.016154978 920073
0.71916705 0.36324784 0.016549701 1117448
0.72182351 0.36877823 0.017097862 854791
0.72422665 0.3707594 0.016453741 920072
0.7330693 0.3833985 0.016966419 1248523
0.73399365 0.38647267 0.01741928 1183243
0.73491579 0.38860452 0.016014095 1051659
0.73677957 0.39227417 0.016824227 1906450
0.73753434 0.39509895 0.016334537 4470830
0.73851395 0.39578807 0.017517824 6311997
0.74675089 0.40926799 0.015236553 7697247
0.75366604 0.4200826 0.016486462 8026726
0.75574422 0.42322499 0.015769554 8356204
0.75578457 0.42426041 0.017203478 7961960
0.7085827 0.35233128 0.014690133 3419691
0.71097356 0.35344034 0.01557455 1775630
0.71172994 0.35667521 0.014727112 985096
0.71419066 0.35950512 0.015689613 985608
0.71572024 0.36155489 0.014120871 1117704
0.71696252 0.36528501 0.014469659 985352
0.7194401 0.36701635 0.015198112 985608
0.72072381 0.36833754 0.014472758 920072
0.73687041 0.39491907 0.014560649 4010537
0.73718059 0.39796069 0.014455719 6049343
0.7450881 0.41241249 0.014574897 7828834
0.74642938 0.41364041 0.01455348 7698528
0.74866843 0.41484201 0.014501348 7632481
0.75075573 0.41848946 0.014430743 7829347
0.75389624 0.42319253 0.015831171 8093032
0.70400071 0.3489289 0.011476362 5787709
0.70663929 0.35047325 0.012797274 5128506
0.70843315 0.35553685 0.012622353 2365448
0.70931 0.35940471 0.013127606 1248523
0.71175694 0.35996801 0.012914563 1380105
0.71326107 0.36348692 0.013356524 985608
0.73682636 0.39788279 0.012307849 6113084
0.73701811 0.40187973 0.012279559 5852216
0.74314195 0.41138023 0.013275949 7434076
0.74804866 0.41963363 0.013447173 7960417
0.75547153 0.43420684 0.012240477 8288615
0.75779539 0.43468976 0.012242293 9798752
0.75897163 0.43827328 0.011918163 10849377
0.76121181 0.44000354 0.012017727 10849375
0.69976735 0.34460804 0.010120118 5854262
0.70043457 0.34778297 0.010866664 5919803
0.7022627 0.34812161 0.010776239 5656631
0.70234776 0.35194969 0.010882724 5325881
0.70536417 0.35443372 0.010475414 4402958
0.70834649 0.35917401 0.010643437 2497549
0.70956886 0.36218026 0.010341987 1314314
0.71224993 0.36310944 0.010906493 1051144
0.73636335 0.40345794 0.01044973 7429200
0.7374689 0.4053148 0.010957893 8088659
0.73831433 0.40766066 0.010804946 9534552
0.7395041 0.41039345 0.010761093 10256730
0.74148333 0.41310728 0.010039281 10453852
0.74371117 0.41496244 0.010000126 10520154
0.74457556 0.41919017 0.0099111348 10783071
0.74689978 0.42092705 0.0099372305 10717276
0.74873692 0.42584643 0.0099350289 10849115
0.75178373 0.4274312 0.010535374 10783325
0.75258315 0.43064061 0.010369952 10259040
0.75452942 0.43281791 0.01088319 9799266
0.75520092 0.43625441 0.011369225 10849374
0.75742233 0.43781999 0.011466235 10914655
0.69362998 0.33969992 0.0078259036 6905916
0.69663072 0.34372345 0.0080857165 6446658
0.69655025 0.34541932 0.0079442915 6311984
0.69870138 0.3469139 0.010200551 5919553
0.6997357 0.35162151 0.0082398821 5783578
0.70237005 0.35249165 0.0090348758 5520920
0.70510989 0.35792017 0.0086878259 4272149
0.70636541 0.36110225 0.0085537042 2629135
0.70843363 0.36146781 0.0078896694 3286549
0.73687482 0.40701845 0.0080246441 9600363
0.7365545 0.40962797 0.0084750336 9075555
0.73847884 0.41090718 0.0086826356 9601639
0.73952502 0.41474718 0.0081083188 9863776
0.74124318 0.41648802 0.0090866033 10061668
0.74318546 0.41828632 0.0099404734 10651485
0.74459136 0.42117503 0.00704767 10519904
0.74557877 0.42370296 0.0089974431 10455395
0.74787164 0.42784807 0.0075969109 10192746
0.74959743 0.42972296 0.0093559027 10193773
0.75038123 0.43158674 0.0073370044 10651230
0.7520389 0.43508953 0.0080211163 10651744
0.75423211 0.43749547 0.007958347 10259047
0.75480711 0.43935454 0.0081164408 10389866
0.69193113 0.34107792 0.0062539121 6573611
0.69435829 0.3440302 0.0070123072 6311212
0.69434291 0.34642929 0.006056698 6440997
0.69655532 0.3487078 0.0072292238 6045982
0.69881994 0.35012904 0.007498912 5980699
0.69983548 0.35467187 0.0055356743 6375975
0.7008478 0.35687011 0.0070300982 5521696
0.70327961 0.35959819 0.0066117859 4667163
0.73616785 0.41321635 0.00696526 9863264
0.73797423 0.41437149 0.0065728407 9404773
0.73917365 0.41817755 0.0073844339 10257244
0.74148214 0.41980663 0.0073146285 10061157
0.74223328 0.42345643 0.0064989431 9996133
0.74434805 0.42563611 0.0062692482 10192485
0.74629021 0.42788464 0.0067898417 10127207
0.74796665 0.4306106 0.0068686898 10651487
0.74936908 0.43356431 0.0066662394 10651489
0.7500056 0.43675545 0.0056096669 10585955
0.75194943 0.43778893 0.0068379585 10193000
0.75385404 0.4415099 0.0066334102 10389613
0.68847644 0.33998412 0.005315857 6967343
0.68984282 0.34227371 0.0048188227 7099186
0.69189733 0.34435451 0.0052143959 6967600
0.69258785 0.34915909 0.004434811 6770221
0.69448131 0.35033938 0.0043938775 6704427
0.69663632 0.35259297 0.0046479278 6572840
0.69786316 0.35588875 0.0032550609 6704430
0.69977248 0.35768795 0.0042870329 6244650
0.73657978 0.41707516 0.0056106253 10059610
0.73886049 0.4190729 0.0047939802 10256731
0.73818934 0.42313287 0.0043290379 10256732
0.74124253 0.42400774 0.0046676155 10388063
0.74186081 0.42768246 0.0048593581 10454112
0.74484026 0.42830893 0.0051249675 10454112
0.74526924 0.4318068 0.0053904271 10585698
0.74711519 0.43278128 0.0052763121 10520416
0.74786669 0.43584472 0.0057348358 10585953
0.75085723 0.44010988 0.0061411816 10717283
0.68708169 0.34095997 0.0022445058 7559483
0.68871814 0.34331885 0.0024708463 7427899
0.68967563 0.34554851 0.0023401398 7230777
0.69152743 0.34822398 0.0020818755 7033398
0.69205797 0.35142374 0.0022319607 6901812
0.6941604 0.35359251 0.0024861488 6704944
0.69635677 0.35652718 0.0035303528 6507564
0.68477964 0.34222719 0.0020870573 7427898
0.68727189 0.34609506 0.0024316555 7231033
0.73258823 0.36654833 0.03066824 197379
0.73498851 0.37059227 0.032080881 263680
0.73711556 0.37380132 0.030620588 329219
0.72909915 0.36435291 0.028655764 197633
0.73123986 0.36655724 0.029263128 197888
0.73332769 0.36873564 0.029977968 329219
