# .PCD v0.7 - Point Cloud Data file format
VERSION 0.7
FIELDS x y z rgba
SIZE 4 4 4 4
TYPE F F F U
COUNT 1 1 1 1
WIDTH 1152
HEIGHT 1
VIEWPOINT 0 0 0 1 0 0 0
POINTS 1152
DATA ascii
0.72384834 0.33621454 0.038125455 1841167
0.7249077 0.33789104 0.038868785 5589814
0.70118833 0.30884215 0.04089886 1117957
0.70384848 0.31011885 0.041499376 1052420
0.70500493 0.31704777 0.04054606 1315332
0.70721412 0.31843632 0.039558291 1315074
0.70926768 0.32010818 0.039165974 1249540
0.71150059 0.32311374 0.038975894 1315075
0.7133714 0.32547683 0.038065493 1380612
0.71505308 0.32816017 0.037776828 1315074
0.71664119 0.33026141 0.037454844 1446148
0.71793675 0.33298996 0.037331522 1446148
0.71915495 0.33578575 0.037299693 1380868
0.72069979 0.3384279 0.036934614 1512452
0.72464663 0.33937049 0.035589576 6378568
0.69786537 0.30746111 0.040008664 1052424
0.702124 0.31536677 0.038397729 1381124
0.70377541 0.31683463 0.038386405 1315076
0.70596802 0.31945753 0.03814888 1117955
0.70755422 0.32195404 0.037554264 855298
0.7092216 0.32420599 0.037230551 723713
0.71128666 0.32662392 0.036859393 789251
0.71260303 0.32909441 0.036579132 723460
0.71374047 0.33088505 0.03589797 723459
0.71553147 0.33391184 0.035627365 789250
0.71777153 0.33648068 0.035015345 1117699
0.72003436 0.33851933 0.035070539 1512196
0.72134727 0.34082755 0.034493864 1512197
0.72266102 0.34404469 0.03476727 1117186
0.7234875 0.34545434 0.033626556 3087114
0.69362104 0.30555677 0.038544714 1052168
0.69556057 0.30639631 0.037553847 1117704
0.69591379 0.31239659 0.038427353 1446404
0.69817674 0.31332529 0.037537217 1380613
0.70040333 0.31550682 0.037388921 1118211
0.70203733 0.31816572 0.036689758 723971
0.70442742 0.32030845 0.036386669 723714
0.70598674 0.32168245 0.035593748 723714
0.71341097 0.33294934 0.03463614 658179
0.71475923 0.33577257 0.034755111 723716
0.71530616 0.33775499 0.032834351 658179
0.71674645 0.34013516 0.033305824 723459
0.71775144 0.34214234 0.032778144 788995
0.72174555 0.34449041 0.03240639 1446405
0.72325706 0.34733343 0.032958746 1444608
0.72392666 0.34954667 0.031348467 4139286
0.68806088 0.3037478 0.037166357 1117705
0.69029498 0.30428901 0.037334323 1117703
0.69310457 0.31091994 0.036335051 1446405
0.6948427 0.31226134 0.036599517 1380612
0.6963011 0.31438214 0.035820782 855301
0.69842136 0.31655902 0.035318494 723715
0.70088673 0.31827104 0.03491962 789251
0.71629328 0.34117836 0.031998873 592643
0.71746296 0.34388244 0.030851364 657922
0.71808922 0.34635693 0.030451894 657922
0.71883821 0.34948295 0.030678868 788994
0.6857565 0.30365872 0.035973966 1117704
0.69099629 0.31116009 0.034659922 1183747
0.69274199 0.31312791 0.034794688 920835
0.69449735 0.31493539 0.034070253 855042
0.71736538 0.34815171 0.029829502 592641
0.71801519 0.35018957 0.028750837 658178
0.71954226 0.35243434 0.028116584 788482
0.7198025 0.35489851 0.028229058 1050370
0.68138874 0.30408829 0.035350561 1117705
0.6833849 0.30381525 0.034507394 1117703
0.68696773 0.31040782 0.033909023 1249539
0.6888926 0.31155777 0.03321135 1052419
0.69046021 0.31353068 0.033048511 920578
0.71782333 0.35316533 0.026785374 723714
0.71864206 0.35625648 0.025322974 592386
0.71960562 0.3574262 0.024912477 1313282
0.67940605 0.30396134 0.033765793 1117958
0.68177909 0.30401474 0.033511519 1183496
0.68493539 0.31074667 0.032128572 1118210
0.68693525 0.31265867 0.032256365 854786
0.67746377 0.30422264 0.032111526 1117959
0.68110049 0.31026059 0.030903697 1249539
0.68260926 0.31118816 0.030957162 986370
0.67531443 0.30476999 0.030095458 1117958
0.67655045 0.31037045 0.029689789 921608
0.67877936 0.31052113 0.029146075 1315075
0.68091208 0.31121063 0.029081106 920834
0.67275441 0.30574247 0.028481901 1117958
0.67548323 0.31052259 0.028400898 1380869
0.67650199 0.31089705 0.027830005 1183491
0.67030281 0.3070406 0.027327895 1249287
0.67064428 0.30684507 0.025282145 1183494
0.67351568 0.31128466 0.02652961 1249540
0.67366117 0.31212497 0.025732994 855043
0.66845107 0.3075673 0.025809944 1314824
0.6710943 0.31189752 0.024845541 1117961
0.66523528 0.3091698 0.024076402 1445895
0.66542995 0.31086382 0.024433315 6051611
0.66857886 0.31252372 0.023492098 1249798
0.66331881 0.30942962 0.02290076 1577224
0.6640569 0.31281322 0.021397769 4077326
0.6662277 0.31282806 0.021817267 2038533
0.66100752 0.31021494 0.02066958 1971210
0.6632731 0.3133319 0.019793153 3156236
0.66127992 0.31351823 0.018090367 4603406
0.63400948 0.34311503 -0.0094788074 6245400
0.63597679 0.34430802 -0.0092939138 5850649
0.63830036 0.34656626 -0.0097011924 5718802
0.62848788 0.33982357 -0.010051429 7035172
0.63060594 0.3408941 -0.0096120834 6772255
0.63176876 0.34349278 -0.009776473 6443543
0.63341486 0.34653035 -0.010225594 6113813
0.63595176 0.34806722 -0.010297775 5785617
0.63682741 0.35079795 -0.010665715 5259275
0.62681901 0.34010369 -0.010813773 7364129
0.62828887 0.34230018 -0.011118293 7035426
0.6299746 0.3447338 -0.011161208 6772247
0.63095546 0.34731328 -0.011960626 6443794
0.63299 0.35034227 -0.011327386 6180362
0.62463874 0.34116983 -0.011379004 7495972
0.62623644 0.34401494 -0.01171273 7364902
0.62798679 0.3467949 -0.013952017 6706711
0.62968504 0.34764051 -0.014030457 6771731
0.62989461 0.3506628 -0.014074326 6640920
0.62402356 0.34500772 -0.014386415 7298594
0.62558424 0.34728044 -0.014137924 6904091
0.62703097 0.34965572 -0.014237642 6706710
0.62822199 0.35367709 -0.014539003 6575127
0.6217674 0.34605294 -0.014897108 7560992
0.62394774 0.34990206 -0.015121162 7100952
0.71896005 0.32667214 0.045980334 1183752
0.70763719 0.31279749 0.045722604 1052428
0.70953208 0.31492901 0.045999646 1052425
0.71148211 0.31661332 0.045753419 1052424
0.71324456 0.31882739 0.045480728 1052426
0.71517646 0.32127422 0.045095026 1249293
0.71729016 0.3241367 0.044775784 1183755
0.71868175 0.32657588 0.043828964 1118220
0.72012734 0.32921118 0.043318033 1184008
0.72124875 0.33140993 0.04264164 1315588
0.72244799 0.33398831 0.042504787 1249541
0.72387773 0.33702996 0.042556047 2104852
0.70219111 0.30893686 0.044585168 1052421
0.70468199 0.31059185 0.044736385 1052167
0.70621163 0.31193322 0.045699298 1052681
0.70891827 0.31960893 0.04343015 1380868
0.71012306 0.32073903 0.043034375 1315077
0.71182334 0.32228607 0.042775095 1380868
0.71387923 0.32557526 0.042967498 1446405
0.71547186 0.32775056 0.041862726 1446404
0.71680319 0.33056435 0.041725039 1446403
0.71869016 0.33299398 0.041295707 1512196
0.71912193 0.33515936 0.041414917 1380868
0.72462887 0.33812863 0.040681481 4602918
0.69852173 0.30727363 0.044141114 1052425
0.70035779 0.30805126 0.044223309 1117960
0.70350647 0.31613415 0.042939723 1446406
0.70474339 0.31744757 0.042682111 1249541
0.70705485 0.31949103 0.042404473 1249539
0.70870793 0.32213101 0.041789234 1052418
0.70984876 0.32468349 0.041181564 855299
0.71157181 0.3269679 0.040634871 986626
0.71276456 0.32942694 0.040146768 789250
0.71510661 0.33139697 0.039883435 1051906
0.71654928 0.3338857 0.040066183 986370
0.71867514 0.3365925 0.039525449 1183491
0.7207278 0.33948866 0.03922087 1446660
0.72148198 0.34133565 0.038407624 1512196
0.7229501 0.34489292 0.037971973 1774086
0.72441113 0.34683067 0.038498223 6837038
0.69445145 0.30611503 0.042739987 1117704
0.69669974 0.3071202 0.042566121 1117959
0.69903433 0.31401402 0.041572452 1380872
0.70110571 0.31540936 0.04161334 1315078
0.7030471 0.31809348 0.040612936 986628
0.7046209 0.32070816 0.040064335 723714
0.70656234 0.32252657 0.04038769 657923
0.70887506 0.32512161 0.039980054 723715
0.71069914 0.32691908 0.0392735 788994
0.71187377 0.33002838 0.039046764 658181
0.71345544 0.33285534 0.03840667 658179
0.71537673 0.33534336 0.037854016 723459
0.71631539 0.33811319 0.03790617 723459
0.71775234 0.34045541 0.036701083 788996
0.71822494 0.34374267 0.037140191 788995
0.72195059 0.34407541 0.0367558 1380613
0.723535 0.34780166 0.035777569 3351056
0.69100559 0.30513573 0.041552961 1117960
0.69288254 0.30557597 0.04084897 1117959
0.69566369 0.31256387 0.040935874 1446405
0.69716895 0.31440514 0.039912045 1117955
0.69929701 0.31710428 0.039630532 723716
0.70136285 0.31880453 0.03885448 789251
0.70352912 0.32039523 0.038434982 855042
0.71555674 0.33842838 0.035296619 658181
0.71621716 0.34110409 0.035761952 592642
0.71718895 0.34393829 0.035116732 657922
0.71833003 0.3459585 0.033920109 788995
0.68713343 0.30400532 0.040152907 1117960
0.68912923 0.30464041 0.040402412 1118213
0.6895861 0.31044215 0.039723575 1577735
0.69213617 0.31099761 0.039167345 1512198
0.69367439 0.31330293 0.038766742 1052419
0.69580781 0.31513181 0.038298726 855045
0.69795644 0.31673434 0.038382828 789253
0.71686137 0.34448478 0.032960474 592386
0.71789384 0.34701854 0.033736169 592388
0.71845698 0.35026997 0.032820344 723458
0.71978748 0.35446304 0.03227973 919042
0.68278289 0.30388078 0.038433373 1183495
0.68499315 0.30389237 0.038242221 1117704
0.68775845 0.31046 0.037798882 1446404
0.69001472 0.31216609 0.037617326 1117955
0.69244558 0.31370363 0.03720212 1052163
0.71856844 0.35419154 0.030244708 723458
0.71935177 0.35649544 0.030182898 985089
0.68103707 0.30436647 0.037108123 1183494
0.68304473 0.30376586 0.03655237 1117703
0.68632078 0.31107745 0.036193907 1052419
0.68791676 0.31272227 0.036038637 855044
0.71938503 0.35721081 0.027946472 657154
0.71914327 0.35863519 0.028952837 1707268
0.67860627 0.30446106 0.035764635 1117958
0.68221313 0.31061244 0.034900248 1052675
0.6835807 0.31129646 0.034821928 1052418
0.67608559 0.30471885 0.034297645 1183495
0.67959523 0.31092194 0.033428371 1118210
0.68218434 0.31156904 0.033648729 920578
0.67310315 0.30585185 0.032907069 1183493
0.67616296 0.31052402 0.032037377 1184258
0.67756248 0.31133109 0.031703174 1052161
0.67090607 0.30680662 0.031073034 1183495
0.67418635 0.31110114 0.030495048 1184260
0.6751231 0.31187308 0.029962897 855043
0.66874528 0.30774087 0.029266596 1249287
0.67171472 0.31186861 0.028296232 1315077
0.6664415 0.308792 0.026949346 1314822
0.66855919 0.31168276 0.028338075 1974293
0.66902244 0.31261858 0.026919961 1249285
0.66346478 0.31019694 0.025630653 1577482
0.66553795 0.31217569 0.026028216 4407317
0.66664171 0.31315321 0.025281847 1577733
0.66265792 0.31046164 0.024625063 4405272
0.66396344 0.31360638 0.024160922 2695431
0.65797162 0.31091288 0.02316916 3681283
0.65952992 0.31198135 0.023379207 3812362
0.66149026 0.31449953 0.022041559 2892294
0.63455534 0.35028312 -0.0096307397 5982228
0.62813079 0.3466 -0.010387421 6705955
0.63011944 0.34845901 -0.0098910928 6376982
0.63216341 0.35072723 -0.0096495152 6113811
0.63346171 0.35361773 -0.010397196 5917706
0.63527721 0.3559159 -0.010240197 5916174
0.62483442 0.34457368 -0.010564208 7233059
0.62614298 0.34712839 -0.010575891 6903327
0.62819022 0.34951448 -0.010977149 6574867
0.63012755 0.35187912 -0.011218846 6377995
0.63072538 0.35451311 -0.010520339 6443278
0.62264967 0.34599435 -0.011345804 7430953
0.62339789 0.34878489 -0.011501133 7232537
0.62578094 0.35041273 -0.012542188 6772757
0.62651527 0.35289291 -0.014494717 6706454
0.62066364 0.34729514 -0.013611495 7430951
0.62211984 0.3495504 -0.014416635 7167263
0.6236614 0.35234648 -0.014029145 6838554
0.62514436 0.35566208 -0.01445055 6772244
0.62657809 0.35624141 -0.014647961 6641425
0.61971337 0.3511728 -0.014756739 7298331
0.62340343 0.3551231 -0.014542937 6772243
0.71028674 0.31582016 0.049165547 1052425
0.71198332 0.31752858 0.049513459 1052424
0.71389067 0.31976706 0.049309015 1052427
0.71576393 0.32188958 0.049124599 1183754
0.71710122 0.32373774 0.047813833 1184008
0.71871257 0.3265619 0.048039258 1118725
0.71996522 0.32936603 0.047635615 1183750
0.72096753 0.33169371 0.046878874 1184260
0.70223051 0.30949262 0.04934001 1117962
0.70448625 0.31093478 0.048729062 1052169
0.70699996 0.31285653 0.048511744 986634
0.70894307 0.31466103 0.047909856 1052425
0.71063364 0.32182795 0.047786295 1381126
0.71247852 0.32343057 0.047347069 1381126
0.71432936 0.32548457 0.046325564 1512197
0.71622664 0.32835114 0.046506584 1577734
0.71784747 0.33093232 0.046147466 1577989
0.71997172 0.33346313 0.045328021 1381380
0.72245967 0.33487797 0.045049071 1118469
0.72360325 0.33737439 0.044925511 1775890
0.72469831 0.33997256 0.044850111 5590320
0.69917393 0.30814832 0.048034549 1052168
0.70137233 0.30903062 0.047896683 1052424
0.70375466 0.31587452 0.047679067 1446407
0.70601088 0.31733203 0.046559036 1380614
0.70799065 0.31947374 0.045870423 1315075
0.70961094 0.32210711 0.045807123 1315076
0.71169835 0.32349578 0.045025587 1380868
0.71346343 0.32643592 0.045420408 1380613
0.71557033 0.32869452 0.04460448 1446405
0.71712363 0.33129185 0.044376731 1446404
0.71853197 0.33393773 0.043711126 1315331
0.71957999 0.33713552 0.043308973 1380869
0.72082633 0.33969527 0.042688191 1512457
0.72205198 0.34228763 0.042496562 1314822
0.69517285 0.30656677 0.047076344 1117960
0.69751346 0.30739528 0.046952784 1052425
0.7001375 0.3141703 0.045307517 1380870
0.70264661 0.31586373 0.045205891 1380613
0.70450538 0.31790775 0.04510361 1315078
0.70551103 0.32084507 0.044619262 855299
0.70744175 0.32348579 0.044792712 658179
0.70910579 0.32549286 0.043734133 723714
0.71087205 0.3277787 0.042942464 723715
0.71244013 0.330367 0.043288589 723716
0.71413618 0.33316454 0.042570651 723716
0.71532595 0.33595443 0.042254925 723460
0.71760046 0.33764181 0.041567266 1051908
0.71918762 0.33991012 0.041142762 1183746
0.72073281 0.34263778 0.041626215 1512196
0.7225762 0.34486914 0.040412903 1708294
0.72377861 0.34812737 0.040470719 4206361
0.69168603 0.30564201 0.045802355 1117961
0.69357491 0.3059935 0.045228601 1183494
0.69625604 0.31243023 0.045132399 1511941
0.69813305 0.31443107 0.043765128 1315076
0.69983339 0.31697884 0.043735921 921091
0.70167756 0.31886509 0.043301463 723971
0.7039656 0.32051176 0.043275356 723715
0.70612633 0.3232708 0.043017268 723458
0.71479118 0.33546865 0.040200591 658179
0.71613717 0.33929962 0.040128231 592644
0.71739197 0.34163779 0.039680719 658179
0.71751642 0.34403914 0.039019704 723716
0.72319078 0.34853882 0.038649321 1443840
0.68747282 0.30488294 0.044763625 1117960
0.68946224 0.30507821 0.044274569 1117960
0.69235754 0.31085443 0.042622566 1512199
0.69454324 0.31315815 0.042672575 1249540
0.69651759 0.31570399 0.042198181 855299
0.69849449 0.31712127 0.042490423 789508
0.71727824 0.34514216 0.03842479 592388
0.71791947 0.34739903 0.037192225 657923
0.7189604 0.34995431 0.036395311 854787
0.68537539 0.30436856 0.042938888 1183496
0.68994009 0.31023157 0.04218334 1446663
0.69108701 0.31298286 0.041535854 1052420
0.69276071 0.31386113 0.041405201 920835
0.69466937 0.3149147 0.04047668 790017
0.71771467 0.34880847 0.035382867 658180
0.71792138 0.3512851 0.035726428 657922
0.71965289 0.35289204 0.034835637 788481
0.72078937 0.35687578 0.032553494 3414542
0.6819278 0.30417934 0.041475177 1183495
0.68421566 0.30387774 0.041434586 1183498
0.68686342 0.31104645 0.03987962 1183748
0.68875366 0.31248319 0.040332913 921091
0.71805072 0.35499871 0.034333825 789506
0.71890581 0.35743651 0.033006787 1182210
0.6796844 0.30448878 0.03922677 1183495
0.68355489 0.31001961 0.039158165 1512198
0.68471396 0.31178832 0.038968623 986627
0.68677807 0.31271952 0.038220882 855043
0.71924317 0.35977393 0.030385733 3941393
0.67543232 0.3051523 0.038018584 1183494
0.67738461 0.30467087 0.038348913 1117960
0.68099397 0.31107825 0.037371874 1183747
0.68310314 0.31194812 0.037610352 1117954
0.67345083 0.30588251 0.036459625 1183492
0.67575103 0.30487442 0.036123514 1183495
0.67892635 0.3113775 0.03605181 1117954
0.67265296 0.30635464 0.034506857 1249029
0.67539221 0.31128681 0.034750998 1249538
0.67673612 0.31174478 0.034084022 1183489
0.66925687 0.30764633 0.033870339 1249031
0.67254889 0.31189978 0.032820463 1249540
0.66695547 0.30898941 0.031735003 1314823
0.66920912 0.31139076 0.031162918 1908492
0.67004031 0.31271759 0.031169891 1249797
0.6650663 0.31028414 0.030409515 3287825
0.66662228 0.31231558 0.02951932 3420429
0.6685679 0.31322974 0.029648304 1314820
0.66286385 0.31077725 0.028212249 1576975
0.66490293 0.31350851 0.028783143 2235397
0.66029119 0.31132054 0.026782572 2299400
0.66227013 0.31392011 0.026714861 4142604
0.65736139 0.31167704 0.02571696 4470020
0.65949488 0.31499591 0.025284767 4997134
0.63281113 0.3550702 -0.0092381239 6114070
0.63383269 0.3561781 -0.0094081163 6048019
0.6265108 0.35097858 -0.0097346306 6508827
0.62926233 0.35317665 -0.0098448992 6245399
0.62997967 0.35557407 -0.009478569 6179609
0.63214195 0.3575156 -0.0089994669 6113814
0.63317764 0.36042044 -0.009314537 6310678
0.62111574 0.34723201 -0.010326564 7298338
0.62370777 0.34951693 -0.010192275 6772259
0.62422097 0.35237736 -0.010212362 6771994
0.6265192 0.35441753 -0.010565579 6574610
0.62839067 0.35684994 -0.010791242 6509069
0.62933409 0.35873204 -0.010650039 6443788
0.62990737 0.36134979 -0.011290967 5918475
0.62125057 0.35070312 -0.010424137 7035169
0.62267828 0.3533935 -0.01117301 7034645
0.61838782 0.35297436 -0.014216542 7167265
0.62071133 0.35400331 -0.013293326 7035415
0.71397877 0.32000923 0.053269744 1052424
0.71529937 0.32207674 0.053502679 1117960
0.71725804 0.32502937 0.052457213 1118216
0.70517147 0.31235278 0.05300355 1117962
0.70699811 0.31344649 0.052167535 986630
0.70921969 0.31546882 0.051947832 1052421
0.711281 0.31724426 0.052105427 1052423
0.71307045 0.31908908 0.052431345 1052426
0.71431661 0.3232016 0.051413953 1249543
0.71661413 0.32556331 0.050528347 1249543
0.71809226 0.32826507 0.050567269 1249542
0.72001904 0.33041036 0.050812483 1184263
0.72103322 0.33301789 0.049823225 1315590
0.72214735 0.33570701 0.049004197 1249800
0.72418225 0.33836406 0.048969984 3157023
0.69958901 0.30865204 0.05266273 1052423
0.70227075 0.31011653 0.052058637 1117960
0.70453936 0.31155044 0.051917315 1052424
0.70638239 0.31765407 0.050506473 1446404
0.70822048 0.31943119 0.049796462 1446403
0.71068484 0.32210743 0.04973805 1446660
0.71151555 0.3241936 0.049785554 1315076
0.71384382 0.32655102 0.049004018 1380870
0.71591449 0.32940415 0.048571408 1446405
0.71735764 0.33209532 0.048649073 1511942
0.71854734 0.33411449 0.047840714 1512196
0.72151971 0.33688489 0.047860503 1381130
0.72232193 0.33897448 0.046799839 1775373
0.7227338 0.34315962 0.047255456 920579
0.69636261 0.30737668 0.050816417 1117960
0.69821668 0.30798376 0.051051497 1117959
0.70060456 0.30903018 0.050965488 1118215
0.70026278 0.31370565 0.050148547 1446662
0.7029646 0.31531188 0.04993999 1446405
0.7046988 0.31823155 0.049257398 1380614
0.7069906 0.32060263 0.048657954 1314822
0.70834315 0.32322204 0.048666239 986628
0.7094388 0.32545424 0.048139095 854786
0.71132219 0.32799038 0.047727883 789508
0.71276331 0.33077514 0.046581864 723716
0.71388316 0.33344102 0.047007322 723717
0.71649945 0.3350684 0.046443582 1117700
0.71907127 0.33700883 0.045866847 1511941
0.71971822 0.33998656 0.045499861 1512197
0.72231114 0.34253103 0.045355797 1314821
0.72365439 0.34504947 0.045075178 2298375
0.72445488 0.34716028 0.043760478 6968369
0.6919567 0.30617195 0.050489545 1117957
0.69425291 0.3067866 0.050176084 1117958
0.69804692 0.31275982 0.048933089 1446406
0.69990253 0.31420243 0.047545552 1446406
0.70111144 0.31681335 0.047903419 1249284
0.70254135 0.3193047 0.047406316 789762
0.70466685 0.32154131 0.047326982 723714
0.70663488 0.32354331 0.046553612 723459
0.70856357 0.32559323 0.0460127 658178
0.71063232 0.32817614 0.045788407 723458
0.71278656 0.33197051 0.045619011 658181
0.71359336 0.33335197 0.044725418 723717
0.71523428 0.336254 0.044999242 723715
0.71637094 0.33910501 0.044148803 723716
0.71788692 0.34132561 0.044036984 920579
0.71903038 0.34335643 0.043951273 1052163
0.72220206 0.34613919 0.043626308 1249026
0.72330892 0.3492201 0.04262197 1969668
0.69050163 0.30557442 0.048815787 1052165
0.69180524 0.31018221 0.047480345 1446407
0.69404846 0.31133652 0.047453523 1446405
0.69549417 0.31348783 0.04722029 1380867
0.69720685 0.31593773 0.046560049 986626
0.69927585 0.31772369 0.046202362 789508
0.70160568 0.31944183 0.045984566 789251
0.71692812 0.34202504 0.042210698 658178
0.71805584 0.34487966 0.041782618 723716
0.71839756 0.34853411 0.041108549 788995
0.68635666 0.30504072 0.046837687 1052165
0.68929559 0.30986643 0.04666394 1446404
0.69213337 0.31159383 0.045004964 1380869
0.69339955 0.31411636 0.045393348 921091
0.69528246 0.31564552 0.045028746 789506
0.71751797 0.3480168 0.039864123 657924
0.71833849 0.35115069 0.039077759 723715
0.72021532 0.35432684 0.039048612 919298
0.68278283 0.30454916 0.046118736 1052165
0.68508267 0.30472484 0.045809567 1052421
0.68633163 0.30991706 0.045448303 1446402
0.68868929 0.3108986 0.04432714 1380866
0.68966222 0.3130092 0.044033527 855299
0.69167101 0.31406987 0.044539571 789253
0.71829665 0.35495025 0.036965311 723714
0.71945417 0.35828257 0.03716743 1312771
0.68066955 0.30455825 0.044323206 1117703
0.68435216 0.30993372 0.043632805 1380867
0.68611884 0.31229737 0.042749345 921091
0.68787152 0.31315956 0.04254061 789252
0.71877033 0.35771394 0.035294175 722689
0.67661357 0.30518168 0.043189049 1117959
0.67848217 0.30494601 0.043176413 1117703
0.68146485 0.31109706 0.041443765 1184002
0.68318582 0.31206298 0.0412485 855297
0.67503047 0.30550838 0.040806413 1117957
0.67684793 0.30527195 0.04095149 1117960
0.67948818 0.31157112 0.039870858 1052674
0.67304909 0.30623865 0.039247394 1117957
0.67575419 0.31176612 0.038479209 1052675
0.6777271 0.31190947 0.038155198 921090
0.67100036 0.30721453 0.037414134 1183492
0.67396152 0.31183168 0.037139356 1118211
0.6687901 0.30810428 0.036637545 1249287
0.66977268 0.31213546 0.035137892 1250056
0.67128825 0.31249681 0.035524011 1117958
0.66622293 0.30974966 0.035257459 1249542
0.66739094 0.31218302 0.033979893 3157262
0.66860998 0.31327945 0.033165097 1117960
0.66426027 0.31070462 0.033658087 3353880
0.66511416 0.31388277 0.032757044 2038277
0.66699266 0.31382895 0.031263828 1381126
0.66130781 0.31129944 0.031513751 1774092
0.66326582 0.31421441 0.030547082 3419145
0.65820742 0.31143788 0.029318988 3943944
0.66002375 0.31499863 0.029302895 4931852
0.65660107 0.31239623 0.029246032 5062408
0.63082904 0.35987693 -0.008970201 6244888
0.62537009 0.35625869 -0.0094131231 6442778
0.62759387 0.35765696 -0.009143889 6310685
0.61844832 0.35061193 -0.0096912384 7365158
0.62009215 0.35241532 -0.0093547106 6903587
0.62207735 0.35486782 -0.0093531013 6706205
0.61765289 0.35317433 -0.010016024 7100705
0.70808959 0.31513053 0.05681777 1052426
0.71006584 0.31640804 0.056176543 986631
0.71216309 0.31849262 0.055502057 986631
0.71420622 0.32067472 0.056088984 1117959
0.71607625 0.32350069 0.056155324 1118216
0.71726173 0.32510191 0.05519557 1183756
0.71851957 0.32787219 0.054729998 1183756
0.71963429 0.33030516 0.053207278 1249802
0.72095853 0.33363718 0.053732932 1381128
0.72274935 0.33679008 0.053600848 1118214
0.70334637 0.31130964 0.057002485 1118216
0.70462644 0.31228906 0.055988431 1052425
0.7070415 0.31408918 0.05539453 986889
0.70939124 0.31575602 0.054834247 1052423
0.70887566 0.31983453 0.055257618 1511940
0.71094882 0.32153463 0.053545713 1380612
0.71349561 0.32421014 0.053831041 1380869
0.71531731 0.32697582 0.053508937 1446407
0.71662676 0.32980132 0.052909911 1446662
0.7175765 0.33144224 0.051958323 1446662
0.71881324 0.33444774 0.052358866 1512196
0.72188884 0.33556694 0.051841319 1315593
0.72382379 0.33898771 0.051202536 2630938
0.72480339 0.34091276 0.050753534 7233852
0.69929886 0.30884844 0.054550767 1117961
0.70177174 0.31026798 0.054869354 1117960
0.70237124 0.31494746 0.054262877 1446918
0.70414388 0.31600696 0.053427696 1380868
0.70589715 0.31719482 0.052803516 1446404
0.70788419 0.32058823 0.053024769 1380612
0.70919466 0.32365918 0.052324176 1052419
0.7112329 0.32559741 0.052765131 1052420
0.71285081 0.32780623 0.051848412 1183749
0.71415538 0.33056861 0.051783741 1183748
0.71643031 0.33218753 0.051241159 1446403
0.71839052 0.3350032 0.050425351 1512196
0.71911931 0.3376357 0.049710751 1512197
0.72082192 0.33969051 0.050215602 1643528
0.7220099 0.34234726 0.049002945 1315075
0.72398311 0.34591627 0.048815966 4337179
0.72458875 0.34667933 0.04739964 6836280
0.69520307 0.30738229 0.053530753 1052170
0.69748223 0.30790132 0.054257512 1117709
0.69810212 0.31285182 0.052010596 1512199
0.70041978 0.31404462 0.052790105 1446663
0.70217299 0.31681874 0.051914752 1380871
0.70350277 0.31977403 0.051702023 986372
0.70590687 0.32214236 0.05142498 855043
0.70740628 0.32411981 0.050474644 723715
0.70950609 0.32661733 0.050418496 657923
0.71125579 0.32919157 0.050307155 723460
0.71272248 0.33118945 0.04958868 723716
0.71407425 0.33390015 0.049511015 723717
0.71537197 0.33647835 0.049225926 658179
0.71627736 0.33881351 0.048155665 789251
0.7186414 0.34128574 0.048136532 1315076
0.72042763 0.34381369 0.047640622 1512195
0.72267395 0.34680587 0.047423124 1248258
0.69186449 0.30627373 0.052499473 1052166
0.69482851 0.31173447 0.051703036 1446660
0.69614285 0.31309041 0.051026881 1446403
0.69793302 0.31598303 0.050589025 1117956
0.69988549 0.31814757 0.050476015 855299
0.70226651 0.32002455 0.049741924 723970
0.70438468 0.32132238 0.049321234 723970
0.71672332 0.33986515 0.046872795 789251
0.71754634 0.34206328 0.046952724 789507
0.71815813 0.34491119 0.046539426 789506
0.71874392 0.34734973 0.045822322 855043
0.68760872 0.30527416 0.050040364 1052167
0.68906641 0.30562347 0.05154556 1117956
0.69077981 0.3107577 0.050890923 1380869
0.69313866 0.31143668 0.049726367 1446405
0.69427902 0.3150135 0.049442291 986625
0.69641483 0.31613249 0.049222946 920835
0.69881296 0.31813139 0.049160838 855043
0.71767926 0.34567729 0.043819964 723716
0.71830553 0.34812927 0.044014275 723715
0.71936631 0.35122943 0.043906987 789250
0.72118878 0.35432553 0.04289937 1246721
0.68560034 0.30497339 0.049539983 1052422
0.68915045 0.31010395 0.048662722 1446405
0.69063932 0.31355962 0.047965765 921091
0.692945 0.31474265 0.047885656 789506
0.71830916 0.35260049 0.04174459 723713
0.71973169 0.35473615 0.042074323 788993
0.72040522 0.35710818 0.041845143 919041
0.68193775 0.30484337 0.04841888 1052166
0.68566382 0.30968195 0.047607899 1315331
0.68707001 0.3124809 0.046937048 921089
0.68863559 0.31298453 0.047204792 921090
0.67877686 0.30499709 0.046632648 1117449
0.68253088 0.30985409 0.046433032 1315332
0.68456233 0.31262362 0.045315206 855041
0.67635179 0.30529648 0.045070171 1052166
0.67953897 0.3102324 0.044861257 1381125
0.68072546 0.31222576 0.043757796 855553
0.68263805 0.3129648 0.044232547 789248
0.67325449 0.30628562 0.043815851 1117702
0.67684329 0.31115544 0.042619586 1118466
0.67801607 0.31232643 0.042722464 921090
0.67134869 0.30707768 0.042202353 1117958
0.67486525 0.31171286 0.040843368 1052676
0.66906667 0.30817688 0.039770961 1183750
0.67039812 0.31206119 0.039968908 987402
0.67237788 0.31240708 0.039567232 1183747
0.66940612 0.31240344 0.037904978 1446919
0.67010295 0.31325686 0.038066745 986885
0.66461456 0.31123698 0.036755681 4275225
0.66611898 0.31328142 0.036728859 2630667
0.66800714 0.31385869 0.036110699 1052166
0.66258311 0.31154847 0.035225868 4471577
0.66361606 0.3142688 0.035141408 3090185
0.65879571 0.31187496 0.033760071 3417862
0.66246885 0.31438249 0.033023417 4011021
0.6573385 0.31610611 0.031913102 5917959
0.65998226 0.31526068 0.032270551 4207878
0.70882595 0.31499648 0.061367452 986635
0.7104646 0.31686363 0.060941875 1117960
0.71262676 0.31885755 0.059978843 1052425
0.714342 0.3214795 0.059766829 1118217
0.71568495 0.32305932 0.059338868 1118215
0.71717727 0.32601258 0.059483945 1183754
0.7185663 0.32872927 0.058986783 1249549
0.71941358 0.33036852 0.058350682 1249801
0.70600879 0.31306756 0.060221374 986889
0.70735282 0.31420511 0.059828579 986890
0.70954996 0.31590593 0.059086859 1052170
0.71076423 0.31944391 0.058912158 1249289
0.71301591 0.32123327 0.058193743 1183750
0.71380711 0.32397449 0.057597756 1315077
0.71544862 0.32752278 0.057017624 1446407
0.7178266 0.3287859 0.057225227 1315083
0.71907037 0.33150217 0.056617498 1315592
0.72072756 0.33352685 0.055860579 1315848
0.72258294 0.33663708 0.056367397 1249801
0.72440422 0.33879012 0.056153119 3748638
0.70184648 0.31074724 0.058161139 1052424
0.70423055 0.31212401 0.05897367 1052425
0.70471025 0.3173157 0.05763346 1512198
0.7070719 0.3188138 0.056706369 1446405
0.70876521 0.32007307 0.057029843 1446407
0.71032691 0.32259989 0.056587815 1380612
0.71199524 0.32552266 0.055873811 1315332
0.71277988 0.32799819 0.055392742 1315586
0.71516895 0.33055127 0.055388391 1380869
0.71705759 0.33262485 0.054648757 1446405
0.71832854 0.33540756 0.054567933 1512197
0.71992463 0.33771545 0.053480864 1643271
0.7209934 0.34096617 0.053558588 1775367
0.72255284 0.34350628 0.053189814 1183235
0.69683468 0.30821604 0.056886017 1183501
0.69879717 0.3090204 0.057289422 1117963
0.70073056 0.31007379 0.056464076 1117964
0.70138162 0.31530145 0.056828141 1577734
0.70285916 0.31688207 0.056404233 1512198
0.70493835 0.31898436 0.055449188 1315332
0.70607114 0.32218742 0.05564487 855299
0.70792055 0.32398909 0.055390775 855043
0.70997655 0.32661456 0.054471731 789507
0.71174896 0.32923865 0.053724766 789509
0.71302259 0.33167014 0.053841233 723716
0.71476942 0.33420002 0.053316653 855300
0.71568012 0.33720189 0.053051293 723970
0.71829116 0.33915871 0.052894294 1249540
0.719127 0.3411479 0.051352739 1577989
0.72164166 0.34373862 0.05154258 1446148
0.72368109 0.34647888 0.051034808 3350800
0.6926496 0.30679065 0.055742085 1117958
0.69470036 0.3074418 0.056323946 1117962
0.69479656 0.31204718 0.055783629 1381125
0.69740188 0.31324655 0.055039763 1381125
0.69903046 0.31521496 0.054847062 1380869
0.70089066 0.31829122 0.054633498 986628
0.7029736 0.32031676 0.054109156 723972
0.7051053 0.32194489 0.053452194 723972
0.70747441 0.32477355 0.053495705 789251
0.7087236 0.32596678 0.052544057 788995
0.71470988 0.33551222 0.051491559 854786
0.71566457 0.33780414 0.051194727 723970
0.71648359 0.33969995 0.051147699 855042
0.71744025 0.34271476 0.050361037 789507
0.71897459 0.34492037 0.049892187 1183490
0.72169995 0.34677938 0.049838364 1446404
0.6882686 0.30589312 0.055155396 1118214
0.69049489 0.30646658 0.054858625 1052168
0.69150126 0.31133986 0.054900408 1446660
0.69366914 0.31191164 0.053969204 1446659
0.6952287 0.31471071 0.053504109 986882
0.69735557 0.31657702 0.053304791 855298
0.69941974 0.31861091 0.053185344 789252
0.71816146 0.34680277 0.049814999 789507
0.71861875 0.34842718 0.048196256 789506
0.71927989 0.3511039 0.047156155 986372
0.72019184 0.35367984 0.047306478 656897
0.68673658 0.30550775 0.053413391 1117957
0.68953478 0.3110528 0.052390218 1380866
0.69152844 0.31317574 0.052611172 1052674
0.69298959 0.31475282 0.051823616 920834
0.71836972 0.35020489 0.046063721 789251
0.71909511 0.35260573 0.046422005 789250
0.72017038 0.35540128 0.045279205 919553
0.72056985 0.35674804 0.045986176 985090
0.68320656 0.3050825 0.052041769 1117702
0.6865297 0.31010401 0.05085516 1380867
0.68766201 0.31212708 0.051044762 986883
0.6893568 0.31394267 0.050645411 723970
0.71892047 0.35446113 0.043759227 855041
0.68012619 0.30514652 0.050732851 1117703
0.68360287 0.31065416 0.049867988 1184002
0.6854251 0.31266648 0.049035132 986625
0.68780541 0.31362772 0.048956752 723969
0.6774385 0.30545294 0.048736453 1117703
0.6792618 0.3050527 0.049025238 1117704
0.68028998 0.31051064 0.048244834 1446404
0.68173325 0.31219012 0.048136711 986627
0.67512983 0.30590838 0.047497749 1117957
0.67748916 0.31112278 0.047227621 1249794
0.67892921 0.31226495 0.046575427 855299
0.67290282 0.30656368 0.045573354 1117958
0.67577684 0.31203374 0.045255005 1118210
0.6695987 0.30828577 0.044588387 1183497
0.67143559 0.31203938 0.043961704 1052936
0.67348003 0.31259999 0.043638945 1052419
0.6675415 0.3089543 0.043083787 1249544
0.66939962 0.31268847 0.042173266 1249797
0.67061013 0.31346691 0.042320728 1315075
0.66512799 0.31062448 0.0406124 1380870
0.66727257 0.31288564 0.041108608 2499596
0.66870987 0.31421596 0.040160537 1380869
0.66336948 0.31212589 0.038722754 3222548
0.66545355 0.31391138 0.039237618 2564873
0.6594348 0.31205586 0.037582338 2759429
0.66186583 0.31282178 0.037958026 5194782
0.66253263 0.31481504 0.038062871 2826756
0.65854657 0.31244498 0.03586936 3483654
0.65961021 0.31536824 0.036165774 4997389
0.66034353 0.31565785 0.036135793 4339463
0.65881699 0.31557536 0.034102321 6378778
0.72031593 0.33072531 0.062861621 1316102
0.70644808 0.31293622 0.063533425 1052173
0.70797479 0.31476182 0.06313473 1052427
0.71020031 0.31725585 0.063272536 1052424
0.71203625 0.31934431 0.063097 1117959
0.71396905 0.3217805 0.062838316 1052681
0.71578765 0.32389832 0.061951995 1184008
0.71755302 0.326509 0.062133908 1315339
0.71903396 0.32890743 0.061311066 1315338
0.72070825 0.33193761 0.061061203 1381384
0.7214877 0.33394498 0.060151339 1447176
0.72313678 0.33703661 0.059798539 1249800
0.72513336 0.33989137 0.059567988 6641718
0.70276052 0.31094611 0.063129485 1118215
0.70492077 0.31221282 0.061935008 1052169
0.70744526 0.31972528 0.061418176 1446403
0.7090987 0.32108492 0.060175896 1446405
0.7110858 0.32313251 0.061206281 1380613
0.71276522 0.32495984 0.060516357 1446150
0.71468061 0.32814592 0.05979079 1577479
0.71606946 0.33055145 0.059759617 1577735
0.71786845 0.33263576 0.058708191 1577734
0.72045505 0.33547768 0.058111787 1512455
0.71979606 0.3378405 0.058638692 1709831
0.69625092 0.30823767 0.061752915 1183755
0.69899344 0.30936858 0.061291039 1117960
0.70222056 0.31080133 0.060834765 1117958
0.70420992 0.31734526 0.060250282 1511943
0.70656955 0.31899098 0.059978366 1446405
0.70646137 0.32175621 0.059016466 1315075
0.70853621 0.32479352 0.059240222 986883
0.71058547 0.32681835 0.058768272 986882
0.71191287 0.32936907 0.058351398 789508
0.71357888 0.33146441 0.057753563 920835
0.7153616 0.33440968 0.057397544 1118211
0.7177068 0.33632413 0.057318807 1512453
0.71955931 0.33902854 0.057061911 1643781
0.72032201 0.3409242 0.055955768 1709573
0.7225498 0.34400615 0.056282163 1445891
0.7241751 0.34611028 0.055187643 4797469
0.69329238 0.30753219 0.06078881 1183500
0.6952821 0.30808896 0.060021579 1183501
0.69838107 0.31427664 0.059763968 1577479
0.70049226 0.31558397 0.058918357 1512197
0.70178556 0.31839302 0.058337688 1118213
0.70354092 0.32038829 0.058277726 921091
0.70557809 0.32255059 0.058200002 723714
0.70769757 0.32458657 0.057823062 723714
0.70956928 0.32665062 0.05682689 658435
0.71170402 0.3294788 0.056635797 854789
0.71336317 0.33234623 0.056195319 723972
0.71440077 0.33445534 0.055744886 658434
0.71568042 0.33745611 0.05586493 789506
0.71681798 0.34050974 0.054457903 789506
0.71848983 0.3434391 0.055061638 1183746
0.72035289 0.3453708 0.053964198 1840643
0.72122562 0.34846076 0.052973747 1643268
0.72269964 0.34922341 0.052948833 1378304
0.68905365 0.30661845 0.05918622 1052171
0.6913321 0.30699769 0.059040189 1117961
0.693537 0.30753994 0.05883944 1183502
0.69472241 0.31258905 0.058456779 1577991
0.69652808 0.31441593 0.058107376 1315333
0.69812411 0.31705317 0.05723393 921091
0.70008677 0.31850678 0.057818413 855043
0.71755987 0.34343922 0.05366075 855299
0.71828634 0.34594363 0.05258286 920835
0.71935719 0.34967983 0.051897645 1117443
0.72035074 0.35146165 0.051626682 986372
0.68716609 0.30636895 0.05774796 1052169
0.68922549 0.30666685 0.057181716 1117709
0.69047189 0.31141046 0.056674719 1446403
0.69285554 0.31352448 0.056761622 1249795
0.69449264 0.31532687 0.056154549 986627
0.69606638 0.31638193 0.055488229 790273
0.71793199 0.3495608 0.050821364 855299
0.71860874 0.35254207 0.049465597 855298
0.72082531 0.35475987 0.050021887 1313283
0.68326437 0.305785 0.055701673 1052165
0.68532813 0.30592912 0.05634594 1117704
0.68842965 0.31225383 0.054803312 1184002
0.6905905 0.31394774 0.055033684 855298
0.71962339 0.355757 0.047956407 789249
0.72051662 0.35773954 0.048509896 1444098
0.68116736 0.30572286 0.054920137 1117700
0.68512213 0.31064743 0.054157317 1381121
0.68652201 0.31271791 0.053607702 986627
0.67819637 0.30596974 0.054009557 1117959
0.67929739 0.30573475 0.052654088 1117958
0.68022275 0.3109225 0.053170383 1512451
0.68265021 0.31201285 0.052178144 986882
0.68434209 0.31335431 0.05233252 789251
0.67586827 0.30621141 0.051551044 1117960
0.67932439 0.31123802 0.051083863 1249538
0.6797787 0.31266466 0.050372005 986372
0.67334199 0.30675602 0.049758732 1183751
0.67690217 0.31234691 0.049617648 1052674
0.67853689 0.31276718 0.048415959 1052163
0.67126775 0.30754712 0.048185766 1183497
0.67428303 0.3127526 0.04822135 1183748
0.66913605 0.30860117 0.047245264 1314826
0.6709373 0.31276289 0.046603799 1052426
0.67187357 0.31348455 0.046249807 1117955
0.66609681 0.30996442 0.046159625 1380361
0.66872448 0.31330299 0.04459095 1118728
0.66891229 0.31452912 0.044475734 1512196
0.66492605 0.31063396 0.043605983 1577480
0.66607785 0.314024 0.043291509 2301703
0.66227221 0.31282237 0.042051494 3682071
0.66400361 0.31458616 0.041527092 3880468
0.6588338 0.3126362 0.040163934 3219718
0.66113126 0.31380996 0.040487707 5852448
0.66178668 0.31560946 0.040540278 3287302
0.6567868 0.31359071 0.038584769 4864521
0.65817088 0.31587207 0.038015127 5984011
0.65918136 0.31684566 0.039362371 4734223
0.71068275 0.31796896 0.066454887 1117959
0.71277845 0.31989551 0.067192376 1183753
0.71438503 0.32156801 0.066937625 1183753
0.71634412 0.32409072 0.066254735 1249545
0.71809357 0.32662421 0.065131307 1315083
0.71958023 0.3289592 0.064949274 1381128
0.72081238 0.33176053 0.065326273 1381384
0.7221396 0.33450276 0.0652318 1512714
0.7233355 0.33714604 0.063968837 1315594
0.70329046 0.3122977 0.06668961 1183751
0.70527959 0.31324863 0.066032529 1117961
0.70745891 0.31497467 0.065876782 1052427
0.70911515 0.31647354 0.065700769 1052422
0.71312183 0.32631439 0.064942181 1577735
0.71482074 0.32836717 0.064029872 1577732
0.7163741 0.3305012 0.063007295 1643525
0.71779007 0.33330256 0.063655198 1578247
0.72181141 0.3341608 0.063237309 1578503
0.72301638 0.33662039 0.062008142 1315592
0.7244947 0.33938912 0.062337995 4340000
0.72531521 0.34217927 0.063431859 8746565
0.69970536 0.30989403 0.065981328 1117960
0.70228416 0.31131768 0.065256476 1117959
0.70463824 0.31831622 0.063543081 1446664
0.70666748 0.32021719 0.063714683 1446404
0.7090714 0.32206368 0.063487232 1446405
0.70956814 0.3242206 0.063196898 1380869
0.7115283 0.32646495 0.06293565 1315076
0.71343207 0.32900625 0.062134445 1314820
0.71480346 0.33127153 0.062295079 1512196
0.71698153 0.33327609 0.061213136 1578245
0.71830833 0.33642572 0.061374187 1578247
0.72041297 0.33926544 0.060747981 1775366
0.72156394 0.3415809 0.059785903 1841161
0.72337538 0.3445763 0.060024261 1970435
0.72494966 0.34677622 0.059626937 7033387
0.69590265 0.30859378 0.06461513 1117962
0.69872916 0.3091799 0.064432442 1183753
0.69913602 0.31510466 0.06354773 1512196
0.70114076 0.31607729 0.062523305 1512197
0.70264059 0.31812495 0.062822282 1380870
0.70430958 0.32117665 0.062277615 921090
0.7064991 0.32309386 0.061927199 855298
0.70834649 0.32521772 0.061452627 855298
0.71027917 0.32753041 0.061372936 723715
0.71185064 0.329759 0.060964346 789507
0.71332562 0.33258933 0.060180128 855298
0.7147665 0.33523899 0.060009718 855298
0.71638906 0.33740598 0.059735775 1052419
0.71753538 0.34037724 0.05973208 1052419
0.71966398 0.34216434 0.059552312 1775365
0.72018152 0.34437644 0.058051229 1906436
0.69225603 0.30777663 0.063486218 1117960
0.69426632 0.30818319 0.062883496 1249033
0.6947999 0.31251717 0.061746716 1577478
0.69769156 0.31424481 0.062147319 1511941
0.69875526 0.31734154 0.061438084 986627
0.70105606 0.31896776 0.061175525 920834
0.70334822 0.32086474 0.060537398 789506
0.70505005 0.32265866 0.059672296 789251
0.71678567 0.34067053 0.057592869 855298
0.71749628 0.34401029 0.056749642 920835
0.71868914 0.34657764 0.056857944 1183748
0.72150934 0.34904057 0.057015419 1643267
0.72311097 0.35125729 0.055763185 3678989
0.68806964 0.30672666 0.062016249 1052167
0.69047934 0.30737787 0.062093854 1117704
0.69120061 0.31180757 0.061081886 1446659
0.69308126 0.31316632 0.060415387 1315077
0.69537735 0.31576347 0.060354769 986627
0.69737172 0.31694514 0.059951305 986628
0.71870518 0.34754518 0.05444926 986627
0.71888721 0.35011083 0.055392802 1052419
0.71981728 0.35307029 0.054060936 986371
0.7209264 0.35582274 0.054624856 1443072
0.6862331 0.30643672 0.060541451 1052422
0.68784833 0.3112632 0.060212731 1446661
0.68982434 0.31239909 0.059195578 1315331
0.69161189 0.31420559 0.058770537 921091
0.69336057 0.31552064 0.058789968 855042
0.71812284 0.35050717 0.052959204 855810
0.71876544 0.35347301 0.052120566 921346
0.72050154 0.35590109 0.052559912 1511174
0.68282127 0.30639917 0.059387088 1117959
0.68583852 0.31175125 0.057787359 1052673
0.68771434 0.31273562 0.05795747 986626
0.68995512 0.31336585 0.057166517 724483
0.68004823 0.30623955 0.057444096 1117703
0.68219376 0.31092215 0.056187868 1381378
0.68351912 0.31222367 0.056121886 1117954
0.68531752 0.31300062 0.05576992 789763
0.67700815 0.30625242 0.056240559 1117960
0.67998159 0.31197447 0.055654466 1249794
0.68141186 0.31237295 0.054572761 855298
0.67453134 0.30650043 0.054708481 1117959
0.67765546 0.31195301 0.053383529 1249539
0.67984611 0.3126142 0.053373456 1117956
0.67194796 0.30764362 0.052919149 1183750
0.67419803 0.31187445 0.052582204 1577986
0.67502588 0.31244802 0.051684856 1183746
0.66964424 0.30857167 0.050722837 1183753
0.67187399 0.3124429 0.050086975 1512450
0.67294014 0.31322306 0.050341845 1183749
0.66743273 0.30975139 0.048710942 1314570
0.66979563 0.31372827 0.048725069 1249797
0.66457558 0.31057718 0.047834992 1445899
0.667009 0.31416279 0.04742229 1577988
0.66272044 0.31381232 0.0462026 2958602
0.66503698 0.31475794 0.045333505 2828045
0.65979981 0.31313616 0.044696212 2430477
0.66142344 0.31487024 0.044328451 5984534
0.66222066 0.31566805 0.043999493 3879691
0.65803981 0.31347829 0.043555915 3680517
0.65874559 0.31670967 0.042739034 5589524
0.65966904 0.31665754 0.041390181 3616005
0.65820795 0.31628335 0.041230977 5392139
0.71302581 0.32017219 0.070333123 1315340
0.71507394 0.32224953 0.070670247 1315337
0.71667939 0.32439607 0.070071459 1315339
0.71828365 0.32677245 0.069885492 1315339
0.71984184 0.32955757 0.069517612 1315849
0.72060049 0.33111525 0.068757176 1250569
0.70407104 0.31257308 0.070938706 1184009
0.706007 0.31397265 0.070380092 1052425
0.70814002 0.31584269 0.069787443 1117960
0.71043479 0.31757876 0.069804072 1183753
0.71217036 0.31923133 0.069591105 1249291
0.71438819 0.3272053 0.069003344 1643526
0.715388 0.32872325 0.06825763 1577989
0.71845925 0.32940769 0.067546248 1381128
0.71981108 0.33350295 0.067751884 1512713
0.72208881 0.33500433 0.067753851 1512968
0.7232644 0.33754489 0.066713572 1381385
0.72456419 0.34004542 0.065570891 4997929
0.7249248 0.34225279 0.06527096 7627841
0.70085454 0.3106004 0.070106566 1118216
0.70294034 0.3118785 0.069426954 1117958
0.70540452 0.31344318 0.069093525 1117961
0.7091139 0.32243368 0.067859054 1511940
0.71116638 0.32411951 0.067297459 1511943
0.71201122 0.32624865 0.066662967 1512198
0.71427917 0.3288607 0.066197038 1577990
0.71636796 0.33185181 0.066065788 1577990
0.71741772 0.33406955 0.065709591 1578245
0.71935463 0.3362776 0.065504014 1643527
0.72069794 0.33958197 0.064170718 1775368
0.7214576 0.34154195 0.065156162 1841161
0.72542495 0.34801668 0.063781679 8481074
0.69751918 0.30909187 0.068625212 1183501
0.69931835 0.31010944 0.068147182 1183497
0.70161402 0.31669426 0.067974031 1446659
0.70376647 0.31824046 0.066588283 1512198
0.70566964 0.32113531 0.066464961 1183748
0.70695329 0.32331049 0.065979779 986883
0.70855582 0.32554117 0.065608025 1052419
0.71076155 0.3281379 0.065541685 1117956
0.7123487 0.33041194 0.064732611 921092
0.71401572 0.33265424 0.064471304 1052419
0.71516776 0.33551869 0.064180136 921092
0.71732068 0.33818495 0.064265609 1315332
0.71918225 0.3396332 0.062886298 1709572
0.7211442 0.3426362 0.063052118 1709318
0.72316957 0.34402823 0.062823653 1839877
0.72477758 0.34715942 0.062795877 6705196
0.69396257 0.3080461 0.066810191 1183755
0.69526547 0.30833668 0.067298055 1183754
0.69823593 0.31472534 0.06572634 1577734
0.70013654 0.31725907 0.065748334 1381123
0.70178139 0.3196888 0.065155268 986626
0.7040633 0.32136744 0.064683974 986627
0.70628643 0.32358903 0.064104319 789762
0.70802772 0.3256996 0.064236343 790020
0.70937192 0.32740316 0.063444793 789768
0.71485364 0.33569527 0.062074363 789762
0.71609402 0.33865482 0.061952829 789762
0.71699804 0.34100813 0.061949432 789762
0.71772003 0.34392279 0.061019897 921091
0.72079194 0.34606296 0.061253428 1841412
0.72238958 0.34886897 0.060803294 1576963
0.72360295 0.35112178 0.060407937 4007946
0.689412 0.30737019 0.066882789 1183496
0.6910392 0.30757287 0.065668464 1052170
0.69134855 0.31179386 0.065409482 1577990
0.69453931 0.31302363 0.064549446 1577989
0.69617379 0.3166976 0.063811183 855297
0.69833291 0.31781793 0.064051747 986626
0.70041263 0.31935436 0.064268589 855043
0.71783984 0.34542379 0.058833599 855560
0.71776342 0.34801427 0.059257507 921091
0.71926051 0.3496359 0.058792651 1117955
0.71970177 0.35257864 0.058474958 1052161
0.68660086 0.30694246 0.06447804 1117704
0.69039279 0.31149006 0.06327486 1512197
0.69235283 0.31494603 0.063088238 986882
0.69441581 0.31579724 0.063070118 921089
0.71775621 0.35126624 0.05738771 790275
0.71873385 0.35390896 0.056019545 921091
0.72051787 0.35589525 0.056759179 1509122
0.68345654 0.30676067 0.063329518 1117703
0.68510818 0.30699432 0.063042641 1117960
0.68694246 0.31104773 0.062247574 1446917
0.68853158 0.31352103 0.062062502 986627
0.690593 0.31424576 0.061535954 1052674
0.71860492 0.35689861 0.05503881 986883
0.72011471 0.3586756 0.0548985 1772547
0.67893475 0.30664057 0.062051058 1183495
0.68114609 0.30689651 0.061993599 1183493
0.68464482 0.31229457 0.060414076 1118210
0.68673366 0.313126 0.060066104 921092
0.67714632 0.30674046 0.060044348 1183497
0.67919648 0.30652559 0.060169995 1183751
0.68135458 0.31157207 0.058954 1249796
0.68269122 0.31238395 0.059250474 855554
0.67490542 0.30706614 0.059043646 1183751
0.67892015 0.31207639 0.057790399 1183747
0.67260075 0.30772939 0.0567137 1183495
0.67467195 0.31206775 0.056541145 1446660
0.67663717 0.31237829 0.056078196 1249539
0.67012215 0.30859992 0.055189431 1249544
0.67283547 0.3123253 0.0549317 1315335
0.67374504 0.31325406 0.054439127 1380865
0.66808438 0.30937073 0.053644061 1249289
0.67044008 0.3136104 0.052881837 1315333
0.66567373 0.31077474 0.051425934 1380619
0.66764528 0.3139888 0.051553607 1643525
0.6631251 0.31099159 0.04996556 1642765
0.66457105 0.31408131 0.04987973 4537100
0.66587448 0.31443045 0.049974918 1841159
0.6598478 0.31230724 0.048464298 2694409
0.66221476 0.3151595 0.04874593 4405778
0.66361719 0.31517136 0.048074901 3419656
0.65739274 0.31399405 0.04705739 4602117
0.66068351 0.3156817 0.046583891 5326613
0.65752381 0.31726563 0.045578599 5655054
0.71743381 0.32618043 0.074742198 1315340
0.71833789 0.32765687 0.074092031 1381128
0.70695615 0.31535119 0.074615419 1117961
0.70892602 0.31658715 0.074193835 1052170
0.71123952 0.31834516 0.073793948 1183757
0.71325648 0.32051 0.073405385 1249546
0.71513319 0.32244492 0.07339555 1249799
0.71679693 0.32479417 0.073292255 1249802
0.71821141 0.32694688 0.072557449 1249801
0.71970594 0.33024246 0.072060466 1316102
0.72099924 0.33321357 0.070592999 1447175
0.72220743 0.33574188 0.071193218 1512967
0.72357738 0.33873618 0.07107693 1907730
0.70316416 0.31244981 0.073919415 1118216
0.705338 0.31403995 0.073655605 1052423
0.70767242 0.31583071 0.07266295 1052424
0.71149176 0.32417244 0.071273565 1577990
0.71358192 0.32658356 0.070577145 1577990
0.71573865 0.32913586 0.071543574 1446916
0.71698534 0.33132559 0.069697857 1577992
0.71888316 0.33485907 0.069856048 1577990
0.71995318 0.33776435 0.069435835 1709316
0.72340572 0.33810788 0.069480658 1250057
0.72441876 0.34143689 0.068420589 5391911
0.69758332 0.3089031 0.072269619 1183753
0.69981146 0.31029308 0.071937919 1118215
0.70237219 0.3121511 0.072508991 1052936
0.70297599 0.3176266 0.071939647 1512456
0.70445168 0.31841308 0.070932746 1446407
0.70610785 0.32007957 0.070698798 1315332
0.70807123 0.32273889 0.070655107 1183748
0.70914209 0.32571384 0.069786489 1249795
