# .PCD v0.7 - Point Cloud Data file format
VERSION 0.7
FIELDS x y z rgba
SIZE 4 4 4 4
TYPE F F F U
COUNT 1 1 1 1
WIDTH 1164
HEIGHT 1
VIEWPOINT 0 0 0 1 0 0 0
POINTS 1164
DATA ascii
0.69017231 0.37420142 0.073669314 591872
0.6782102 0.37214544 0.074045777 922374
0.68082786 0.37171489 0.073554873 1052930
0.68262529 0.37275565 0.074798763 922625
0.68732196 0.37639806 0.072051167 723200
0.67811793 0.37135577 0.072484434 921346
0.68165416 0.37503409 0.070927382 1052673
0.68436438 0.37548178 0.070462227 920323
0.68836647 0.37951118 0.068586349 657664
0.69109225 0.38203767 0.0665133 656899
0.71750367 0.35678038 0.11371094 4734332
0.71918166 0.35998145 0.11219448 6185064
0.72125399 0.36098129 0.11171675 3224615
0.7055037 0.35434508 0.11337525 657683
0.70751989 0.35536253 0.11293679 658715
0.71690208 0.36226144 0.10855335 2958910
0.70313996 0.35597885 0.1104759 788486
0.70605403 0.35671523 0.10940921 592137
0.70817047 0.35773635 0.10892129 528161
0.71114415 0.3613413 0.10722965 1381700
0.71359783 0.36179915 0.10690266 1709649
0.71590298 0.36218399 0.10692662 2038593
0.71886283 0.36397606 0.10624129 3419680
0.72098213 0.36615777 0.10538405 2366732
0.70138544 0.35777253 0.10735714 1446689
0.70507669 0.35846546 0.10735685 1906190
0.70734191 0.3609269 0.10560966 1117206
0.70977056 0.36176944 0.10634816 1249572
0.71220714 0.36141574 0.10540503 1512256
0.71488988 0.36461225 0.10449874 2301254
0.71792287 0.36541042 0.10448682 2367257
0.72071439 0.36667317 0.10349739 2696203
0.72278512 0.3681407 0.10325402 3549720
0.7252419 0.36891976 0.10234213 5784099
0.68800497 0.35183525 0.1084612 2371594
0.68940437 0.3528015 0.10843736 595200
0.6928339 0.35556284 0.1060555 593434
0.69597316 0.35617527 0.10750932 921138
0.69809699 0.35657617 0.10682124 921149
0.70086485 0.35798019 0.10643536 1381151
0.70298964 0.36107975 0.1054967 1183747
0.70548153 0.36197051 0.10422128 986121
0.70869344 0.36236781 0.10372061 1117717
0.71073127 0.36415374 0.10296226 1249313
0.71334743 0.36475062 0.10178673 1709876
0.7161203 0.36582738 0.10163921 1709591
0.71847981 0.36758894 0.10072196 2499339
0.72260988 0.36867589 0.10123616 2432518
0.72466391 0.36960787 0.099552989 2561537
0.72603512 0.37082839 0.099693477 5913368
0.68823034 0.35678533 0.10504127 592897
0.70239449 0.36132014 0.10188049 1051908
0.70449716 0.36285233 0.10165596 986629
0.70737725 0.36405641 0.10058922 1052179
0.70964032 0.36526895 0.10070413 1446686
0.71256131 0.3656041 0.10040879 1316137
0.71511281 0.36711332 0.099140286 1578270
0.71860629 0.36864978 0.099186718 3551259
0.72083932 0.36930788 0.099059761 1905920
0.70152646 0.36377922 0.099142194 921090
0.70413077 0.36384583 0.099141896 921095
0.70656812 0.36415023 0.098669231 1052438
0.71032989 0.36641538 0.098575711 1839371
0.71667701 0.3700873 0.096900523 2170886
0.71979594 0.37139222 0.096190631 2564869
0.72203386 0.37211871 0.09524411 2367494
0.72439921 0.3751888 0.094344139 2628100
0.69990587 0.36453754 0.096486866 789761
0.70952207 0.36747018 0.095803559 1707279
0.71019047 0.36926997 0.094107568 1904911
0.71814805 0.37234625 0.094236374 1973252
0.71997464 0.3750281 0.092400491 1907204
0.72516322 0.37530786 0.092496634 2955009
0.6602661 0.34706339 0.10456651 4864000
0.69797033 0.36575192 0.095469415 790018
0.71156538 0.3721458 0.091496825 2366759
0.71424037 0.37375438 0.091300607 6048800
0.72046345 0.3776527 0.089314878 2038533
0.6567477 0.34806442 0.10074562 7496472
0.69609863 0.36683691 0.092818439 922371
0.72135592 0.37870848 0.088017225 2169605
0.72215647 0.37971219 0.085720181 2235398
0.65743995 0.35033593 0.098172486 2431493
0.69311583 0.36860079 0.090949893 1187074
0.69528532 0.36702323 0.090171993 856322
0.72223181 0.38107821 0.085216939 2430981
0.65485495 0.35064045 0.09727031 3088906
0.7228148 0.38326409 0.081252396 3546887
0.65191954 0.35200521 0.096412063 8417105
0.65373296 0.35098571 0.09525764 4930588
0.67608219 0.36366314 0.090842068 6064692
0.6774931 0.36434388 0.090516806 4816172
0.69126719 0.36917293 0.086587489 989185
0.69429535 0.37079707 0.085414052 789248
0.65032959 0.35244977 0.09241271 9138772
0.65192634 0.35225719 0.09401691 7891288
0.67410457 0.36415884 0.087072492 4286752
0.67678493 0.3652139 0.086314201 4750377
0.67890131 0.36623511 0.085826337 3633454
0.68031222 0.36691585 0.085501075 5073949
0.64842749 0.35409257 0.090551078 8612428
0.67297083 0.36517534 0.084445715 3225676
0.67892587 0.37129426 0.080287933 4086784
0.6795454 0.37355208 0.07761699 3033093
0.68308544 0.37426901 0.077994645 1780227
0.68831384 0.37759414 0.077135742 855040
0.67898256 0.37224987 0.07663089 2899210
0.68016762 0.37275183 0.075935543 2174979
0.68188673 0.37566501 0.075593412 2439430
0.6850068 0.37684727 0.07401675 790529
0.68723089 0.37874532 0.073863566 723457
0.69080245 0.38089556 0.072212517 788993
0.68844897 0.38040671 0.070818484 985601
0.69167441 0.38160565 0.070594609 657409
0.69459957 0.38328296 0.069823086 460546
0.71965057 0.36103037 0.11511177 5195645
0.72208893 0.36243001 0.11468136 3485533
0.72393674 0.36399117 0.11465037 7823197
0.70327616 0.35570002 0.11786216 3487029
0.7045989 0.3563382 0.11755723 3948336
0.70667118 0.35733807 0.1170795 1840926
0.71480376 0.36244997 0.11361933 2367580
0.71743643 0.362804 0.11331874 4339047
0.71994025 0.36371309 0.11288285 5261377
0.7223497 0.36395738 0.11335224 3023909
0.70423281 0.3558301 0.11490571 1183517
0.70695454 0.35718781 0.11430466 1118247
0.71200925 0.36199105 0.11135876 1778487
0.71442771 0.3622461 0.11143821 2302037
0.71696466 0.36305934 0.11115098 3616333
0.71940958 0.3642036 0.10991871 4077604
0.72239023 0.36627242 0.1097644 3287565
0.70790416 0.36220604 0.1102342 1184026
0.7104038 0.3623642 0.11009413 1974321
0.71257937 0.36259347 0.10894364 1907513
0.71492493 0.36539248 0.1084972 2631232
0.71817923 0.36551157 0.10835195 3025706
0.72112668 0.36655721 0.10783136 4077833
0.7238977 0.36954007 0.10740131 2366469
0.72501159 0.36880428 0.1062665 8481361
0.69868755 0.35885602 0.11046559 1314880
0.70145816 0.35920098 0.1094324 1445939
0.70378274 0.36120075 0.10894442 1512207
0.70652193 0.36236998 0.1080696 1446159
0.7092008 0.3638671 0.10767001 1315357
0.71108663 0.36506268 0.10640597 1710128
0.7141462 0.36549169 0.10631067 2236215
0.7173124 0.36713183 0.10626107 2960669
0.71893239 0.36942756 0.10481203 3355405
0.72316408 0.36934569 0.10512418 3418898
0.72443467 0.37090474 0.10356879 4007699
0.72606736 0.37322715 0.103378 8018726
0.68983209 0.35783318 0.10877168 790549
0.69160026 0.35826319 0.10824144 658228
0.69470078 0.35796422 0.10917753 920893
0.6976037 0.35865954 0.10830414 1182540
0.70098186 0.36142892 0.10686392 1907209
0.70241374 0.36266124 0.10712832 1117959
0.70515782 0.36392784 0.10556442 1052937
0.70786262 0.3649472 0.10477239 1184020
0.71033907 0.36588332 0.10468405 1709340
0.71350551 0.36624658 0.10363549 1644842
0.71576124 0.36826399 0.10304964 2368279
0.71917951 0.36951599 0.10213327 3091979
0.71969211 0.37109092 0.10273457 3158021
0.72574627 0.37274253 0.10097128 7098149
0.68749267 0.35785785 0.10605389 789516
0.68930489 0.35830909 0.10551351 724231
0.69918948 0.36284903 0.10525888 792070
0.7013101 0.3634465 0.10382038 986885
0.70400059 0.3640115 0.10372037 987142
0.70667708 0.36497676 0.1025936 1118487
0.70992231 0.36713061 0.10174781 1905669
0.71550286 0.36924475 0.10037422 2302735
0.71627486 0.37032005 0.099086583 2500108
0.72008431 0.37304303 0.099174976 2697221
0.72148848 0.37389335 0.098191202 2433798
0.69887364 0.36439532 0.10220569 1054466
0.70096618 0.36359388 0.10173482 790532
0.71090746 0.37007707 0.1006285 1511685
0.71622694 0.37247622 0.098308504 2830088
0.72252733 0.37528378 0.09650743 2235653
0.72462994 0.3768301 0.095828414 3415813
0.70989656 0.37126976 0.096772254 1643026
0.71110898 0.37400052 0.096678734 2630437
0.71741152 0.37470829 0.095246792 2105603
0.71849722 0.37704518 0.093779743 2038791
0.65373635 0.34599736 0.10844427 6902303
0.65442455 0.34666738 0.10594475 3941888
0.70961958 0.37291747 0.092869699 1708829
0.71094012 0.37498444 0.093577981 3353119
0.71307176 0.37540027 0.092873335 6376987
0.71944559 0.37820554 0.092451513 2104838
0.72028929 0.3792921 0.091006696 2235653
0.69469792 0.3675274 0.094582379 1055235
0.72080082 0.38085908 0.089127123 2103558
0.72157294 0.38193434 0.087839484 2168578
0.6552093 0.35137323 0.10050488 3350529
0.65327996 0.35229051 0.098483324 5390359
0.72103488 0.38410175 0.082663238 2889218
0.65153468 0.35324797 0.097343385 8614466
0.67569715 0.36490589 0.091773331 5802303
0.67710817 0.36558667 0.091448128 4489024
0.68809909 0.37317234 0.088101685 1977603
0.67324394 0.36554623 0.089604259 4812356
0.67912692 0.36752373 0.089010417 4879907
0.68566769 0.37498125 0.08330828 2437893
0.69034141 0.37638208 0.083886325 987650
0.69330907 0.37936288 0.082337677 2699786
0.69542545 0.38038403 0.081849813 1910019
0.69762999 0.38144767 0.081341624 396544
0.67885625 0.37243798 0.083199799 4549395
0.67974371 0.37430131 0.081767261 3496716
0.6833697 0.37545291 0.081213832 2308865
0.68774641 0.37733737 0.081023455 1513989
0.68984336 0.37764716 0.080274165 1579270
0.69199288 0.3789767 0.080247521 2106380
0.69415343 0.38001916 0.079749465 1911040
0.68013155 0.3750225 0.079547822 3495433
0.68272173 0.37721625 0.078650177 2769664
0.68610793 0.37808266 0.0782637 1449984
0.68783063 0.37984017 0.07892108 1447683
0.69099289 0.38095775 0.077104688 2040076
0.69314778 0.38162276 0.077021897 2237962
0.69487244 0.38221431 0.07565695 1381893
0.68469828 0.37768608 0.076893151 1779715
0.68704897 0.38012469 0.075469494 856576
0.68992668 0.38118318 0.075246453 1249539
0.69277304 0.38226146 0.073781431 921349
0.68829226 0.38334784 0.073343098 788992
0.68845487 0.38409179 0.06921047 787968
0.72361875 0.36316168 0.11940551 6573955
0.72560287 0.36411896 0.1189481 10455176
0.70639962 0.35898086 0.11958557 3880778
0.71879232 0.36372632 0.11696631 3550329
0.72121227 0.3641783 0.11699694 3617398
0.72375369 0.36514866 0.11667228 6772596
0.72553802 0.36699194 0.11508751 2824726
0.70405114 0.35850215 0.11848062 4406817
0.70626843 0.35968062 0.1176526 2629404
0.7084887 0.36166224 0.11704266 1183511
0.71204251 0.36304682 0.11666381 1184299
0.71495581 0.36335328 0.1158883 2565202
0.71728885 0.36404476 0.11543906 3616606
0.71916026 0.36524945 0.11451888 4143687
0.72301459 0.36640996 0.11399066 3551031
0.72559255 0.36776564 0.11399162 6638644
0.69744349 0.35813475 0.11684108 1512267
0.70276785 0.36056405 0.11476922 2564133
0.70450056 0.36158365 0.11515552 2696219
0.70787036 0.36224547 0.11472034 1578013
0.71108961 0.36272612 0.11382645 2105637
0.71332979 0.36381584 0.11336356 2565945
0.71591908 0.36618081 0.11298442 3091016
0.71919411 0.3662985 0.11218816 3486270
0.72465205 0.36850992 0.11097759 2628106
0.72565174 0.37062299 0.10891473 4795916
0.69382703 0.35858747 0.11439848 724519
0.69591993 0.35845992 0.11337215 920646
0.698017 0.35999766 0.11338949 1840716
0.70150471 0.36156675 0.11372513 2500117
0.70456123 0.36201891 0.11296773 1643793
0.7075671 0.36274388 0.11216027 1644059
0.70913273 0.36451054 0.11153233 1578265
0.71177584 0.36579472 0.11092818 2104620
0.71501148 0.36654133 0.11090857 2894652
0.71757013 0.36805335 0.11029196 3158060
0.71999282 0.36995411 0.10952991 3552308
0.69247174 0.35764256 0.11441219 658726
0.69409263 0.35809872 0.11206818 1117735
0.69898427 0.35990372 0.1109941 1840945
0.7007829 0.36192435 0.11097383 1908502
0.70334888 0.3632606 0.11058629 1709839
0.70559043 0.36470875 0.10930049 1842196
0.70816994 0.36590087 0.10898697 1644570
0.71151853 0.36639759 0.10836798 2368058
0.71726668 0.37023473 0.10665429 3422748
0.71900076 0.37029493 0.10643166 3683880
0.72067845 0.37184578 0.10711724 3354666
0.72301996 0.37242454 0.10422027 4732189
0.68516505 0.3586598 0.11140913 596992
0.68836331 0.35855094 0.11115819 855563
0.69158149 0.3585411 0.11095536 920613
0.69511795 0.35940108 0.10989493 986436
0.69752228 0.36268061 0.1104638 2110980
0.69962156 0.36285734 0.10872477 1252612
0.70221174 0.36398241 0.10868913 1250317
0.70504212 0.36474642 0.10780871 1118737
0.70740402 0.36700338 0.10711896 1250058
0.70927823 0.3683877 0.10650438 1905164
0.71656084 0.37001091 0.1045996 3093531
0.71717185 0.37250298 0.10410362 4608540
0.71906763 0.37347609 0.1025579 3289369
0.65204567 0.3419897 0.11584222 10126667
0.68673098 0.35900813 0.10712469 461841
0.71583366 0.37305349 0.1009261 4147234
0.72028106 0.37451974 0.10115129 2894863
0.71992111 0.3770324 0.10091364 2894864
0.68381888 0.3599267 0.1064992 924160
0.70866984 0.37177485 0.10259199 1905164
0.71008646 0.37172988 0.10192043 1445635
0.71553105 0.37579209 0.098950446 4411404
0.72062421 0.3779757 0.098313451 2368267
0.72255242 0.3785612 0.097326875 2299912
0.65317738 0.34704319 0.1121434 9861138
0.71152145 0.37441152 0.099164188 3484699
0.71631056 0.37753242 0.096463561 2765316
0.65264601 0.34689975 0.1095382 9731896
0.71076608 0.37715447 0.094905257 4797955
0.71294719 0.37706947 0.093858659 8482363
0.7158519 0.3803069 0.095034063 2304007
0.71791667 0.38040167 0.093613505 2039560
0.65349197 0.35129154 0.10419899 8087349
0.7197305 0.38284248 0.090848327 2104326
0.72136086 0.38411823 0.090506971 2890508
0.72107995 0.38383159 0.088196397 2037505
0.65114975 0.35449076 0.098274648 9205307
0.67492729 0.36739147 0.093635976 5409344
0.67633826 0.36807221 0.093310714 5410636
0.67845476 0.36909336 0.09282285 4750899
0.69166553 0.37556076 0.087419331 857345
0.67253458 0.3676863 0.09186703 5207114
0.67572773 0.36802644 0.091057837 5934148
0.67854959 0.36938787 0.090407372 4880684
0.68046153 0.37106928 0.090414226 2248448
0.68230736 0.37357295 0.088780999 1450513
0.68734151 0.37494192 0.088519514 1845509
0.67681026 0.37372389 0.087510169 4682502
0.67909884 0.37506497 0.085979283 3695115
0.68371773 0.37679064 0.086015046 2107918
0.68873209 0.37840039 0.086540759 2108416
0.6929 0.38068336 0.083327174 3621376
0.6950165 0.38170445 0.08283931 3094272
0.69722104 0.38276809 0.082331121 593664
0.67825311 0.37405139 0.085436106 4024077
0.68074769 0.375819 0.083764732 3101444
0.68340302 0.37638095 0.084284246 2244097
0.68559718 0.37987372 0.082419991 2176768
0.68881047 0.37993407 0.082121313 2567174
0.69139147 0.38091853 0.081702709 3225856
0.69448406 0.38296783 0.079730809 2434307
0.67966777 0.37740713 0.08154273 3299078
0.68259525 0.37804779 0.081153393 2704897
0.68496907 0.37989002 0.081451297 2043143
0.68744767 0.38139379 0.08018291 2039813
0.69021881 0.38267976 0.079154074 2697991
0.69225061 0.38313329 0.078586817 2829575
0.69577616 0.38464931 0.07827878 1578242
0.68703693 0.38256043 0.078055501 1646850
0.68887037 0.38433614 0.076443791 2303491
0.69143206 0.38527113 0.075739264 2829568
0.72235996 0.36460778 0.12090689 3286914
0.72424811 0.36610809 0.12023497 7824278
0.72640514 0.36828998 0.11959791 7295059
0.70236135 0.35902372 0.12232602 6049302
0.70462757 0.36024398 0.12192082 5391924
0.70706934 0.360484 0.12091458 3682868
0.70936209 0.36127418 0.12149501 3683644
0.71164304 0.36335057 0.12073207 1118235
0.71478444 0.36441442 0.11961442 2170439
0.71792704 0.36560214 0.11931545 2893427
0.7202794 0.36578727 0.11916023 3090293
0.72314072 0.36741221 0.11807626 4010599
0.72614306 0.36843845 0.11778826 7232326
0.70142025 0.3596352 0.12060571 3748931
0.70323408 0.36006469 0.12002629 4208439
0.7058441 0.36105454 0.11964679 3484439
0.70852411 0.36254939 0.11847907 2564649
0.71136683 0.36367249 0.11809224 3551781
0.71420252 0.3646841 0.11749071 4473372
0.71671587 0.36692902 0.11702269 2959439
0.71920705 0.36800715 0.11598378 3091034
0.72154355 0.36901456 0.11675042 3156315
0.72473556 0.37100703 0.11558276 2892603
0.69428378 0.35834932 0.11834121 986916
0.69621378 0.35943064 0.11815411 1381191
0.69971156 0.36001441 0.11733186 2696005
0.70203346 0.36187086 0.11718857 3026213
0.70402986 0.3625443 0.11659962 2958870
0.70715064 0.36491451 0.11558574 1906458
0.70986885 0.36498126 0.11610466 2893595
0.71260542 0.36633494 0.11504275 3815195
0.71527201 0.36807048 0.11478817 2959941
0.7179693 0.36807474 0.1140362 3223372
0.71972042 0.37019092 0.11425549 3025741
0.72331059 0.37261829 0.11129755 2892597
0.68860513 0.35739541 0.11778241 1314071
0.69039357 0.35780221 0.11729151 1314589
0.69177264 0.35879174 0.11722839 986916
0.70114475 0.36343879 0.11472893 2304008
0.70367306 0.36462918 0.11441451 2236691
0.70589459 0.36521453 0.1142081 1775634
0.70931637 0.36678937 0.11316282 2367265
0.71208674 0.36777896 0.11265814 3025467
0.71323961 0.3684696 0.1135301 3026248
0.71869248 0.37193534 0.11098737 4210512
0.7215054 0.37223852 0.11054271 3024717
0.68647689 0.35818449 0.11544889 661001
0.69832593 0.36337721 0.11393237 2570243
0.70042586 0.36313915 0.11254096 1975559
0.70312279 0.36508536 0.1124903 1578768
0.7056343 0.36657554 0.11140227 2434337
0.70781267 0.36712492 0.11127758 1447199
0.70635945 0.36954537 0.1085636 1974540
0.71653861 0.37383544 0.10635883 4475202
0.72066516 0.3765952 0.10420996 2762538
0.72203827 0.37782055 0.10486037 2103828
0.68257457 0.35932755 0.11288339 2702340
0.70605701 0.3726528 0.10686904 1972001
0.70679462 0.37158021 0.10585636 1512459
0.72127676 0.37871525 0.10146183 2170388
0.70749521 0.37344012 0.10417932 1511433
0.70998514 0.37436393 0.10363203 2365460
0.71485722 0.37717095 0.10112697 4806192
0.71477604 0.38038155 0.097410381 3424777
0.71777338 0.38415313 0.095677912 2105353
0.71877921 0.3850539 0.094547868 2169608
0.71468127 0.38264981 0.094859779 2501385
0.71643341 0.38372242 0.093637228 2170886
0.71907312 0.38547686 0.092444301 2627846
0.68002838 0.37412211 0.091358423 2313487
0.68157518 0.37603605 0.090145171 1650437
0.68369865 0.37725458 0.089854836 1318168
0.69495809 0.38344595 0.087706923 4409345
0.69707453 0.3844671 0.087219059 1315596
0.67601883 0.37552446 0.089075327 4814096
0.67802 0.3770144 0.088658631 3958023
0.6811657 0.37725478 0.087476313 2508038
0.68341476 0.37843388 0.087648392 1844243
0.68489909 0.37968001 0.086856782 3159381
0.68905407 0.38075954 0.085988164 3424518
0.69161719 0.38220713 0.084886789 3885064
0.69443905 0.38356861 0.084236264 3423232
0.69664365 0.38463232 0.083728075 856320
0.67805451 0.37706402 0.086616755 4023559
0.68046558 0.37903389 0.085457027 3298051
0.6825493 0.37962487 0.084541738 2177031
0.68537492 0.38103399 0.084465802 2898186
0.68745619 0.38207197 0.083648086 3488517
0.69010627 0.38338646 0.082645595 3487753
0.69307065 0.38452554 0.082393706 3421703
0.69536144 0.38572007 0.081918359 1776130
0.67900348 0.37855968 0.084025264 3562248
0.68691212 0.38286597 0.081433058 2502659
0.68836224 0.38566089 0.079963624 3356931
0.68935889 0.38564491 0.078678787 3093250
0.69092429 0.38726971 0.078703701 3092224
0.72006649 0.36577952 0.12595463 3024004
0.72264427 0.36600995 0.12556714 2957708
0.7248435 0.36770669 0.12488478 5850505
0.72651255 0.3691653 0.1236999 8085865
0.72871828 0.37064096 0.12373042 6438196
0.70697492 0.36203349 0.125027 3155485
0.71322846 0.36516321 0.12377894 1118485
0.71551019 0.36539248 0.12407243 1907027
0.71833068 0.36655739 0.12289834 2893937
0.72120804 0.36699012 0.12255609 3024251
0.72401148 0.36821508 0.12192976 5259651
0.72553283 0.3697761 0.12121999 3810891
0.72750181 0.371052 0.12078923 3744045
0.68532264 0.35304856 0.12789583 4944430
0.6873796 0.35348776 0.12724358 4216094
0.70162296 0.36005694 0.12456483 6248979
0.70401901 0.36146545 0.1239143 5458740
0.70661181 0.36219183 0.12329131 3222085
0.70942271 0.36327958 0.12305313 2235694
0.71150881 0.36469617 0.12216657 4670253
0.7145744 0.36579993 0.12176752 3880997
0.71716344 0.36717457 0.12111777 2893412
0.71986222 0.36863127 0.11996865 3353699
0.72226059 0.36970928 0.12012029 3748965
0.725227 0.37025079 0.11932915 6245226
0.68420273 0.35296845 0.12582171 5602108
0.68826854 0.35580355 0.12578064 2832137
0.69130266 0.35860103 0.12364513 2038817
0.69467705 0.3595885 0.12337852 1840935
0.69682384 0.35980597 0.12191409 1578559
0.69976342 0.36102355 0.122621 2893919
0.70226693 0.36240348 0.12275922 3683925
0.70447683 0.36351639 0.12155753 3946008
0.70782745 0.36537755 0.1208024 2038043
0.71041298 0.36665282 0.11972547 5260566
0.71313232 0.36782041 0.11834651 5985551
0.71623409 0.36924982 0.11905253 2959430
0.71843505 0.36938587 0.11806256 3091039
0.68682623 0.35873196 0.1219638 2435614
0.69078225 0.35939658 0.12059313 1446684
0.69306511 0.35999337 0.11993867 1512486
0.69660145 0.36085331 0.1188783 1447492
0.69965363 0.36301863 0.12017101 3293186
0.70132893 0.3638961 0.11947161 2961416
0.70356715 0.36519706 0.11870974 2433554
0.70623577 0.36573964 0.11777145 1907222
0.71141022 0.36962608 0.11621302 4210729
0.7143749 0.36949971 0.11634707 2828875
0.7205348 0.37220642 0.11413574 4670048
0.72206968 0.37349033 0.11511844 4934226
0.68223804 0.35773563 0.12088162 3299328
0.68356931 0.35875833 0.12092614 3293478
0.68691587 0.3588939 0.11949402 1975069
0.68919861 0.35949075 0.1188395 1249818
0.69839877 0.36366367 0.11681575 2701316
0.69957519 0.36439437 0.11606932 2831621
0.7038728 0.36625421 0.11622274 2039062
0.70589739 0.36783737 0.11511874 2104603
0.70767188 0.3687906 0.11480922 3881000
0.71009541 0.36920407 0.11520183 4802349
0.72106481 0.37423652 0.11207527 4078156
0.68258512 0.35972798 0.11819464 3030306
0.68476629 0.35964295 0.11714798 1845541
0.72300202 0.37693796 0.10866982 2036760
0.68225509 0.36008531 0.11603516 2371885
0.70378542 0.37024429 0.11017489 5133840
0.6818369 0.36040011 0.11389601 2307092
0.70344245 0.37339821 0.10840142 3686408
0.67774487 0.36278373 0.11220217 2574862
0.70632052 0.37510541 0.10576659 1511450
0.70888638 0.37639648 0.10533339 2825260
0.71086723 0.37749121 0.10514927 5718032
0.64869446 0.35238412 0.11518955 9269529
0.71322256 0.38115361 0.099174023 5331234
0.71165532 0.38410106 0.098544538 5725252
0.71403509 0.38218242 0.097965181 3884038
0.69180417 0.37376657 0.10000706 3098625
0.71320289 0.38491005 0.096128821 3093779
0.7156443 0.38616964 0.094598114 2039814
0.71816695 0.38685092 0.09516114 1840384
0.71170723 0.38835427 0.093405724 2304521
0.71341008 0.38835675 0.093419075 2106377
0.71803916 0.38905671 0.092336595 4531975
0.6720199 0.37163687 0.096303999 2700804
0.69540972 0.38307706 0.09233737 5002252
0.69752604 0.38409817 0.091849446 1907997
0.67614007 0.37637451 0.093102157 5934362
0.67875588 0.37683067 0.093188107 4224024
0.6810168 0.37844163 0.091650724 3234833
0.68310916 0.3791576 0.091280937 3230984
0.68954664 0.38226357 0.08979696 5069827
0.69236523 0.38349912 0.090343952 6187556
0.69554859 0.38339284 0.089911699 3621120
0.69770914 0.38443527 0.089413643 986659
0.67323864 0.37636173 0.092048943 5800997
0.6753481 0.37724563 0.090899467 5209107
0.67779064 0.37871918 0.090060413 3958278
0.67956322 0.3799496 0.090018332 3430915
0.68267494 0.38106099 0.089248776 3298063
0.68505436 0.38225481 0.088295519 3558407
0.68775821 0.38299394 0.087338626 5134093
0.6909911 0.38471651 0.086562335 5002254
0.6937111 0.3859295 0.086511731 4803342
0.66887742 0.37726063 0.09050715 5537334
0.67109579 0.37700307 0.090736806 5802032
0.67395914 0.37782952 0.090130329 4814352
0.67972463 0.38008204 0.087388456 3232772
0.68203425 0.38038263 0.086968601 3035652
0.68479532 0.3826381 0.086695194 3360009
0.68677509 0.38459173 0.085176587 3687433
0.68951344 0.38488603 0.084565699 4146702
0.69265795 0.38544416 0.084862888 4080654
0.69489533 0.38711965 0.083809555 2303232
0.68708229 0.3848643 0.08307445 3029761
0.68895549 0.38729858 0.082275271 4212226
0.69077229 0.38882676 0.079827487 3750400
0.71914774 0.36248386 0.13401008 2434951
0.72113186 0.3634412 0.13355267 2040455
0.72375256 0.3655889 0.13219929 2366857
0.72606337 0.36781028 0.13104916 7166888
0.71994269 0.36439165 0.12964529 2763403
0.72263223 0.36568931 0.12902528 2039690
0.7245574 0.36813015 0.12871128 4534143
0.7274732 0.37081221 0.12819862 8217695
0.71823299 0.36741823 0.12715793 3156067
0.72181678 0.36807913 0.12661582 2959480
0.72480768 0.36904383 0.12670779 4865157
0.7263729 0.37081838 0.12548786 6442339
0.72855258 0.37168276 0.12519234 7229000
0.70162594 0.36118573 0.12845725 7500566
0.70397192 0.36269078 0.12744433 5526071
0.70679826 0.3634702 0.12726742 3222319
0.70928454 0.36392823 0.12708253 2367281
0.71166784 0.36614853 0.12628591 6183443
0.7149865 0.36721843 0.12600887 3025700
0.71776509 0.36773139 0.12531936 2959455
0.7201128 0.37036118 0.12408608 3288158
0.72313619 0.37102047 0.12435287 3682658
0.72590482 0.37100923 0.12336469 3745096
0.68454897 0.3546879 0.12928247 5470036
0.68659383 0.35561633 0.12894607 5726269
0.70066202 0.36200196 0.12692672 5856566
0.70348096 0.36325663 0.12653208 4144213
0.70574129 0.36482269 0.12502134 2762577
0.70850569 0.36623389 0.12477911 2891588
0.71141595 0.36712268 0.12428057 3881248
0.71397895 0.36742744 0.12390232 7368225
0.71612954 0.37087101 0.12272996 3223609
0.71902835 0.37038407 0.12188929 3156832
0.72138011 0.37000844 0.1220569 3485030
0.68753088 0.35687611 0.12679321 3095557
0.68866503 0.35801736 0.12573904 3354151
0.6910668 0.35889855 0.12521225 2169633
0.69435525 0.36009488 0.1257481 2169125
0.69749051 0.36155313 0.12518382 4538710
0.69922793 0.36357757 0.1234296 5595435
0.70147395 0.36507317 0.12363636 4342822
0.70416129 0.36602506 0.1224547 2959903
0.70720744 0.3652826 0.12250531 2235415
0.71047014 0.36826605 0.12150478 7563542
0.71292704 0.3699457 0.12116659 7236630
0.71507573 0.37073928 0.11985028 2697287
0.69902784 0.36375111 0.12194139 5331730
0.70444953 0.36673188 0.1204623 2301983
0.7054646 0.36887676 0.11968046 3221271
0.70872998 0.37069952 0.11831141 8881230
0.71090412 0.37109488 0.11856782 5856035
0.70582378 0.3691771 0.11776733 3549728
0.70748645 0.37000251 0.11752486 7498042
0.7009806 0.37406212 0.10993397 5987644
0.67710769 0.36380175 0.11427408 2903315
0.70124418 0.3765147 0.1088317 4474405
0.70297736 0.37693584 0.10640913 3553310
0.70541865 0.37783217 0.10682338 1446155
0.70862579 0.37924349 0.10721046 4864048
0.6485194 0.35353008 0.11633664 9270292
0.71055996 0.38964072 0.094564915 2829840
0.71417618 0.39028549 0.094712436 2628871
0.71614027 0.39151382 0.095144987 4794636
0.6721459 0.37175933 0.10005826 2636802
0.69452113 0.38239965 0.094935656 7699715
0.69593203 0.38308036 0.094610393 3357952
0.67623699 0.37640107 0.097513497 6725694
0.67849386 0.37794241 0.096879125 5080342
0.69140917 0.38257539 0.094102085 7305247
0.692864 0.38480875 0.093526959 7501858
0.69513917 0.38686344 0.093185782 5591568
0.67352051 0.37671459 0.095731795 6064918
0.67559063 0.37788302 0.095646739 6264350
0.67842478 0.37910944 0.094963968 4881688
0.68035078 0.38041583 0.093709528 3893007
0.68241912 0.38158783 0.092964053 3956239
0.68666035 0.38372797 0.092147529 5990676
0.68898869 0.38441208 0.09229511 6977046
0.69127727 0.38593987 0.091963053 7041309
0.69360679 0.38639754 0.090482712 5725203
0.66967511 0.37851846 0.09414053 6064422
0.6723367 0.37796858 0.093642712 5933090
0.67469311 0.37911111 0.09215939 5078037
0.67722452 0.38043842 0.092866123 4221955
0.67964005 0.38104606 0.091793954 3693828
0.68274343 0.38262242 0.0909729 3693065
0.68447626 0.38407248 0.090116918 3953677
0.6871295 0.38582587 0.089226961 5530127
0.69034708 0.3860091 0.089138329 5989905
0.69523138 0.38843226 0.087522566 3091979
0.66523546 0.37710404 0.092417777 10329980
0.66788578 0.37753129 0.09185499 6585420
0.67087257 0.37830442 0.092000365 6064680
0.68522215 0.38457972 0.088183105 3886100
0.68648553 0.3858 0.087363124 4411912
0.68911636 0.3878862 0.086539865 5462274
0.66177869 0.37744987 0.091100097 4996374
0.7210595 0.36612934 0.13517553 1514634
0.72311974 0.36716798 0.13472688 2237840
0.72555906 0.36871058 0.13353342 4340372
0.72833115 0.37071085 0.13138014 9796748
0.7125206 0.365457 0.13460487 4007015
0.71211886 0.36580309 0.13260269 2890835
0.71847224 0.36868986 0.13103288 3878990
0.72166437 0.36955976 0.13030368 2958711
0.72495073 0.37067479 0.13022727 4141439
0.7272439 0.37218535 0.13003683 7954551
0.7291621 0.37267244 0.12990767 10058325
0.70522499 0.36465505 0.13128525 3487041
0.70991534 0.36497721 0.12918615 5984294
0.71277428 0.36628845 0.12982064 2562609
0.71579599 0.36753571 0.1299206 5849917
0.71852022 0.36926585 0.12916732 3024977
0.72164619 0.36954215 0.12863034 3485291
0.7228902 0.37276864 0.12741596 3813988
0.72560215 0.3726289 0.12777835 5522289
0.70218152 0.36275205 0.13033336 4081421
0.70375556 0.36438113 0.12962604 2434847
0.70669764 0.36528978 0.12930435 2893111
0.70810908 0.36613211 0.13016278 3221544
0.71258956 0.36796021 0.12759942 9473047
0.71501374 0.36919177 0.12790275 4737032
0.71672469 0.37181181 0.12678874 5591856
0.71977383 0.3717736 0.1263023 3288147
0.72417575 0.37268052 0.12600327 3485791
0.69997877 0.3638927 0.12833029 5462541
0.70215851 0.36623836 0.12801957 1909019
0.70484769 0.36739528 0.12692291 3289395
0.70738906 0.36881903 0.1260218 2761286
0.70859718 0.37022305 0.12559259 2105155
0.71553397 0.3717894 0.12482321 4868900
0.69892871 0.36567876 0.12562752 4939545
0.701433 0.36668435 0.12577313 3160349
0.70347387 0.36891866 0.12441391 2499100
0.71222979 0.3724809 0.12098867 5067794
0.70414698 0.36911288 0.1226576 2037783
0.70428896 0.37072277 0.12073976 3417359
0.71095061 0.37351742 0.12105244 6974755
0.70402884 0.37250152 0.11989069 6772251
0.70689446 0.3726556 0.1183784 10129993
0.70612192 0.37549728 0.1175313 11315550
0.7053982 0.37939233 0.10877019 1379328
0.70746315 0.38086998 0.1087687 4798767
0.70055169 0.38152468 0.10598326 2499613
0.66879308 0.37125883 0.10758674 4548140
0.71087933 0.39134374 0.095087349 2105611
0.71314245 0.39227507 0.095867991 2759176
0.6922878 0.38655877 0.097396195 9015090
0.69404441 0.38727427 0.097167373 7370020
0.70915043 0.39272362 0.095394671 2565141
0.667826 0.37457824 0.10000867 3166743
0.67542696 0.37917465 0.098820567 6792758
0.67816651 0.38043439 0.098288894 5739029
0.68061578 0.38155067 0.097279191 4552962
0.68818438 0.38640958 0.096500516 7699733
0.69127506 0.38653752 0.09574604 8225566
0.69487053 0.38746732 0.094760001 6578715
0.66721833 0.37723562 0.098015249 12104588
0.6699037 0.37766844 0.097903371 7965774
0.67197287 0.37884498 0.097002387 6261543
0.67390937 0.38036135 0.096548319 6329632
0.67751479 0.38154134 0.096642435 5539869
0.68028653 0.38312048 0.095262945 4288784
0.68237442 0.38428688 0.09461236 4417803
0.68562275 0.38556862 0.093958259 5268500
0.68797332 0.38634586 0.09422189 7305233
0.68901283 0.3881354 0.092392325 6778631
0.66308045 0.37769306 0.095780551 12235364
0.66603637 0.37845007 0.0962497 11054211
0.66872108 0.3790125 0.09588486 7702871
0.67438895 0.38011706 0.094814599 5407765
0.67587209 0.38056481 0.094314694 5471761
0.67808783 0.38342923 0.094672382 4351499
0.68252057 0.3849737 0.092931688 3693581
0.6842432 0.38648745 0.092028379 4150798
0.68701369 0.38692147 0.091181815 6253335
0.68873143 0.38809311 0.090099037 6449674
0.65958649 0.37764558 0.095774114 4270867
0.66192335 0.37765527 0.094321907 9009224
0.65774685 0.37750363 0.093399227 1839360
0.72029048 0.3691045 0.13609874 4073591
0.72249782 0.37026101 0.13565594 2629250
0.7251876 0.37176508 0.1347729 3484289
0.72769159 0.37293953 0.13318831 8481407
0.7297734 0.37329316 0.1327107 9929044
0.71341884 0.36689585 0.13511789 6835336
0.71588498 0.36912033 0.13325453 10059332
0.71888298 0.37022558 0.13276112 4404547
0.72191632 0.3711122 0.13269424 3419243
0.72421497 0.3724187 0.13216108 3549809
0.72665304 0.37344125 0.13120908 7231615
0.70495176 0.36610708 0.13215536 2960943
0.71757996 0.37345365 0.13049179 5132068
0.71999741 0.37327296 0.12987679 3354688
0.72260147 0.37393382 0.12986499 3616868
0.72431898 0.37516388 0.12936294 3878494
0.70246756 0.36659995 0.13110077 1644556
0.70529306 0.36741704 0.13072014 3026744
0.71641397 0.37343097 0.1286658 4408354
0.71849942 0.37337345 0.12857378 3158094
0.70148921 0.36862192 0.12805545 3225398
0.70569408 0.36908212 0.12832028 3222822
0.70744222 0.36941323 0.12774205 4471322
0.71353239 0.37419945 0.12679297 7370513
0.69873327 0.36764702 0.1275875 2703134
0.70217562 0.3710652 0.12507868 2301717
0.71281767 0.37383547 0.12440622 6646795
0.70893615 0.37525919 0.1203866 9342759
0.70800883 0.37732348 0.12068468 10330672
0.70125991 0.37717369 0.11568993 9930545
0.70277143 0.37902296 0.11504948 11972940
0.70361584 0.38322404 0.10807455 2761767
0.69876939 0.38535637 0.10528749 856612
0.69625831 0.38579875 0.10417461 2566974
0.70294613 0.38876155 0.10298526 9604650
0.69287848 0.38651124 0.10182685 9935684
0.71186602 0.39454475 0.096721232 2429952
0.66364563 0.37497526 0.1058256 4156955
0.66500086 0.3759203 0.10581189 4812560
0.68701345 0.38673896 0.10047334 8226845
0.6896196 0.38613483 0.10055274 9014818
0.69312388 0.38653672 0.099746823 9080372
0.70886803 0.39481226 0.096327603 2366996
0.6724335 0.38014543 0.10041112 6657813
0.67458725 0.38116327 0.10002893 7121450
0.67785639 0.38300642 0.099178255 6330890
0.68332314 0.38644361 0.099342167 6060569
0.6858483 0.38683242 0.098664463 6517781
0.68819255 0.38747114 0.098265648 7897112
0.70576292 0.39475468 0.095035195 4604454
0.66323721 0.37861422 0.10183173 13352817
0.66586441 0.37952733 0.10038191 12106130
0.66837996 0.38033661 0.10019857 9476716
0.6707232 0.38100797 0.098879516 6590772
0.67386985 0.38292328 0.098436117 6724912
0.67693263 0.3836759 0.097851574 6198310
0.67936105 0.38507763 0.097882986 5737751
0.68149257 0.38614655 0.096731305 4616712
0.6843636 0.38703576 0.095932603 4940817
0.68784463 0.38754818 0.095441997 7042840
0.68943244 0.38806969 0.095058739 7436042
0.65990746 0.37911218 0.098760068 7166515
0.6630559 0.37871611 0.098471045 12170360
0.66509628 0.38015598 0.097750843 12236676
0.66746849 0.38077021 0.098332703 9017711
0.67539012 0.38530874 0.09723407 6527780
0.68112636 0.38777557 0.095797837 4484898
0.68205214 0.38919872 0.093937695 3565626
0.65599203 0.37827161 0.097232759 1249283
0.65813923 0.37861553 0.097059965 2826511
0.66169226 0.37985241 0.097032547 9798480
0.65520507 0.3781406 0.095020592 1446419
0.71978593 0.37085828 0.13684267 6311503
0.72183824 0.37210435 0.13699025 3483986
0.72435224 0.37305933 0.13748223 2366852
0.72715127 0.37447858 0.13611543 7892120
0.72985566 0.37578338 0.13549203 9798251
0.73156893 0.37736028 0.13638645 9994340
0.71946418 0.37209117 0.13532227 7494719
0.72086555 0.37446657 0.13341886 3683138
0.7230159 0.3760435 0.13374954 4076391
0.71904886 0.37500763 0.1320489 3618104
0.72156149 0.37521526 0.13202018 3617384
0.7152673 0.37445369 0.13017726 7239184
0.69833684 0.37245852 0.12609977 3225379
0.70821303 0.37832242 0.12218493 11712310
0.69666404 0.37654734 0.12149829 2436114
0.69765449 0.37863678 0.1168859 5259818
0.69700032 0.38413924 0.11056131 11379261
0.69836599 0.38681868 0.11004126 12565591
0.69412935 0.38476703 0.10999727 8681232
0.69072479 0.38677797 0.10607845 6844454
0.69306082 0.38655791 0.10665041 11054413
0.7015323 0.39230683 0.10402644 11117342
0.70524663 0.39344275 0.10456139 7302425
0.70676506 0.3937133 0.10482788 2828800
0.68739706 0.3872225 0.10462528 9607977
0.69048393 0.38675132 0.10423923 10199609
0.69308692 0.38843939 0.10397869 5856810
0.69519418 0.39005646 0.10355073 791073
0.69750851 0.3910296 0.10224676 7760167
0.70112312 0.39164612 0.1021964 9801507
0.66181475 0.37649474 0.10762262 5210436
0.68564969 0.38771981 0.10241479 8096275
0.68852937 0.38774323 0.10193586 9080853
0.69118941 0.38880208 0.10150784 6448398
0.6570881 0.37666807 0.10601044 4866332
0.66878444 0.38189784 0.10300684 9476980
0.68313658 0.38787511 0.10079074 5797904
0.68471223 0.38821915 0.099737465 5598731
0.70463562 0.39804032 0.096283734 3026465
0.70645422 0.39807525 0.096129715 2302996
0.65702546 0.37822071 0.10374087 2301193
0.65947998 0.37967014 0.10299283 7035450
0.66181809 0.37955356 0.10239697 11576174
0.66485119 0.38127071 0.10221803 12500637
0.66758472 0.3821598 0.10130256 10923157
0.67090601 0.3832925 0.10078186 7052084
0.67368335 0.38439348 0.10021257 7318079
0.67589784 0.38570169 0.099668384 7119394
0.67848372 0.38751763 0.098903 6987830
0.68091464 0.38873908 0.098282218 4749864
0.68340588 0.38916826 0.097286761 4482562
0.65426171 0.37651226 0.10178584 3024393
0.65671784 0.37872207 0.10157019 1446146
0.65896285 0.38041347 0.10115725 3417617
0.66133451 0.38148326 0.10056674 9863520
0.66384476 0.38126138 0.10049742 12957839
0.66659319 0.38307843 0.10015351 9676161
0.66937906 0.38516074 0.09937942 7050557
0.67240524 0.38615704 0.098605096 6921516
0.67476821 0.38778242 0.097827971 6921526
0.67726994 0.38848352 0.097439706 6593065
0.65505868 0.37928465 0.098501623 1512707
0.65847832 0.3807663 0.098481953 1706756
0.72111094 0.37365371 0.13958716 5325147
0.7235105 0.37473387 0.13856494 3024239
0.7264902 0.37624913 0.13834715 5460122
0.72856247 0.37724894 0.13786942 9274272
0.72009581 0.37719795 0.13546884 3092019
0.71859574 0.3768782 0.1343593 4671560
0.69278288 0.38323569 0.11423308 4797441
0.69136339 0.38669732 0.11040139 7693358
0.69493085 0.38888186 0.10913259 11447651
0.687778 0.38818994 0.10830212 11317297
0.69060493 0.38809121 0.1081593 11250233
0.69324148 0.38933861 0.10822576 9802308
0.69607466 0.39058265 0.10798001 5856802
0.69851804 0.39249045 0.10683066 6376464
0.70101482 0.39332318 0.10554874 9734203
0.70337456 0.39474931 0.10520089 8157216
0.70600635 0.39609373 0.10528916 2298890
0.68432456 0.38895032 0.10671908 10924339
0.686822 0.38820356 0.10664332 10528555
0.68996209 0.38933322 0.10590392 8685071
0.69136542 0.39079458 0.10471994 2697242
0.6949203 0.39248893 0.10483021 7760425
0.69811881 0.39288977 0.10465527 10983479
0.70298451 0.3962529 0.10382783 6116890
0.70397091 0.39681044 0.10263246 1443350
0.68340087 0.38856444 0.10501969 10398520
0.68532956 0.38967398 0.10393548 9279003
0.68832994 0.39068508 0.10411257 5855500
0.69188076 0.39169559 0.10343009 1907245
0.69400185 0.39315566 0.10338908 1643028
0.70523942 0.39967048 0.099855602 657152
0.65444183 0.37858209 0.10837549 6655309
0.65734899 0.37869206 0.10719693 6057535
0.65987021 0.38053349 0.10698438 7834703
0.68237662 0.38931984 0.1026966 7113255
0.68404824 0.39130211 0.10183442 6846217
0.68607181 0.39147857 0.1028648 6512914
0.70378006 0.40040439 0.097356737 2170654
0.70624036 0.40088606 0.097559154 920832
0.70791656 0.40259659 0.097916305 5056768
0.65744716 0.38016418 0.10750657 7628838
0.65942419 0.38057703 0.10543621 6113828
0.66197401 0.38173786 0.10506862 11182465
0.66450256 0.38316098 0.10362571 11185039
0.66707712 0.38363531 0.10341865 10594954
0.66965306 0.3852421 0.10319829 6389798
0.67846763 0.39089656 0.099897265 6919959
0.68069172 0.39118204 0.10055017 5273373
0.65523416 0.38176981 0.1029889 6376733
0.66635805 0.38605261 0.10102975 7637095
0.66951615 0.38710445 0.10059917 6327080
0.67131996 0.3883858 0.099176824 6394914
0.67418391 0.38989291 0.098349333 6329887
0.67710066 0.39110851 0.098521829 6328870
0.67939419 0.39186728 0.0986045 5142808
0.65752375 0.38213128 0.10113358 2100480
0.66835439 0.38807106 0.099058151 6129709
0.66990501 0.3899315 0.098118365 6327585
0.67290366 0.39150062 0.097070634 6197287
0.67515391 0.39216119 0.097269654 5145886
0.70239437 0.38922751 0.11484861 14540629
0.69484597 0.39107743 0.11106402 13949058
0.69681299 0.39159614 0.11149985 9608578
0.69807106 0.3924278 0.1102944 10331220
0.70049936 0.39498329 0.1098206 11583077
0.70503873 0.39637372 0.1088106 7827968
0.70682657 0.397147 0.10834581 6903052
0.68734539 0.38934368 0.1093325 13291850
0.68987423 0.39056775 0.10974658 14474582
0.69280827 0.39174587 0.10985476 14606718
0.69532639 0.3928932 0.10956961 12830799
0.69802064 0.39374641 0.10907227 10066474
0.7007187 0.39496061 0.10793716 12697673
0.70346051 0.39653093 0.10721219 9209376
0.70583487 0.39730746 0.1063475 5390864
0.70805454 0.39723518 0.10598695 4270605
0.68397379 0.39062679 0.10846013 13291844
0.68628776 0.39074135 0.10872388 11645239
0.68901509 0.39138645 0.10847074 12959315
0.69106328 0.39363587 0.10677367 11447901
0.69414121 0.39405775 0.10653794 12762716
0.69738835 0.39556351 0.10655791 15658087
0.699157 0.39711955 0.10650104 15461458
0.7015577 0.3972024 0.10626596 13026850
0.70514363 0.3989521 0.1050697 4340230
0.70721412 0.40092924 0.10466146 8676662
0.65825909 0.38034755 0.11215013 9666618
0.68061215 0.389725 0.10896134 8818054
0.68272376 0.39107791 0.10737598 10397256
0.68442458 0.39207864 0.10612494 12238374
0.68728852 0.39249876 0.10601509 10591819
0.65368009 0.37973234 0.10944629 7179882
0.65688998 0.38022703 0.10891038 7635007
0.65976226 0.38195479 0.1090976 9667899
0.66203189 0.38341311 0.10840386 10919802
0.66493672 0.38463244 0.1079036 11118224
0.66672701 0.38504115 0.10680968 10331017
0.68130744 0.39179245 0.1041705 8556095
0.68239278 0.39292574 0.10370821 9671443
0.70603251 0.40311611 0.099193215 4993357
0.70757204 0.40379301 0.098926365 8018198
0.6522367 0.37874484 0.10948032 8291475
0.65385544 0.38214248 0.10836428 6521952
0.6560607 0.38197976 0.10725945 6130767
0.65835905 0.38279074 0.10699838 7108150
0.66277081 0.38302377 0.10657805 10855048
0.6641053 0.38482723 0.10581124 10527634
0.66732436 0.38648254 0.1048755 6911578
0.67789346 0.39307836 0.10344869 265
0.67988151 0.3931222 0.10240799 4216335
0.65508449 0.38357821 0.1048947 9994032
0.6637013 0.38660008 0.1040802 8357497
0.66489887 0.38819608 0.10253125 5268297
0.66839606 0.38938355 0.10247809 3362073
0.66957134 0.3901701 0.10036796 5537050
0.67627996 0.39380476 0.099034965 5734930
0.67762959 0.39407149 0.10000426 2902533
0.66454136 0.39037341 0.10111016 1059107
0.66661757 0.39064279 0.099776208 3230750
0.66969132 0.39239678 0.098943233 4680732
0.67198038 0.39394203 0.09813422 6062369
0.67453116 0.39469159 0.098164976 4810774
0.6765132 0.39575356 0.098878801 3560977
0.66512042 0.39267763 0.098360538 3824417
0.66827327 0.39389205 0.097484708 5600546
0.67044491 0.39525113 0.096754789 6521633
0.67298812 0.39650261 0.097453058 6059808
0.67060256 0.39570534 0.094782233 6063143
0.67125428 0.39815098 0.094364941 4942111
0.69417542 0.39307332 0.11233258 16514974
0.69497764 0.39441395 0.11287946 16318111
0.69775844 0.39540216 0.11227345 15857017
0.70061934 0.39649996 0.1117118 15725181
0.70365494 0.39779067 0.11052841 11380786
0.70644873 0.39852527 0.10909939 9730580
0.68650335 0.39206225 0.11136979 16449163
0.68944162 0.39318293 0.11108875 16119652
0.69190091 0.39381957 0.1114766 16120187
0.69477642 0.39501339 0.11096573 15791199
0.69694865 0.39709792 0.1099121 15133031
0.69897276 0.39696613 0.10980791 14738012
0.70152009 0.39946666 0.10838294 13619023
0.66705751 0.38408181 0.11312288 11972531
0.68117934 0.389447 0.11231548 12499551
0.68392557 0.39158538 0.11124128 16120477
0.68569994 0.39317727 0.10982472 15198285
0.6883266 0.39417499 0.11002553 15922267
0.6911065 0.39540836 0.10921949 16317294
0.69313174 0.39644355 0.109079 16185689
0.69558293 0.39721182 0.10807896 16448344
0.69904268 0.39893246 0.10820079 16448102
0.70159 0.39849126 0.10713649 13684808
0.65759695 0.38180795 0.11356413 9403434
0.66002381 0.38394162 0.11297977 11444814
0.66243124 0.38440311 0.11192727 11907209
0.66529822 0.3856051 0.11179453 11775377
0.66722727 0.38562346 0.11216658 10987142
0.67871153 0.39082536 0.10974252 2762242
0.68237656 0.39272124 0.1078828 12435289
0.68387258 0.39435947 0.10811031 14604892
0.68730229 0.39520544 0.10776335 15987306
0.65658885 0.38371703 0.11220342 9863203
0.65906125 0.38362622 0.11134207 8877600
0.66278327 0.38517225 0.11076015 11775882
0.66467851 0.38550058 0.10921556 11316113
0.66709185 0.38750827 0.1092518 8487519
0.68019515 0.39474943 0.10655105 8353085
0.68254262 0.39443791 0.10604721 13749294
0.65565282 0.38367143 0.10878497 7832123
0.66346109 0.38820162 0.10745597 9277304
0.66554713 0.38923723 0.10690755 7697242
0.67662203 0.39486596 0.10388786 196624
0.67859089 0.39519399 0.1034736 4409369
0.65484375 0.38631904 0.10663539 5932115
0.66415316 0.38965389 0.10431498 3227947
0.66701084 0.39149079 0.10350317 2764576
0.66805762 0.39402229 0.10284823 789767
0.67512065 0.396052 0.10116923 2238230
0.67734861 0.39646688 0.10153645 1712899
0.65510726 0.38877168 0.10553306 6388838
0.66432571 0.3915658 0.10217863 268298
0.66656929 0.39338002 0.10291845 1843463
0.66886145 0.39521593 0.10047096 924169
0.67144454 0.39790821 0.10009342 2699541
0.67409623 0.39730346 0.09978205 2502154
0.67585278 0.39819691 0.0998981 660226
0.66517341 0.39431214 0.099551439 594949
0.66722476 0.39620918 0.097581387 2898962
0.67067051 0.39749521 0.09796232 3161354
0.6723426 0.39771572 0.097929657 4347147
0.66437995 0.39557946 0.097532332 3228188
0.66646624 0.39732096 0.097273171 3425804
0.66898072 0.3975741 0.096084893 5532948
0.6860159 0.39324725 0.11714631 16775837
0.68813229 0.39426839 0.11665839 16776354
0.69215143 0.39525518 0.11517018 16580009
0.69471693 0.3967661 0.11463815 15658893
0.69740993 0.39799228 0.11394882 14145652
0.70021617 0.39875168 0.11303592 14080622
0.68072349 0.39031753 0.1156041 13485685
0.68335301 0.39230046 0.11541927 16383393
0.68636733 0.39304066 0.11430305 16383884
0.68883777 0.39502063 0.11300087 16186216
0.69090134 0.39657837 0.11313981 15923017
0.69364548 0.3962512 0.11324167 15791171
0.69607103 0.39870486 0.11069798 16186228
0.6603933 0.38443902 0.11693567 10916662
0.66328043 0.38553557 0.11675155 15787455
0.6662451 0.38627496 0.11578757 14405811
0.66872108 0.38732967 0.11680651 9996896
0.67829305 0.39091137 0.11466604 10193232
0.68342376 0.39267269 0.11306196 16383881
0.68488598 0.39494193 0.11146271 16119403
0.68711394 0.39649639 0.11157483 16054360
0.68981087 0.39794976 0.11049247 16120151
0.69248748 0.39861181 0.11060083 16251741
0.69532222 0.40016818 0.10962689 16251477
0.69865394 0.40096614 0.10966414 16382564
0.65697813 0.3834725 0.1152246 9206054
0.6598419 0.38511658 0.1144864 10126892
0.66227072 0.3864269 0.11411399 14603433
0.66519701 0.38742939 0.11409611 13419424
0.66730928 0.38878411 0.11348045 10325607
0.67028743 0.38966811 0.11373794 11112034
0.67240262 0.39004955 0.11338151 11178607
0.68165302 0.39572215 0.10954922 15261037
0.6835385 0.39655808 0.10993469 15987053
0.68696183 0.39757621 0.10981339 15921995
0.65680671 0.38523108 0.11336535 9008411
0.65882498 0.38624203 0.11370951 11838546
0.66158396 0.38718867 0.11186868 12500124
0.66387266 0.38852975 0.11033773 10657670
0.66533744 0.39078352 0.11034095 9404504
0.66868567 0.39104792 0.11016941 7099441
0.67431307 0.39402825 0.10966367 10455649
0.67628789 0.39474294 0.10906798 9271373
0.68008792 0.39676213 0.10799307 12233044
0.68227237 0.39724785 0.10854244 15657572
0.66632074 0.39102897 0.10921723 10193747
0.66743731 0.39311865 0.10835046 8745009
0.67559469 0.39735925 0.10563368 7494413
0.6778475 0.39747244 0.10564071 4470809
0.66378886 0.39167503 0.10696501 8484439
0.66711086 0.39454228 0.1049127 4732963
0.67507952 0.39835125 0.10375345 4733200
0.67700559 0.39959893 0.10352886 2760203
0.66692305 0.39496166 0.1028437 1316866
0.66920352 0.39763805 0.1021046 1248776
0.67394167 0.39987177 0.10142589 1051395
0.67507589 0.40005606 0.10164887 328449
0.6624676 0.39470294 0.10117573 1775632
0.66640103 0.39842147 0.10007274 2234380
0.67011672 0.40002254 0.099518836 1709319
0.67221266 0.40062425 0.09941262 1183748
0.66078854 0.39744124 0.10060734 7102025
0.66241229 0.39833161 0.098200381 2236684
0.66577721 0.39945516 0.098177731 1842181
0.66764998 0.40026554 0.097913325 1645319
0.68563098 0.39449 0.11807758 12825674
0.68774736 0.39551112 0.11758965 12759387
0.69198024 0.39755338 0.11661392 11508601
0.69409668 0.39857453 0.116126 10587488
0.69652814 0.3983463 0.11537397 15856181
0.66157359 0.38437003 0.12043613 14797954
0.66456521 0.38641894 0.12048465 16578547
0.66743195 0.38835341 0.11925989 12761993
0.68085164 0.3925221 0.1168384 13222669
0.68277556 0.39416462 0.11681622 13945153
0.68912488 0.39722806 0.11535257 14735467
0.69041657 0.39802206 0.11486977 15131470
0.66006964 0.38604745 0.12021023 12692293
0.66328341 0.38687408 0.11874616 16249787
0.66557413 0.38821107 0.11799484 15524290
0.66809952 0.38943166 0.11771035 10455899
0.68225121 0.39697498 0.11353642 15462257
0.68442607 0.39786005 0.11285347 15723858
0.68632692 0.39833191 0.11310095 15922263
0.68886012 0.39942214 0.11240107 16186479
0.69158757 0.40106431 0.11082166 16054359
0.69311351 0.40174609 0.11062843 15923823
0.65721822 0.38653255 0.11738223 9269764
0.6591472 0.38774318 0.11647815 13283413
0.66113675 0.38810316 0.11661398 16246427
0.66415429 0.38950148 0.11654496 14077605
0.66578281 0.39077258 0.11569369 9273681
0.68025547 0.39772698 0.1115362 14339422
