# .PCD v0.7 - Point Cloud Data file format
VERSION 0.7
FIELDS x y z rgba
SIZE 4 4 4 4
TYPE F F F U
COUNT 1 1 1 1
WIDTH 1125
HEIGHT 1
VIEWPOINT 0 0 0 1 0 0 0
POINTS 1125
DATA ascii
0.65335989 0.32473499 0.016931474 329475
0.65622568 0.3274706 0.017011642 1313547
0.65704644 0.32952017 0.016586781 526091
0.66045713 0.33139163 0.015886545 657414
0.66146302 0.33457193 0.01557225 856620
0.65061891 0.32370931 0.015820146 591113
0.65426797 0.32936397 0.015215516 723222
0.65561354 0.3309367 0.015148103 722696
0.658306 0.33487666 0.015932918 330791
0.6592865 0.33460045 0.014129519 462380
0.64863229 0.32494161 0.013913751 591113
0.65198213 0.33047223 0.013360441 460562
0.65329933 0.33171079 0.013071895 788748
0.65613353 0.33511931 0.013106585 465213
0.64589131 0.32391584 0.012802422 2957062
0.6469233 0.32526174 0.012686133 1443840
0.65021491 0.33124024 0.012047827 788495
0.65150493 0.33506495 0.011846066 8489878
0.6538012 0.33577934 0.011255085 2702942
0.725088 0.4294022 0.0017108917 14201445
0.64079791 0.3243309 0.010413289 4996354
0.64268446 0.32551676 0.010910749 4075264
0.64770722 0.33268929 0.010097086 985098
0.65033317 0.33533078 0.0096406937 9738650
0.71818328 0.42547625 0.00098413229 13807455
0.72039437 0.42731184 0.00091809034 14069857
0.72216988 0.42978895 0.0014874935 14201442
0.72368771 0.4326126 0.0015892982 14267235
0.64527661 0.33387056 0.0081672668 1381142
0.70887232 0.4166998 -0.00048851967 13017428
0.71316659 0.42277315 -0.00026667118 13411154
0.7152651 0.42507237 0.00062382221 13609564
0.71622151 0.42768124 0.0010520816 13741404
0.71836382 0.42959774 -0.00039172173 13870930
0.72055447 0.43095976 -2.7477741e-05 14068567
0.64303672 0.33449131 0.0075352192 4075023
0.69623417 0.40481913 -0.00016736984 12291901
0.69909823 0.40641275 -0.00016278028 12489021
0.69951129 0.41018766 -0.00031942129 12753224
0.70185983 0.41194022 -0.00049060583 12819017
0.70449543 0.41349798 -0.00037062168 12884554
0.70585018 0.41613162 -0.00026094913 12950861
0.7071178 0.41894758 -0.00027835369 13081930
0.70954406 0.42076737 -0.00044250488 13147724
0.71113867 0.42418459 -0.000467062 13344331
0.71245205 0.42592934 -4.696846e-05 13410639
0.71502769 0.42780527 -0.00079709291 13606472
0.71636212 0.43216789 -0.00059252977 13738056
0.71816367 0.4330591 -0.00060349703 13869385
0.63338554 0.32485932 0.0055677295 5784069
0.63551027 0.32763022 0.0053282976 5652483
0.63677323 0.33005428 0.0058517456 5126919
0.64197266 0.33612064 0.0052543879 3024154
0.68752933 0.39724454 -0.0013557673 9598022
0.69159937 0.40234917 -0.0011777282 11768667
0.69350302 0.40275937 -0.00073516369 12162898
0.69444275 0.40729052 -0.00062143803 12358980
0.6969499 0.4086923 -0.00052237511 12555845
0.69892132 0.41345161 -0.00067138672 12820049
0.70216036 0.41594508 -0.00044691563 12950346
0.70878172 0.42433077 -0.00068587065 13278019
0.71230435 0.42953116 -0.004257977 12954474
0.62691104 0.3189646 0.0048772097 6903319
0.62814373 0.32134905 0.0054040551 6968345
0.62972212 0.32340753 0.0052261949 6574099
0.63104355 0.32538983 0.0052991509 6179343
0.63310987 0.3286024 0.0055101514 5718283
0.63465792 0.33062124 0.0053356886 5389062
0.63879585 0.33837381 0.0038698316 4272666
0.69015801 0.40513879 -0.002150178 10783840
0.69250047 0.40664494 -0.0019389987 12164442
0.6965881 0.41266277 -0.001270175 12688720
0.70147836 0.41980529 -0.0053109527 12298878
0.7041322 0.42267358 -0.0055772066 13015886
0.706007 0.42393768 -0.0042773485 12691554
0.70704603 0.42622524 -0.0051273704 12821862
0.70948768 0.42922184 -0.0045720935 13083489
0.70920813 0.43144262 -0.0037665367 12498552
0.711887 0.43356574 -0.0051230192 13215331
0.61866915 0.31614187 0.0035870671 8416040
0.62079388 0.3189128 0.0033476353 7955753
0.62394118 0.31969172 0.003747344 7495458
0.62520427 0.32211566 0.004270792 7495457
0.63605547 0.33840382 0.0010944009 6309402
0.63715929 0.3390924 0.0013175011 5391652
0.68698812 0.40450451 -0.0054620504 11904381
0.69031465 0.40891248 -0.0053266287 11707256
0.69267631 0.41051161 -0.0053298473 11838584
0.69428927 0.41405725 -0.0060179234 12165484
0.69823682 0.41777855 -0.0058832765 12689504
0.69950944 0.4210192 -0.0058133006 12690280
0.70122039 0.42360479 -0.0056574345 12690536
0.70321423 0.42503226 -0.005430162 12691311
0.70485765 0.42801285 -0.0050780773 13017952
0.70622361 0.42977762 -0.0056666136 12561535
0.70901775 0.43292207 -0.0053885579 12822896
0.61480713 0.31648242 0.0032235384 8678696
0.61638558 0.31854081 0.0030456781 8744743
0.61747825 0.3199659 0.0029225349 8350753
0.63405859 0.33903092 -0.00059735775 5980180
0.63579404 0.34107396 0.0019019842 4797960
0.68334043 0.40380484 -0.0049980879 11309388
0.68510675 0.40453413 -0.0057353973 10715220
0.68680257 0.40724877 -0.0053150058 11838585
0.68795574 0.40990204 -0.0060369372 12099172
0.69012499 0.41363305 -0.0057337284 11904634
0.69211066 0.41546917 -0.0063327551 12296036
0.69442433 0.41731399 -0.0061113834 12492901
0.69590735 0.42004371 -0.0057018399 12494190
0.69763088 0.42262512 -0.0060907006 12690280
0.70013386 0.4267109 -0.0060291886 12496255
0.62484747 0.33097875 -0.0015720725 7294495
0.63034838 0.33774382 -0.0016411543 6440218
0.63158166 0.34053791 -0.0016291142 6045977
0.63275337 0.3424499 -0.00038695335 5785384
0.68042409 0.40514752 -0.006567359 8017472
0.68347412 0.40789646 -0.0061618686 11438681
0.68531466 0.40883687 -0.006719172 12752981
0.68596041 0.41286969 -0.0069412589 12622678
0.68893921 0.41379172 -0.0071125627 12425036
0.69098055 0.41691297 -0.0062282681 12687181
0.61061323 0.31705832 -0.0024772286 8610348
0.61554086 0.32314461 -0.0023326874 8347175
0.61756498 0.32589924 -0.0021918416 8215590
0.61832994 0.32824069 -0.0026584268 7952676
0.62068152 0.32957613 -0.0025146008 7558433
0.62220138 0.33264136 -0.0025236607 7361054
0.62459868 0.33540857 -0.0022155643 7097628
0.62636173 0.33741796 -0.0027827621 6440215
0.62767941 0.34000394 -0.0024581552 6111255
0.62975895 0.34236151 -0.0031315684 5849890
0.63159776 0.34274349 -0.0028585792 5525314
0.60828912 0.31698692 -0.0034636855 8610346
0.60870105 0.32062539 -0.0030150414 8807469
0.61119419 0.32211468 -0.0031241179 8544553
0.61293536 0.32487234 -0.003023088 8347175
0.61508149 0.32701099 -0.002959609 8215592
0.61582118 0.33025497 -0.0030721426 8084774
0.61867994 0.33229738 -0.0030366182 7690274
0.62065727 0.33453366 -0.0034629107 7229726
0.62224096 0.33559665 -0.0034189224 6966812
0.62575305 0.34076312 -0.0060157776 6441762
0.62760174 0.34386158 -0.0049139261 5983539
0.62892717 0.34450114 -0.0032931566 6309665
0.60723644 0.32082289 -0.0044682026 8677172
0.60896456 0.32293507 -0.005009532 8350011
0.61125606 0.32529032 -0.0048040152 8283962
0.61307323 0.32802078 -0.0050752163 8152377
0.61432076 0.3320958 -0.0060467124 8217906
0.61685878 0.33260971 -0.006325841 7627320
0.61811781 0.33545309 -0.0060989261 7495479
0.62014592 0.33772212 -0.0061838031 7167036
0.62224591 0.3403585 -0.0063731074 6706743
0.62372828 0.34316698 -0.0059099793 6508847
0.62602735 0.34406239 -0.0055983663 5853763
0.6090194 0.32724151 -0.0057746768 8220489
0.61073625 0.33021599 -0.00601089 8154957
0.6129185 0.3314361 -0.0061480999 8023370
0.61454606 0.3346228 -0.0062307119 7826506
0.61586726 0.33725733 -0.0064093471 7564625
0.61714154 0.33973974 -0.0065707564 7693633
0.61894345 0.3404943 -0.0066991448 7103821
0.62169504 0.34308147 -0.0064254999 6577479
0.68029934 0.42824209 -0.019603312 11973538
0.68289185 0.43130463 -0.01962769 12039330
0.68468702 0.43428445 -0.019643009 12105123
0.673594 0.42505714 -0.019489765 5521462
0.67613542 0.42572713 -0.019879639 11378567
0.67966235 0.43155897 -0.019761741 11973539
0.6815182 0.43461797 -0.019783914 12170915
0.61817038 0.36064965 -0.018572927 9605765
0.62047124 0.36260426 -0.017926216 9737862
0.6227721 0.36455888 -0.017279625 10066835
0.6099121 0.35256606 -0.018764257 9474690
0.61181229 0.35497695 -0.018585503 9540230
0.61384147 0.35741943 -0.018358052 9671814
0.61549461 0.3578881 -0.018728733 9606019
0.61657631 0.3618753 -0.018534899 9737607
0.61818397 0.36536452 -0.017973304 10066570
0.62027711 0.36504096 -0.017761707 10132365
0.61140716 0.35798073 -0.018846989 9671816
0.61245871 0.36149359 -0.019292831 9737607
0.61500216 0.36321849 -0.018420815 9934986
0.69770372 0.34114599 0.034651339 1051654
0.7014125 0.34666872 0.035001457 1116936
0.68869931 0.33395651 0.033801138 854278
0.69093752 0.3356216 0.033465505 854278
0.69355065 0.33815134 0.034280777 788741
0.69536722 0.34072098 0.033557057 591365
0.69764709 0.34311908 0.033107817 722950
0.69907057 0.34483972 0.033251464 788744
0.70163429 0.34594947 0.033030808 1248521
0.70239872 0.34856421 0.032799363 1314057
0.70305216 0.35148919 0.032249212 1445386
0.708184 0.35850126 0.031764328 3479050
0.7092396 0.36028647 0.031094491 8739641
0.68371439 0.33087021 0.032783449 854276
0.68646342 0.33208591 0.032876134 854277
0.68694431 0.33501244 0.031908989 460035
0.68988746 0.33664173 0.032297552 394244
0.69200301 0.33943215 0.032446623 394501
0.69236219 0.34248814 0.031289518 328969
0.69316292 0.34392333 0.032345176 329223
0.69672966 0.34535789 0.030898452 460297
0.69935596 0.34828475 0.031797767 591623
0.70079482 0.35132107 0.030737221 722951
0.70244253 0.35385936 0.031245768 985607
0.70452428 0.35632381 0.031096876 985093
0.70579672 0.35835993 0.02989465 3089173
0.68010318 0.3299849 0.031421423 722693
0.68229705 0.33113676 0.031331599 525571
0.68412679 0.33290672 0.030777216 459780
0.68562436 0.33673072 0.031310916 328969
0.68807375 0.33849543 0.030590534 328969
0.68893838 0.34108931 0.030518353 526090
0.69104147 0.34306425 0.030182123 592142
0.6930933 0.34583768 0.030128956 592141
0.69495392 0.34838536 0.029712379 526351
0.69656146 0.35021043 0.030308008 460814
0.69815099 0.35274705 0.029624939 526608
0.69922292 0.3556259 0.029331625 526606
0.70318079 0.35663852 0.028663993 460036
0.67575479 0.32836765 0.03063941 788484
0.67830265 0.32954568 0.029655874 657156
0.68003154 0.33223215 0.029019952 394503
0.68154931 0.33499998 0.029569685 329224
0.68361127 0.33738533 0.028981924 526606
0.68591249 0.33965331 0.029195726 526865
0.6879701 0.34124175 0.028686345 527121
0.69013548 0.34370112 0.028490305 527383
0.69175762 0.34563321 0.027970135 527125
0.69405913 0.34840745 0.027876258 527383
0.69540143 0.35108665 0.028400838 789007
0.69683349 0.35322273 0.027823806 592660
0.69859111 0.35618776 0.027742743 723727
0.70017922 0.35882083 0.027528822 592915
0.70101428 0.36140817 0.026631057 723987
0.70169699 0.36383885 0.027198374 855312
0.67209268 0.32749099 0.028926849 788485
0.67461395 0.32872665 0.028325677 591364
0.6752193 0.33228022 0.027802885 394760
0.67816186 0.33377069 0.028187096 460295
0.68008262 0.33617723 0.027622104 527382
0.68421608 0.33907512 0.026942492 527385
0.69756174 0.35673159 0.025924742 986124
0.69900644 0.36046141 0.025631726 1183246
0.70051992 0.36281472 0.025365949 1183246
0.70203698 0.36471266 0.025082946 921367
0.70321298 0.36753643 0.025180578 920597
0.70487583 0.36982408 0.024541795 2363406
0.66825891 0.32664672 0.0265522 1051398
0.67056298 0.32851341 0.02679491 525830
0.67296052 0.33091205 0.027006209 329227
0.67389321 0.33303824 0.026269078 592139
0.67629743 0.33519083 0.02661556 593178
0.70227611 0.36700004 0.023607969 919045
0.70326185 0.37074608 0.023082376 1512220
0.70341641 0.37404794 0.023198664 1317158
0.66637146 0.32811302 0.025309861 591623
0.6684857 0.32956865 0.025593162 394760
0.67058611 0.33141208 0.025610089 591623
0.67222583 0.3344439 0.02432853 659226
0.7038939 0.37528056 0.021234512 1251369
0.70475471 0.3788442 0.021877766 789787
0.70617998 0.37992293 0.019967318 2957084
0.66279459 0.32691813 0.023595273 985349
0.66425246 0.32869166 0.023922265 460296
0.66619706 0.3310836 0.023789823 657416
0.66900408 0.33380973 0.023483634 725023
0.70418149 0.37836447 0.020009279 658976
0.70537674 0.37928349 0.01932621 1445911
0.65868044 0.3272247 0.022792101 1313800
0.66115105 0.32809842 0.022303343 657159
0.66303492 0.33066994 0.022369683 722951
0.6648066 0.33290416 0.02204442 724508
0.6663425 0.33361864 0.022990048 856354
0.6571542 0.32787323 0.021140337 1051143
0.65867633 0.32934755 0.021012008 526089
0.6604656 0.33089131 0.020403802 722951
0.66226393 0.3340812 0.020654619 856875
0.65499449 0.32882354 0.0195508 985612
0.65736252 0.3299613 0.018648386 657159
0.66028023 0.33492762 0.017963231 725035
0.65249515 0.32996142 0.017848551 854287
0.6554274 0.33153647 0.017513216 788744
0.65667677 0.33482212 0.017410219 267321
0.65076315 0.33099321 0.015637219 722958
0.65231752 0.33381286 0.01626128 5528422
0.65447652 0.33503246 0.015911937 2047071
0.64861065 0.33227646 0.014188707 722697
0.65143108 0.33426937 0.014409184 9542048
0.65313649 0.33560261 0.013543546 4610422
0.64010644 0.324983 0.01182282 5323275
0.64164722 0.32649481 0.013025045 3944704
0.64622062 0.33313364 0.012475014 1379596
0.63839972 0.32813391 0.011216462 5388558
0.64318657 0.33446592 0.010032535 3482125
0.64471459 0.3343426 0.011201024 984589
0.64149594 0.33572385 0.0095861554 3422003
0.64215899 0.33608702 0.0094419122 2167562
0.70791036 0.42255878 0.00030934811 13346135
0.7095015 0.42349511 0.00041562319 13346137
0.71125925 0.42825091 0.00088703632 13609304
0.71354985 0.42930242 0.0012227893 13740635
0.7153517 0.43205047 0.00077521801 13740374
0.64023495 0.33785743 0.0077393651 3219730
0.69601631 0.41233104 5.0067902e-05 12817471
0.69850338 0.4149816 -0.00031781197 12884295
0.70017469 0.41720772 -0.00016582012 13017171
0.70254135 0.41917783 -0.00021773577 13148755
0.70537496 0.42151424 -0.00016981363 13214031
0.70619792 0.42422953 6.3300133e-05 13345104
0.70774996 0.42688447 -2.1457672e-05 13410639
0.70991623 0.42835009 -0.00013923645 13475915
0.71211725 0.43141854 -0.00015735626 13606470
0.71313292 0.43356463 7.1763992e-05 13737799
0.63505924 0.33269837 0.0066220164 5388558
0.6377269 0.33975369 0.0056017041 4732182
0.69022238 0.40563875 -0.00017887354 12359254
0.69193566 0.40645999 -0.00032138824 12424525
0.69285166 0.41084388 -0.0010254979 12490825
0.6952458 0.41314644 -0.0010066032 12688461
0.69654113 0.41661537 -0.00052851439 12950344
0.69750142 0.41891652 -0.00045865774 13081674
0.70002329 0.42066741 -0.00057411194 13147466
0.70265341 0.42282307 -0.0001603961 13279052
0.70384485 0.42500389 -0.00016272068 13343556
0.70565885 0.42613935 -0.00015991926 13409349
0.62010247 0.31956482 0.0047571659 8087587
0.62222719 0.32233572 0.0045176744 8021533
0.62383592 0.32443374 0.0043363571 7626766
0.62541431 0.32649213 0.0041584373 7364379
0.62753904 0.32926309 0.0039190054 7035154
0.63000226 0.33120102 0.0043514967 6376206
0.63066286 0.33352309 0.004928112 6375960
0.63233495 0.33551744 0.0033784509 5520395
0.68907273 0.41042417 -0.002142489 11834204
0.69130862 0.41284132 -0.0014702082 12492628
0.69393206 0.41444039 -0.001345098 12754251
0.69418985 0.41646582 -0.000467062 12883519
0.70638835 0.43245515 -0.0053770542 12562047
0.70651674 0.43276024 -0.0050933361 13476179
0.61943758 0.32412055 0.0040724277 8415519
0.62264502 0.32825774 0.0036717653 8283949
0.62476981 0.3310287 0.0034323335 7692579
0.62689459 0.3337996 0.003192842 7297309
0.63062811 0.33866853 0.0027720928 5915666
0.63260674 0.34138852 0.0035699606 5388561
0.63410842 0.34213746 0.002904892 5719326
0.68690819 0.41270292 -0.0033839345 10124904
0.68865567 0.41256875 -0.0025851727 12164710
0.69271445 0.41954067 -0.0057490468 12167294
0.69384289 0.42055631 -0.0059065223 12950351
0.69585162 0.42339063 -0.0054683685 12886624
0.69828463 0.42619973 -0.0054536462 12952417
0.70042205 0.42813838 -0.0049802065 13018209
0.70180702 0.43051365 -0.0052790642 13018986
0.70354509 0.43224156 -0.0053061247 12888689
0.61497658 0.32089722 0.0031942129 8745003
0.61660558 0.32297605 0.0029714108 8613418
0.62035948 0.3278257 0.0025092363 8480812
0.63121164 0.3417286 0.0017030239 6177302
0.63232064 0.34358305 0.00084650517 5915676
0.68137306 0.40739039 -0.0058127642 11968612
0.68405932 0.41062033 -0.0059891343 11838841
0.6852842 0.41281277 -0.0053169131 11838842
0.68696791 0.41590428 -0.0057602525 12165743
0.68919778 0.41714165 -0.0057613254 12231534
0.69093174 0.41947949 -0.0057107806 12557917
0.69200611 0.4229247 -0.005762279 12690280
0.69439596 0.42583713 -0.0056658387 12496256
0.69598854 0.42652458 -0.0055041313 12887402
0.6979183 0.42993158 -0.0052288771 13018988
0.70006353 0.43200016 -0.00537467 12693378
0.6088258 0.3177349 0.0026447773 9270314
0.6107437 0.31920022 0.0015408993 9204785
0.61234242 0.32123947 0.0013214946 8876333
0.61378574 0.32472122 0.0025296211 9007921
0.6191318 0.33109123 -0.0012921691 8412713
0.62258071 0.33677506 -0.0013852715 7886371
0.62524003 0.33851117 -0.0015471578 7228702
0.62649232 0.34237945 -0.0012146235 6900251
0.62854141 0.34286538 -0.00079602003 6505493
0.62942064 0.34494099 -0.00015902519 6310694
0.6791749 0.40951246 -0.0066063404 11045471
0.68151116 0.41191503 -0.0063103437 11966827
0.6834805 0.41460517 -0.0064278245 12624487
0.68480873 0.41556275 -0.0064604282 12687958
0.68659508 0.41903391 -0.0059837699 12557920
0.68929309 0.42241734 -0.0057429075 12233343
0.60952258 0.32298467 0.00087970495 9401894
0.61110103 0.32504302 0.00070178509 9138994
0.61588371 0.33054453 -0.0020899177 8675883
0.61709809 0.33449996 -0.0018162727 8675625
0.61907899 0.33503333 -0.0014531612 8478248
0.62044644 0.33672333 -0.0024083257 7690018
0.62294972 0.34024602 -0.002769649 7163933
0.62474567 0.34214908 -0.0023267865 6769436
0.62683314 0.34478325 -0.0015563965 6374423
0.6278069 0.34614047 -0.0030331612 6180657
0.67743665 0.41095996 -0.006741643 11503468
0.68048662 0.41493842 -0.006724 11896648
0.60779226 0.32416523 -0.0032489896 8939052
0.60973251 0.32693937 -0.0031383038 8676394
0.6116035 0.32982576 -0.0027113557 8741933
0.61266875 0.33241281 -0.0024206638 8807468
0.61559129 0.33362672 -0.0023927689 8413481
0.61790454 0.3355484 -0.0029911995 7887653
0.6181621 0.33948669 -0.002636373 8347434
0.620242 0.34101409 -0.002804935 7756069
0.62250137 0.34263897 -0.0029306412 7032866
0.62545443 0.34605366 -0.0044485927 6312241
0.62445128 0.34818816 -0.0039983392 6904374
0.60835838 0.3279056 -0.0029326081 9005101
0.60863143 0.32969058 -0.0054334998 8809016
0.61311865 0.33536422 -0.0044698119 8545584
0.61532521 0.33813697 -0.0042076111 8282670
0.61902094 0.34271637 -0.0062417984 7430718
0.62054366 0.3456378 -0.0060622096 7167547
0.62243521 0.34685296 -0.0055456161 6904376
0.60756791 0.33185762 -0.00587219 8548681
0.6098448 0.33373338 -0.0059847832 8417353
0.61100376 0.33720434 -0.0063283443 8417353
0.61253411 0.33950844 -0.0062816739 8417096
0.61501682 0.34164613 -0.0062877536 8088904
0.61668044 0.34499758 -0.0060932636 8088389
0.61892414 0.34604806 -0.0059409142 7628614
0.61913931 0.3485018 -0.0058447123 8151854
0.60908377 0.33820927 -0.0066194534 8354396
0.6191591 0.367549 -0.017661214 10330003
0.6101321 0.36073965 -0.018698454 9869195
0.61297303 0.36506081 -0.01876092 9934987
0.61520183 0.36712641 -0.018200994 10001034
0.61654228 0.3689906 -0.017621696 10264208
0.60947484 0.36393908 -0.018932879 9869198
0.61143684 0.36631691 -0.018588006 10000782
0.6914711 0.33626318 0.038315177 788996
0.69358325 0.33849186 0.037536383 788997
0.69619894 0.34060282 0.036938429 920070
0.69751334 0.34258118 0.037512243 854022
0.69945252 0.34505996 0.036995351 985606
0.70113003 0.34730893 0.03697896 1182471
0.70257425 0.35033104 0.036530614 1379592
0.68616837 0.3323262 0.036328852 854532
0.6886158 0.33477867 0.037311673 657156
0.69082987 0.33665067 0.035939813 591364
0.69280612 0.33877534 0.036843061 460036
0.69462889 0.34076482 0.036575735 460036
0.6963588 0.34340632 0.035719991 525828
0.69799519 0.34579313 0.03620261 525830
0.69954407 0.3486315 0.035287619 591623
0.70073348 0.35180047 0.035008252 788486
0.70370138 0.35301179 0.034677625 1576457
0.70478451 0.35667539 0.035283208 722693
0.70618033 0.35778856 0.034970522 2364942
0.70844883 0.36010805 0.034437537 6372389
0.68080962 0.32984853 0.036112607 920068
0.6828143 0.33144853 0.035873473 591363
0.68497193 0.33332461 0.035802782 460036
0.68654597 0.33572412 0.034660935 394501
0.68835258 0.33754921 0.034783304 328966
0.69029951 0.34036258 0.034919381 328968
0.69191122 0.34343681 0.034609556 395276
0.69352686 0.34579903 0.034478247 461072
0.69501203 0.34807104 0.033534646 461332
0.69659638 0.34999079 0.033996701 461073
0.69868624 0.35248765 0.033565402 526349
0.70230263 0.35461962 0.034051776 854022
0.70328248 0.35657915 0.033264101 328708
0.70518386 0.35844314 0.032972753 2957331
0.67816645 0.32874089 0.033458948 1051140
0.67934728 0.32999241 0.034448326 657156
0.68089509 0.33233547 0.033858299 460295
0.68297678 0.3348496 0.033797026 328969
0.68484104 0.33619589 0.034249485 263432
0.68596858 0.3397913 0.033239961 461075
0.68821299 0.34203395 0.032821059 526865
0.69047523 0.34390631 0.032903969 526865
0.69304073 0.34624904 0.032596409 591883
0.69429004 0.34880203 0.032661438 723467
0.69617689 0.35142446 0.031881452 658192
0.69781709 0.3536326 0.032524943 592403
0.69933116 0.35595599 0.031553745 526865
0.70022047 0.35840496 0.031972766 592915
0.67339897 0.32728362 0.03275913 1051140
0.67589068 0.32906729 0.032633722 656900
0.67624152 0.3324489 0.032246709 328970
0.67870921 0.33392593 0.031527638 329225
0.68018341 0.33643818 0.031716824 526864
0.68309474 0.33827668 0.032053411 526863
0.68566972 0.3402552 0.031572163 657415
0.69628096 0.35386556 0.030361056 985866
0.69724035 0.35657698 0.030783534 1051915
0.69938231 0.35971063 0.0300228 986382
0.70112085 0.36214644 0.03027159 855572
0.70198715 0.36492187 0.02915138 921365
0.70364404 0.36708257 0.028904319 2034444
0.70417988 0.36981878 0.029268444 5316627
0.66911125 0.32674748 0.031627476 1051142
0.67149198 0.32882488 0.030748904 460036
0.6728121 0.33001688 0.031407893 394760
0.67541605 0.3329398 0.030456781 460295
0.67665195 0.33505332 0.030459285 592917
0.70026255 0.36352086 0.028330266 1511696
0.70168424 0.36525884 0.027439773 1117973
0.70268726 0.3688252 0.027910292 790042
0.70359492 0.37055391 0.027103662 1510932
0.66710162 0.32756108 0.029300392 854277
0.66917884 0.32882425 0.029584289 526344
0.67141294 0.33152145 0.029462695 591624
0.67326081 0.33463717 0.028927922 658971
0.70292145 0.37288332 0.025062501 1251110
0.70313561 0.3755815 0.026030064 1316904
0.70573032 0.37976122 0.025067985 1775126
0.66350758 0.3268851 0.029538453 1182470
0.66549575 0.32853419 0.027676523 591623
0.66697592 0.33094826 0.027671874 657415
0.66929758 0.33334929 0.027458847 724248
0.67102766 0.33456862 0.027321458 659229
0.70318109 0.37556684 0.024069071 1382697
0.70427912 0.37803319 0.024351299 921888
0.70567715 0.37975436 0.023054957 1642769
0.66182077 0.32799298 0.02666074 788487
0.662781 0.33011302 0.02624166 591881
0.6647104 0.33368891 0.026860535 921895
0.66685855 0.33384401 0.025792301 856353
0.65862536 0.32734197 0.025123 1314056
0.65952504 0.32886434 0.024900258 526087
0.66147435 0.33041859 0.02461493 723207
0.6641652 0.33415627 0.024507523 856615
0.6558885 0.32905561 0.023590684 854539
0.65752804 0.33031538 0.023118794 592139
0.66128737 0.33418205 0.023144126 856364
0.6537829 0.32988864 0.021368384 854542
0.65489155 0.33157751 0.021271706 854539
0.65765351 0.33463329 0.021213055 199986
0.65078312 0.32945395 0.020901918 1576460
0.65126187 0.33097762 0.020492256 526351
0.65338695 0.33312133 0.019940078 3028549
0.65450633 0.33489782 0.019004047 2177630
0.64766365 0.33139434 0.018112242 1051925
0.64968693 0.33294046 0.018389523 4013115
0.65144932 0.33473888 0.018784046 8687775
0.64631504 0.33259249 0.016112447 1706756
0.64756197 0.33292282 0.017114103 853767
0.649571 0.33465189 0.016214311 10067874
0.64075994 0.32849097 0.015827417 3613184
0.64421904 0.33331877 0.014687955 2826001
0.64441574 0.33430487 0.014690101 1050380
0.64126718 0.33609742 0.013341546 3222049
0.64003247 0.33792406 0.011830509 4602134
0.70841849 0.4302887 0.00072175264 13675096
0.71027464 0.43160063 0.00070375204 13674323
0.63560879 0.33765721 0.0074923635 5389572
0.63717687 0.3400915 0.0079195499 3879709
0.6993925 0.42213756 0.00024539232 13212227
0.70064771 0.42507353 4.5835972e-05 13411926
0.70275027 0.42705703 0.00024008751 13476689
0.70561874 0.42890364 0.00041115284 13542223
0.70668846 0.43133605 0.00041371584 13673808
0.70758486 0.43364611 0.00074970722 13805137
0.63509417 0.34279639 0.0068526268 5916438
0.63521588 0.34434557 0.0068590045 3021568
0.69241869 0.41616067 -0.00071227551 12818758
0.69417417 0.41837546 -0.00043344498 12950860
0.69527161 0.42114845 -0.00026321411 13081931
0.69662881 0.42375237 0.00025337934 13212745
0.69904041 0.42480081 0.00016748905 13344588
0.70025766 0.42815098 3.8981438e-05 13476689
0.70300472 0.43083909 0.00046473742 13674068
0.70475006 0.43220437 0.00056886673 13672521
0.63371682 0.3431803 0.0041902065 5389844
0.6863445 0.41393337 -0.0014556646 12621912
0.68814659 0.41537097 -0.0019602776 12426591
0.6900214 0.41740015 -0.00091791153 12819016
0.69185871 0.42028409 -0.0010852814 12886097
0.69697082 0.42654487 -0.00020718575 13280340
0.61640984 0.32432014 0.0043642521 8876848
0.61750257 0.32574522 0.0042411089 8678712
0.61863911 0.32857156 0.0039132833 8613170
0.62080067 0.331119 0.004338026 8482091
0.62337387 0.33285892 0.0049160719 8350507
0.62442428 0.33618593 0.0037716627 8218924
0.62606335 0.33832353 0.0035869479 7430440
0.6276418 0.34038198 0.0034090877 7101475
0.63149619 0.34622911 0.0029568672 6638359
0.63222522 0.34640872 0.0041963458 4863499
0.6865499 0.41657248 -0.0012490153 11836004
0.68720859 0.41795567 -0.0013245344 12755037
0.69541597 0.42862755 -0.0052501559 12627843
0.69782162 0.43217456 -0.0057108402 12693378
0.6132322 0.32833302 0.0036025047 9533487
0.61538732 0.3311435 0.0033596158 9468208
0.62793899 0.34390995 0.0015611053 6706717
0.62941742 0.34679645 0.0017952919 6771757
0.63182247 0.34979707 0.0018283725 4469507
0.68177718 0.41557717 -0.0054215193 11970171
0.68494886 0.41834763 -0.0051471591 12167297
0.68529165 0.42171115 -0.0055700541 12233087
0.68740696 0.42217523 -0.0057923794 12689504
0.68967605 0.42601579 -0.0060135722 12430720
0.69098973 0.4276076 -0.0061455965 12691826
0.69281179 0.42835116 -0.0059778094 12887915
0.6947487 0.43161914 -0.0057854652 13018987
0.69577694 0.43443173 -0.0054061413 13150572
0.60648751 0.32267728 0.0025482178 9532466
0.60809624 0.32477522 0.0023669004 9532978
0.61079776 0.32829827 0.0020624399 9598772
0.62155604 0.34178507 0.002186656 8679978
0.62480766 0.34542376 -0.0013989806 7491868
0.62709332 0.34804517 0.00014644861 6969384
0.628869 0.35037208 0.00069236755 6509086
0.67669725 0.41287008 -0.0058169961 12096627
0.67786223 0.4147307 -0.0061061978 12561786
0.67896205 0.4171468 -0.005659163 12101501
0.6816141 0.41928291 -0.0060819983 12428141
0.68360651 0.42183697 -0.0059121847 12558953
0.68727767 0.42624843 -0.0063328743 12690536
0.68849605 0.42961264 -0.0060451627 13017954
0.69158077 0.43114513 -0.0057634115 12953451
0.69252551 0.43383649 -0.0057006478 13476436
0.60936654 0.32770634 0.0015136003 9599028
0.61683297 0.33871153 -0.0022060275 8873263
0.61900663 0.34291512 -0.0019988418 8347691
0.62166703 0.3448599 -0.0014425516 8150820
0.62343097 0.3470937 -0.0010136366 7757091
0.62535417 0.34958899 -0.0017008185 7297067
0.67480224 0.4129042 -0.0061594248 8149038
0.67500293 0.41626525 -0.0064096451 12691040
0.67749417 0.41910088 -0.0077655315 10909005
0.67944008 0.42214233 -0.0071926713 13214295
0.68162632 0.42225969 -0.0068981647 12885076
0.68310726 0.42628801 -0.007070303 13016146
0.60830712 0.33167958 -0.0028342009 9070895
0.61125231 0.33409691 -0.0028090477 8742446
0.61234248 0.33692616 -0.002296567 9136430
0.61439204 0.33923152 -0.0021364093 8939310
0.61650932 0.34134448 -0.0018942952 8873262
0.61629289 0.34495199 -0.0020208955 9005103
0.61868668 0.34671438 -0.0020438433 8807724
0.62059438 0.34860754 -0.0030390024 8151859
0.6231814 0.35108179 -0.0029748082 7559207
0.6082291 0.3354626 -0.0033077002 9334068
0.61013055 0.33819592 -0.0026021004 9333809
0.61170429 0.33949813 -0.0020706058 9530418
0.61462909 0.34462416 -0.0059620142 8417354
0.61701536 0.3480781 -0.006208241 8219973
0.6180321 0.35011202 -0.0058060884 8025176
0.62008786 0.35255796 -0.0045722127 8285510
0.60769773 0.33950236 -0.0061487556 8943437
0.60952866 0.3419461 -0.005910635 8942666
0.61233366 0.3437109 -0.0062032938 8483921
0.61252499 0.3470006 -0.0059024096 8942408
0.61480856 0.34920695 -0.0060039163 8615248
0.6168412 0.35138574 -0.0055321455 8679234
0.60935783 0.34494901 -0.0065875053 8683105
0.6110847 0.34743005 -0.006405592 8617314
0.60960448 0.36620587 -0.018591225 9869199
0.61142987 0.36867896 -0.018357337 10066575
0.61393297 0.37030548 -0.017519951 10198673
0.60998684 0.37160558 -0.018489301 10132625
0.61196005 0.37379339 -0.018050909 10461591
0.61341602 0.37427801 -0.018525779 10527899
0.69393206 0.33816397 0.042683482 854532
0.69789684 0.34294364 0.041090727 985605
0.70089865 0.34738517 0.041654468 1248263
0.68694878 0.33406565 0.04145515 460036
0.68903363 0.33467224 0.041152 657412
0.69078839 0.33676308 0.040965199 591364
0.69328856 0.33895802 0.040070713 591364
0.6954298 0.34111279 0.040033877 722949
0.6966576 0.34333116 0.040424168 525829
0.69897687 0.34573936 0.03990519 788485
0.69983143 0.3483924 0.039820731 722950
0.70229042 0.35033393 0.039405346 1379591
0.70423371 0.35377806 0.03852421 1642248
0.70528746 0.3558864 0.040116072 1444871
0.7069332 0.35880446 0.038789749 1903364
0.68558431 0.33296311 0.039245427 722947
0.68773854 0.33502042 0.03904897 460036
0.68941963 0.33763468 0.038905561 394245
0.69051313 0.34025794 0.039012432 328968
0.69272107 0.34251055 0.038752019 328968
0.69426167 0.34471202 0.038067341 328967
0.69576323 0.34754521 0.038377762 329224
0.69807279 0.35025465 0.038578987 526605
0.70023596 0.35211855 0.038416147 723467
0.70195758 0.35422468 0.037381947 854535
0.70379364 0.35633397 0.037156105 591366
0.70575607 0.35828954 0.0370031 1904393
0.70850319 0.36189663 0.037345469 9462341
0.67823571 0.32861775 0.038494885 985604
0.67993981 0.3299512 0.038352132 722948
0.68219328 0.3311702 0.03847158 657156
0.68290985 0.33430398 0.038338363 263431
0.68561703 0.33660379 0.038059771 263432
0.68899655 0.33904862 0.036898136 328968
0.68819267 0.34247041 0.037936151 592400
0.69038641 0.34434915 0.036997378 592403
0.69259077 0.34642708 0.036996961 592658
0.6948303 0.34874898 0.036659718 592399
0.69692183 0.35100865 0.036604285 526865
0.69823521 0.35334733 0.036343634 461072
0.69953424 0.35588276 0.03608942 527122
0.70046461 0.35863358 0.036419094 592658
0.67374122 0.32761225 0.036674738 1051397
0.67609692 0.3287034 0.036585867 722692
0.67806625 0.3296679 0.036719799 525571
0.68006063 0.33322734 0.036895931 328969
0.68124044 0.33740568 0.035300612 591623
0.6829077 0.33892936 0.036056936 591885
0.68519771 0.34027684 0.0357759 526864
0.68804431 0.34241596 0.035548747 592400
0.68978387 0.34385434 0.03518194 527383
0.69558698 0.35205907 0.033992171 920329
0.69670284 0.35479277 0.034601688 985866
0.69847012 0.35685688 0.033971012 789262
0.69980252 0.35945022 0.034148633 724242
0.70125645 0.36198664 0.033593774 724244
0.70210242 0.36453933 0.034028351 855572
0.70378304 0.36749095 0.033889413 591630
0.6700148 0.32727844 0.036287546 1116934
0.67227626 0.32811621 0.034989238 656900
0.67465937 0.3300063 0.035253882 394503
0.67635083 0.33269781 0.034878731 394505
0.67727542 0.33554992 0.03447926 592142
0.67969823 0.33699542 0.034653425 527122
0.68188792 0.33884215 0.035014033 527638
0.69940639 0.36159432 0.032057941 1380110
0.70002651 0.36338747 0.033462465 1511695
0.70209956 0.3658554 0.032179892 986385
0.70299327 0.36809468 0.031361938 985873
0.70472777 0.36982661 0.031784892 3675921
0.66907668 0.32684559 0.03391695 1051398
0.66989833 0.32913917 0.033399761 394760
0.6729579 0.3317709 0.033632994 460297
0.67382932 0.3344475 0.032751977 658195
0.67553854 0.33550176 0.033565104 593176
0.70272636 0.37200364 0.029595017 1185061
0.70326042 0.37432227 0.030834794 1448233
0.6647135 0.32689345 0.032297134 1116933
0.66615665 0.32879815 0.032063723 394758
0.66798204 0.33097315 0.031772137 591624
0.66996849 0.33349606 0.031820714 658711
0.67176747 0.33442962 0.031789005 659226
0.70346826 0.37581834 0.028797448 1448236
0.70342302 0.37860325 0.02700448 856103
0.70524216 0.38095415 0.027231514 2825755
0.66131645 0.32797384 0.030734003 919813
0.66412866 0.32935619 0.030026793 460551
0.66583741 0.33267605 0.030012727 724508
0.66772962 0.33368617 0.030232489 725026
0.70449686 0.38034514 0.026725531 1051150
0.65866184 0.32749081 0.028630018 1379336
0.66060126 0.32881689 0.029028237 591879
0.66245186 0.33061433 0.02970773 722951
0.66311467 0.33357352 0.028905094 922155
0.65640152 0.32866496 0.027641356 1051142
0.65822262 0.32985026 0.027479887 591882
0.66176569 0.33397281 0.026671708 856620
0.6540997 0.32936364 0.02589947 1051148
0.65644288 0.33065104 0.025777996 592143
0.6581701 0.33451468 0.025642157 265521
0.65083331 0.32959825 0.024478078 1641739
0.65245509 0.33035678 0.024259448 526351
0.65398347 0.33318308 0.024485707 2502721
0.65625864 0.3348732 0.02403605 267836
0.64811325 0.33083844 0.022489607 1378569
0.6502102 0.33199412 0.022702277 591882
0.65194505 0.33450717 0.022451103 8358809
0.65429813 0.33481759 0.022074878 2112613
0.64636135 0.33298618 0.021078885 985610
0.64818788 0.33326057 0.021094263 3354670
0.64931345 0.3352834 0.019775867 10265255
0.64433861 0.33353493 0.01971221 2630940
0.64622188 0.33323157 0.019027591 1181959
0.64355528 0.33422619 0.018324733 3022858
0.64106047 0.33601674 0.015689611 1640193
0.64156151 0.33773816 0.014475703 3152641
0.63654721 0.34099567 0.013524294 7561518
0.63362432 0.34427857 0.0080389977 7232295
0.63456923 0.34500775 0.0073210001 5784326
0.69944394 0.42897618 0.00090634823 13606471
0.70109379 0.43021595 0.00065988302 13606472
0.63276792 0.3482646 0.0071017146 6178832
0.68957388 0.4212051 0.00026237965 13015362
0.69230616 0.42291084 2.9742718e-05 13082187
0.69338924 0.42596608 0.00041419268 13279309
0.69542861 0.42797667 0.00048446655 13476174
0.69707304 0.43042922 0.0003375411 13542223
0.69965202 0.43262053 0.0007096529 13673553
0.68475926 0.41812849 -0.00059592724 12360029
0.68667042 0.42089593 -0.00033551455 12821347
0.68834901 0.42223376 -0.00065350533 12952151
0.68950456 0.42518613 -8.5473061e-05 13082446
0.69181848 0.42604765 0.00020891428 13215062
0.63025194 0.35049921 0.0033261776 6836764
0.68455535 0.42106119 -0.00062537193 11702364
0.61611241 0.33477736 0.0028785467 9139502
0.61775148 0.33691496 0.0026937723 8876589
0.61939061 0.33905253 0.0025090575 9073969
0.6204226 0.34039843 0.0023927689 8811564
0.62687027 0.35012758 0.0011757612 8017960
0.62738591 0.35146117 0.0027656555 8678198
0.63000232 0.35435176 0.0018436909 4008704
0.68644708 0.42850548 -0.0058546662 12496256
0.68740642 0.43121696 -0.0054321885 12627843
0.68968153 0.43113095 -0.0052412748 12693380
0.69107652 0.43411967 -0.0055375099 12954483
0.61039311 0.33151275 0.0035127997 9993524
0.61207289 0.33361202 0.0032451153 9862964
0.61371195 0.33574957 0.0030604005 9798196
0.61529034 0.33780801 0.0028825402 9666611
0.61744547 0.34061849 0.0026396513 9666871
0.6190542 0.34271652 0.002458334 9535285
0.62069333 0.34485409 0.0022735596 9600568
0.62284845 0.34766465 0.0020306706 9402677
0.62459731 0.35071799 0.00099378824 8874802
0.62595969 0.35347337 0.0003874898 8150314
0.67609388 0.41851059 -0.0058276653 12430456
0.67779285 0.42168391 -0.0059193373 12101501
0.68231982 0.42643386 -0.0060365796 12298880
0.68431389 0.42904952 -0.0063084364 12886625
0.68521726 0.43214375 -0.005849421 13018209
0.68739927 0.4340179 -0.0057263374 12888435
0.60719228 0.33116171 0.0017431974 9861936
0.60828507 0.33258671 0.0016200542 10059058
0.61968684 0.35023177 -0.0014314651 9201710
0.62210488 0.35199833 -0.000459373 9070129
0.62419486 0.35378736 -0.0014074445 7759682
0.62598878 0.35854363 -0.0013406873 6967322
0.6723752 0.41848898 -0.0069181323 10914390
0.67479533 0.42187375 -0.0069348812 11241316
0.6762163 0.42333865 -0.0073375702 13015130
0.67868918 0.42519879 -0.0066231489 12559210
0.68015492 0.42812252 -0.0061911941 12755296
0.68230456 0.43167174 -0.005974412 13213522
0.68276525 0.43181658 -0.0060566664 12430719
0.60806495 0.3389284 -0.0024667382 9531186
0.61087126 0.34148079 -0.0021100044 9465394
0.61311144 0.34311208 -0.0018461347 9399346
0.61384737 0.34642774 -0.0017725229 9727539
0.61547619 0.34899098 -0.0024808049 9334067
0.6177814 0.35134575 -0.0020372868 9465140
0.61983949 0.35326952 -0.0024402142 8873775
0.62106097 0.35563707 -0.0026949644 8874298
0.62308145 0.3582812 -0.0024042726 8413230
0.67229605 0.42176089 -0.0062996149 12758649
0.67377192 0.42482224 -0.0074742436 10841932
0.60825366 0.34235141 -0.0021083355 9794356
0.61085367 0.34528714 -0.0020703673 9663028
0.61306483 0.34724271 -0.0026942492 9400116
0.614209 0.35324615 -0.0034627914 9531700
0.61711836 0.35527605 -0.0043414235 9139529
0.61965936 0.35681546 -0.0034452081 8678979
0.60829306 0.34647885 -0.0061290264 9271628
0.61028755 0.349765 -0.005947113 9271629
0.61227447 0.35162935 -0.0052317977 9075797
0.61349666 0.3541342 -0.0056461692 9403218
0.61522669 0.35583073 -0.0049631 9339228
0.61758345 0.35965046 -0.0046492815 9012581
0.60951316 0.35270518 -0.0060789585 9405020
0.61113203 0.35501504 -0.0059110522 9209704
0.61007941 0.37384754 -0.018033683 10264213
0.69736242 0.34155574 0.046596467 985606
0.69858766 0.34333426 0.045892358 985861
0.69058388 0.33425957 0.045259237 788740
0.69258535 0.33560997 0.045515954 788739
0.69390774 0.33916521 0.045283854 722693
0.6951943 0.34145734 0.044734001 657157
0.6974299 0.34332216 0.043762028 854277
0.69970763 0.34563228 0.043690205 1051398
0.70077538 0.34755 0.043929935 1182726
0.70234442 0.35080388 0.043616593 1379592
0.70886528 0.36060792 0.043184817 8870461
0.68443561 0.33138639 0.043692887 854531
0.68628991 0.33343995 0.043471634 591364
0.68881226 0.33504355 0.043484807 525828
0.69063866 0.33733416 0.043321133 394501
0.69166857 0.34028298 0.042733669 394503
0.69427943 0.34232497 0.042758226 394502
0.69529951 0.34486932 0.042152047 394504
0.69787574 0.34617957 0.042538345 526085
0.6992898 0.34877703 0.042754173 591621
0.70173389 0.35210836 0.042331696 985863
0.70300674 0.35434085 0.04182291 1248521
0.70429504 0.35662597 0.04206115 788229
0.7065531 0.35925752 0.04114753 4073760
0.70845574 0.36188716 0.039738715 9396547
0.68099272 0.33038288 0.042166591 722692
0.6832583 0.33175075 0.041849196 525827
0.68442297 0.33454117 0.042086542 328710
0.68668979 0.33695027 0.041842937 328968
0.68819988 0.33848065 0.042257726 328711
0.68982393 0.34013903 0.04077971 328712
0.69238591 0.34261551 0.041011572 394505
0.69176555 0.3462745 0.041306138 527383
0.69467318 0.34878105 0.040567935 526865
0.69698513 0.35104316 0.040695965 526606
0.69847357 0.35362679 0.04032737 461329
0.70087957 0.35616839 0.039833486 592660
0.70215929 0.35770926 0.040029943 329485
0.70513409 0.35942334 0.039731443 4140583
0.67708445 0.32905704 0.040879846 722692
0.67895716 0.33069372 0.040783048 525829
0.68032759 0.33317527 0.040367723 263432
0.68255419 0.33580661 0.040514112 460295
0.68364275 0.33900297 0.040021777 592144
0.68592763 0.34066147 0.040022194 592142
0.68799067 0.34246284 0.039709985 592659
0.69007206 0.34464133 0.039955854 592399
0.69212824 0.34679991 0.03964299 592658
0.69347489 0.34913421 0.03840971 788745
0.69567621 0.35150695 0.039356768 854538
0.69686496 0.3554464 0.037755847 985865
0.6991787 0.35653734 0.038169086 657936
0.70084143 0.35937235 0.038372874 592916
0.70134145 0.36226642 0.038003087 724244
0.67302352 0.32819495 0.039679408 722693
0.67455322 0.32999966 0.038863242 328968
0.67659485 0.33158517 0.03927207 263690
0.67748928 0.33553123 0.038789988 592141
0.68014121 0.3373858 0.038227975 592658
0.68217468 0.33880013 0.038289905 527384
0.68458742 0.34036589 0.037864745 592918
0.69872022 0.36025697 0.036802471 1248780
0.70100713 0.36269245 0.036556482 986642
0.70191056 0.36561528 0.036285102 921108
0.70296705 0.36832845 0.035755098 985874
0.70481658 0.37016511 0.035270095 2427654
0.66908711 0.32732168 0.038787544 854277
0.67084676 0.32893068 0.037941575 460038
0.67266625 0.33030862 0.037875056 329226
0.67431998 0.33425707 0.03772825 592399
0.67677724 0.33566064 0.036893308 592658
0.6787585 0.33736151 0.036153793 593176
0.70035368 0.36525327 0.034568965 1643023
0.70259649 0.36865559 0.033914328 922399
0.70304954 0.37118742 0.035076141 1185314
0.66595751 0.32686412 0.036418617 1116934
0.66757083 0.32853836 0.035904884 591622
0.66903687 0.33080167 0.036590219 460553
0.67077172 0.33337075 0.036035776 658453
0.67305118 0.33465618 0.035570383 659228
0.6752733 0.33591262 0.035234988 593433
0.70289201 0.37300375 0.032771587 1251365
0.70368117 0.37613615 0.032172024 1251626
0.70508385 0.37952822 0.031250775 986137
0.66358817 0.32746196 0.03497982 985350
0.66479862 0.32940471 0.034705043 460553
0.66694677 0.33270794 0.034622788 724245
0.66839284 0.33368033 0.033857167 790817
0.7038365 0.3793346 0.0303666 592670
0.70524204 0.3811897 0.029956758 2890784
0.66142511 0.32860053 0.032957792 591881
0.66331339 0.33113882 0.03270191 722951
0.66523445 0.33350128 0.032993674 856614
0.65814328 0.32839555 0.031575382 985607
0.65899742 0.33006775 0.031462014 657417
0.66159475 0.33328378 0.03106755 857137
0.66289008 0.33344901 0.032048643 988204
0.65564251 0.32941383 0.029937744 789006
0.6556344 0.33134151 0.030248165 920330
0.65910864 0.3339867 0.02932179 462129
0.650967 0.32944143 0.028234482 1641739
0.65305984 0.33037224 0.028709888 920076
0.6546126 0.33287403 0.027952492 2108218
0.65597492 0.33433348 0.028428197 266561
0.64932853 0.33058265 0.026902795 852752
0.65115082 0.3324793 0.026286244 5921625
0.65327287 0.33422238 0.026551008 5925249
0.64818889 0.33094537 0.02537185 1316388
0.64875621 0.33274803 0.024957001 723208
0.65218306 0.33425385 0.024554551 8687259
0.6450057 0.3326728 0.023694694 3878686
0.6474849 0.3341645 0.024220824 5920594
0.64358169 0.33428329 0.020924449 2760205
0.64090788 0.33583084 0.020223618 4732187
0.69448924 0.43040034 0.0011940002 13606729
0.63089848 0.35156912 0.0068269968 7362580
0.68789619 0.42439616 0.00037539005 13146435
0.69039851 0.42875531 0.00067192316 13345101
0.69217741 0.43002674 0.00047397614 13476431
0.69378632 0.4326877 0.00047457218 13608275
0.62883174 0.35488954 0.0064480901 7954218
0.68317026 0.4227885 -0.00023436546 13016151
0.684991 0.42571023 -0.00033098459 12951383
0.68700999 0.42803812 0.00030636787 13147725
0.68824536 0.4299559 -0.00015580654 13214291
0.69023591 0.4323118 0.00067573786 13476689
0.69203842 0.43422121 0.00027471781 13674840
0.62766016 0.35294455 0.0042402148 8874802
0.62875289 0.35436958 0.0041170716 8874802
0.68244904 0.42613328 -8.5115433e-05 13081939
0.68437856 0.42869589 -8.2731247e-05 13150302
0.62263227 0.34902793 0.0034649968 9336371
0.62429178 0.35114634 0.0032387376 9073205
0.62491506 0.35426134 0.003158927 9664833
0.62662566 0.3560459 0.0036650896 10059076
0.60759354 0.33323875 0.0030295849 10125368
0.60923266 0.33537632 0.0028448701 10125370
0.61135739 0.33814722 0.0026053786 10125368
0.61299652 0.34028482 0.0024206638 9995315
0.61463559 0.34242243 0.002235949 9929781
0.61676043 0.34519336 0.0019964576 9732404
0.61839944 0.34733087 0.0018117428 9666610
0.61999023 0.34992337 0.0020762682 9929008
0.62147188 0.35289142 0.0027970076 9996101
0.62311095 0.35502899 0.0026122332 10193476
0.67557871 0.42422116 -0.0057067275 12167293
0.67701316 0.4275943 -0.0065633059 13214297
0.67856479 0.42943794 -0.0058108568 12364671
0.68024492 0.43140054 -0.0061960816 12756327
0.68278474 0.4346087 -0.0057305694 12757360
0.60851717 0.33991158 0.0022050142 10388022
0.6101563 0.34204918 0.0020202398 10519865
0.61179543 0.34418675 0.001835525 10455101
0.61395049 0.34699726 0.0015926361 10259010
0.61555928 0.34909528 0.0014113188 10391104
0.61719835 0.35123277 0.001226604 10061110
0.61854017 0.35635096 -0.00072395802 10187836
0.62073326 0.3566151 -0.00013208389 9924666
0.62261307 0.35977775 0.0012568235 10517830
0.62380356 0.36230096 -0.0021004081 8348468
0.62519491 0.36375085 -0.0022091866 5916168
0.66994309 0.42224538 -0.0069543719 12230502
0.67098582 0.4246558 -0.006351769 12627833
0.67302394 0.42574155 -0.0063969493 12031081
0.67483008 0.42764968 -0.0062930584 12559988
0.67622256 0.43076962 -0.0060682893 12756585
0.67917794 0.43409002 -0.0057322979 12822120
0.68065989 0.43495119 -0.0060067177 13279314
0.60879689 0.34676182 -0.0015502572 10319926
0.61078542 0.34924269 -0.0012398958 10451254
0.61328298 0.35072213 -0.0014227629 10253879
0.61608404 0.35259748 -0.0016397834 10188089
0.61648357 0.35599175 -0.0012049079 10385467
0.61805487 0.36036274 -0.0024560094 10518862
0.61964762 0.36061561 -0.0029373765 9465661
0.62251842 0.36126283 -0.002129972 9268798
0.62211877 0.36534524 -0.0022847652 9531707
0.66902447 0.42451334 -0.0064037442 12561271
0.6719225 0.42774728 -0.006116271 12299137
0.67327338 0.43032852 -0.0066476464 13542485
0.60885918 0.35069084 -0.003035605 9992249
0.61070132 0.35252488 -0.0027391315 10188854
0.61244309 0.35543549 -0.0025678873 10385976
0.61416507 0.35656431 -0.0027276874 10254649
0.61636889 0.35891169 -0.0038782358 9730891
0.6181525 0.36322409 -0.0028272271 10057789
0.61937547 0.36443204 -0.0028463006 10321740
0.62340546 0.36925209 -0.0041242242 4403207
0.60909045 0.35472518 -0.0049693584 9929038
0.61101407 0.35566264 -0.0045800209 10058305
0.61250979 0.35878569 -0.0052306652 9930074
0.61417139 0.36179534 -0.004259944 10192210
0.61555398 0.36261064 -0.0044814348 9666900
0.60937065 0.36017126 -0.0057229996 9735533
0.61173743 0.36243936 -0.0052493811 10324572
0.68978536 0.33372974 0.04885149 854277
0.69308197 0.33575064 0.048870504 854532
0.6948657 0.3383742 0.04901433 920068
0.6966837 0.34072131 0.048458636 920069
0.69861126 0.34387255 0.047946513 985860
0.69984412 0.34552431 0.047304749 1051654
0.70081699 0.34743613 0.04882741 1182470
0.70184791 0.3498258 0.047624648 1314056
0.68558514 0.33121425 0.048979759 854532
0.68707108 0.33212376 0.047840774 854533
0.68848473 0.3348704 0.047344029 591365
0.68998313 0.33767575 0.047303975 460036
0.69174707 0.33927512 0.046384215 460036
0.69431102 0.34224772 0.04652822 525829
0.6960156 0.34458685 0.047066391 525830
0.69753087 0.34679055 0.046790302 525829
0.69990361 0.34884983 0.045876026 723206
0.70158529 0.3511802 0.045864224 1116935
0.70375502 0.35435843 0.04537797 1708042
0.70473039 0.35640624 0.04557246 1510663
0.70647019 0.35861382 0.045143485 1508866
0.70874 0.36099708 0.045114338 9001533
0.6819185 0.32975149 0.046289861 920069
0.68351078 0.33186489 0.046286225 591620
0.68558055 0.33359456 0.046519637 460036
0.68779552 0.33636668 0.045389116 394245
0.68929613 0.33898503 0.045396507 328711
0.69101894 0.34159768 0.045605958 329227
0.69273615 0.34381485 0.045573473 329228
0.69388747 0.34536117 0.045181811 395023
0.69632775 0.34811503 0.044911981 395018
0.69754922 0.35121861 0.044600189 460558
0.6998291 0.3532238 0.044549823 591882
0.70221454 0.35521871 0.044586182 854794
0.70327008 0.35700393 0.043916345 196866
0.70508945 0.3600603 0.043684483 3351839
0.67722213 0.32869714 0.045036554 788484
0.67992651 0.33022779 0.045454144 525828
0.68134511 0.33294815 0.044087589 328966
0.6831097 0.33485752 0.045054972 328712
0.68469274 0.33769685 0.044819653 460555
0.68665701 0.34021896 0.044053674 526607
0.68847895 0.34240353 0.043353975 592401
0.69045502 0.34460479 0.043244839 527123
0.69225585 0.34722543 0.043088317 657679
0.69438249 0.34934092 0.043372631 592660
0.69588286 0.35193038 0.042679548 658192
0.69823873 0.35452205 0.043216467 592661
0.69978344 0.35672796 0.042526543 527124
0.70062739 0.35933003 0.042267501 592658
0.70188135 0.36106771 0.042078793 659226
0.67373914 0.32796377 0.043647051 854276
0.67556387 0.32943112 0.043200135 591621
0.67782825 0.33208102 0.043286026 263433
0.67905414 0.3356559 0.043399692 592914
0.68124354 0.33723962 0.042760193 526865
0.68325961 0.33871031 0.042296946 527124
0.68560284 0.34042495 0.041712523 592920
0.69733536 0.35577375 0.041332722 1051401
0.69828367 0.35810381 0.040901065 1117194
0.70037246 0.3607502 0.040118635 855057
0.70122904 0.36316037 0.04052949 855315
0.70233095 0.3655014 0.040369093 856089
0.70341134 0.36820984 0.040369749 525837
0.67028332 0.32691506 0.041773558 1051398
0.6713509 0.32868379 0.041750431 591622
