# .PCD v0.7 - Point Cloud Data file format
VERSION 0.7
FIELDS x y z rgba
SIZE 4 4 4 4
TYPE F F F U
COUNT 1 1 1 1
WIDTH 1156
HEIGHT 1
VIEWPOINT 0 0 0 1 0 0 0
POINTS 1156
DATA ascii
0.69806951 0.33255786 0.012696505 461319
0.69943261 0.3340255 0.011638701 461575
0.69779801 0.33476061 0.01004529 591888
0.69983536 0.33591908 0.0094130635 526856
0.70171833 0.33698028 0.0084556937 592654
0.6997205 0.33746251 0.00670892 329984
0.70200223 0.33848855 0.0070673823 592654
0.70278591 0.34024507 0.0057486296 592650
0.70063579 0.33913684 0.0052412748 461315
0.70261455 0.34080192 0.0036146641 527109
0.70498258 0.34249294 0.0031405091 1710615
0.70893687 0.34280595 0.0018453002 9073497
0.71035713 0.34461859 0.002053082 9007705
0.69944662 0.34170696 0.0022329092 8283456
0.70222986 0.34281045 0.0015674829 6049333
0.70422244 0.34373808 0.0016465187 4668973
0.70717502 0.34482348 0.00084531307 9139035
0.71012104 0.34585181 0.0005838275 9139036
0.69685018 0.34404317 0.001367569 6967091
0.69943041 0.34453982 0.0016695261 8875598
0.68076748 0.27943152 0.070312738 920327
0.68288863 0.28039545 0.07000953 920326
0.68532282 0.28110069 0.069829285 985607
0.68844759 0.28265065 0.069160342 854534
0.67101383 0.27761352 0.070964217 920329
0.67375761 0.27810907 0.070528269 920329
0.67661726 0.27869871 0.069310486 854536
0.67950642 0.27993152 0.06897229 657672
0.68211997 0.28103283 0.068065763 657416
0.68495131 0.282125 0.067136526 788488
0.6878947 0.28353149 0.066490293 854279
0.69061196 0.28456533 0.065848291 788742
0.69284844 0.28536797 0.065716922 985863
0.69476765 0.28761679 0.064743757 854535
0.66236991 0.27793598 0.070537984 1052170
0.66526008 0.27709305 0.070141315 920586
0.66721225 0.27808666 0.069684923 986121
0.67021477 0.27866822 0.068906903 920073
0.67300248 0.27978605 0.068106055 985865
0.67532086 0.28093874 0.067489564 920328
0.67851573 0.28154337 0.0665344 920071
0.68178874 0.28209659 0.066177726 985607
0.68444496 0.28313303 0.066072345 986122
0.68663871 0.28419906 0.064461589 920329
0.68975306 0.28566951 0.063995242 920330
0.69265562 0.28679362 0.063398778 789000
0.69466919 0.28788009 0.062956333 854792
0.69701666 0.28900537 0.061769009 920072
0.69987261 0.29108301 0.060792387 1051657
0.66083282 0.2778748 0.068264484 986633
0.6632815 0.27949446 0.068221509 1248523
0.6663183 0.27957797 0.067302704 986121
0.66873908 0.28041112 0.06759268 920330
0.67192578 0.28053248 0.066123545 854535
0.67500794 0.28178778 0.064762533 788996
0.6773265 0.28267545 0.064180613 788997
0.69155049 0.28736511 0.06140095 1052171
0.69377148 0.28906286 0.060219824 986121
0.69669247 0.29031795 0.059881747 920071
0.69912314 0.29247874 0.05894959 985608
0.70151532 0.29327431 0.057826757 1117449
0.65741444 0.27913848 0.067088723 1052174
0.65987009 0.27985114 0.066128612 1314313
0.66283947 0.28035283 0.066192448 1051657
0.66525209 0.28018999 0.065631866 854537
0.66859895 0.28092241 0.064856529 788743
0.67087209 0.28179279 0.064286053 723204
0.69786543 0.29299909 0.057909369 1183244
0.70064437 0.2945357 0.056536317 1051399
0.7028693 0.29576048 0.056497037 986121
0.65282863 0.28018248 0.066404581 921623
0.65573752 0.279838 0.065090001 1052176
0.65881795 0.28134009 0.065171957 1117451
0.66159648 0.28109774 0.064501762 985355
0.70186228 0.2978203 0.053932726 1117705
0.70464629 0.29854053 0.053566158 985866
0.70741957 0.29985359 0.052753031 985096
0.70874006 0.30030096 0.05102843 1115393
0.65257037 0.28045905 0.063387275 790547
0.65481889 0.2823298 0.063076198 1380106
0.65724689 0.28315854 0.062475324 1051400
0.65904641 0.28369531 0.061261892 1247241
0.70178044 0.29914933 0.051339567 1380619
0.70388716 0.30096599 0.051257789 1051915
0.70793182 0.30173236 0.050430059 1380108
0.7094878 0.30247936 0.049881518 1050371
0.71093357 0.3040162 0.048345864 4006421
0.64766121 0.28164423 0.062725544 7235159
0.65096456 0.28256857 0.062179446 2038553
0.6536572 0.28346694 0.061460376 1314315
0.65550536 0.28457233 0.061198831 985351
0.70282274 0.30106089 0.049206793 1511949
0.70478988 0.30353627 0.048222125 1051914
0.64570534 0.28183872 0.060049653 9207395
0.64953262 0.28493246 0.059532166 1117455
0.65175819 0.28511631 0.059514403 1379337
0.65363431 0.28563252 0.058866978 1181956
0.70498681 0.30436683 0.046220362 1380622
0.70651174 0.30652159 0.045504689 1380878
0.64618921 0.2861118 0.058855534 2234912
0.64758807 0.28588903 0.057406604 1379340
0.65018034 0.28589869 0.058219254 986117
0.70684278 0.30702493 0.043428779 1446158
0.70828134 0.30918863 0.043039858 1445644
0.70956486 0.31083012 0.041894019 1511952
0.64412081 0.28752807 0.056543887 3746337
0.64813125 0.28753495 0.056494832 1051910
0.71000195 0.31126055 0.039910078 1445900
0.64077151 0.28877777 0.055359006 9074269
0.64249223 0.28802264 0.054490149 6575423
0.64510304 0.29000673 0.053896666 919819
0.64022511 0.28904617 0.053591549 8810324
0.64244378 0.29031116 0.052091658 1508096
0.64503586 0.28982723 0.051602483 1051910
0.63989639 0.29413953 0.048220336 3942419
0.68442851 0.31955037 0.030415714 396049
0.68604016 0.32058349 0.029649198 527362
0.68373704 0.32002711 0.027657688 461580
0.68652999 0.32167593 0.02581811 526598
0.68867844 0.32252383 0.02530098 461065
0.68522894 0.32117629 0.024692297 461312
0.68845224 0.3232426 0.023159027 264712
0.69055784 0.32510903 0.022710145 395785
0.69264013 0.32741922 0.020800471 395528
0.69473177 0.32890096 0.019673109 395792
0.69684827 0.33020332 0.018918574 330518
0.69876194 0.33180696 0.018582404 462085
0.69709885 0.33154669 0.01699239 396297
0.69878471 0.3329114 0.016413927 593408
0.70053715 0.33520991 0.015509307 723723
0.69855309 0.33441171 0.015223682 527114
0.69974971 0.33639538 0.013523102 461070
0.70042676 0.33789021 0.01214695 460817
0.70133638 0.33848983 0.010989428 461585
0.70070559 0.34022725 0.0087165236 526857
0.70315218 0.3421964 0.007414937 527121
0.70113146 0.34171382 0.0069843531 723723
0.70337611 0.34368435 0.0068836212 527116
0.70461464 0.34465557 0.0051930547 592908
0.70609343 0.34550467 0.0038356781 658690
0.70404392 0.34721678 0.0023711324 3354413
0.70639789 0.34773961 0.0018849969 9139035
0.70977479 0.34794819 0.0020735264 9139034
0.69577342 0.34510738 0.0015490651 7493428
0.70005465 0.34735358 0.0017303228 8810318
0.70283216 0.34713089 0.002086401 8810579
0.70462084 0.34826952 0.0011632442 3419177
0.70849723 0.35002515 0.0010284185 9270624
0.69580269 0.34761688 0.0011120439 8086083
0.67844892 0.27891424 0.075184524 657928
0.68253344 0.28006327 0.075683355 723463
0.68432802 0.28105226 0.074263275 723205
0.6892522 0.28339231 0.07335192 723461
0.66855979 0.27747333 0.075652063 855048
0.67178792 0.27799001 0.074987531 920330
0.67477947 0.27854094 0.074643314 920329
0.67757964 0.27924803 0.073106766 985863
0.68075997 0.27998662 0.072819591 854790
0.68388122 0.28118205 0.072352588 854534
0.6864295 0.28218767 0.0714854 723462
0.68888485 0.28371632 0.071213782 788997
0.69205904 0.28475294 0.071010888 920326
0.69365293 0.28630474 0.069365382 854535
0.69675088 0.28800246 0.069071054 1117192
0.6660279 0.27739802 0.074359655 920585
0.66837054 0.27846688 0.074047685 1117192
0.67072839 0.2787303 0.072771668 920074
0.67366457 0.28025839 0.072048962 1051143
0.67670876 0.28128901 0.07156086 920077
0.67953324 0.28213245 0.070955276 920327
0.68257481 0.28276569 0.070135474 854536
0.68522316 0.2836121 0.070049822 788744
0.68763661 0.28469482 0.06946522 854536
0.69064379 0.2860254 0.068365335 788999
0.69276148 0.28732398 0.067258716 788998
0.69553941 0.28849187 0.066743255 854537
0.69836468 0.29073796 0.066089869 854792
0.70022899 0.29122445 0.065495908 985866
0.65953761 0.27851918 0.072850525 1117967
0.66261309 0.27765366 0.073486507 1052169
0.66431695 0.27951592 0.071503758 1248778
0.66734326 0.28001952 0.071768105 920071
0.66996396 0.28035378 0.070961297 920073
0.67276663 0.28097335 0.07102257 1051656
0.6751563 0.28147173 0.070349216 1051657
0.69227129 0.2883268 0.065301716 1052168
0.69448817 0.29004642 0.064816773 1117705
0.69748956 0.29077876 0.063687265 920329
0.70004946 0.29183537 0.063740313 1117193
0.70220619 0.29432634 0.062549472 1183241
0.65574998 0.27956599 0.07206434 1052693
0.65828705 0.27868217 0.071403265 1117967
0.6605804 0.27997643 0.070610881 1182986
0.66355383 0.28077468 0.070383668 1051658
0.6667071 0.28070688 0.069113255 1051403
0.69626421 0.29151911 0.061979711 1183499
0.69889891 0.29364195 0.061317444 986121
0.70171678 0.29539886 0.060628831 986121
0.70413417 0.29665154 0.059098661 1183242
0.65468329 0.27968448 0.069309711 920848
0.65661705 0.28012282 0.069576204 1249037
0.65925211 0.28076598 0.069078982 1248522
0.66179711 0.28132463 0.069189668 853768
0.70077056 0.29604453 0.05923146 1183243
0.702842 0.29802319 0.057892799 986121
0.70550442 0.29849985 0.057298899 1314572
0.70688283 0.30050397 0.056646168 1314829
0.65003693 0.28104591 0.068430305 4012594
0.65291005 0.28150338 0.068744183 855051
0.65524852 0.2821427 0.067697763 1248522
0.65829325 0.28240395 0.067830265 1116425
0.70250118 0.30033809 0.055148482 1315342
0.70489222 0.30130512 0.055560768 1051916
0.70770299 0.30156279 0.054893553 1181960
0.70977759 0.30385631 0.05357486 5127226
0.64594102 0.28178567 0.067919075 9207654
0.65002042 0.28084785 0.066090345 4144952
0.65205967 0.28365433 0.065679133 1380364
0.65366751 0.28375798 0.064465582 1117451
0.70356339 0.30187908 0.053405762 1446415
0.70523703 0.30451304 0.052114725 1183244
0.70959598 0.30305266 0.051624894 1246979
0.7107169 0.30552563 0.050661862 4400920
0.64558673 0.28217685 0.064913034 9010789
0.64770353 0.28430024 0.064754546 3353895
0.65012544 0.28464678 0.063978136 1314572
0.7055462 0.30568284 0.049799442 1446416
0.70690632 0.30696711 0.049363077 1511954
0.64623892 0.28617266 0.062652409 2234903
0.64801782 0.28624773 0.061966836 1248011
0.70675516 0.30748802 0.047730029 1117706
0.70815659 0.31027082 0.047115207 1314828
0.64511466 0.28706527 0.060849369 2431513
0.64846033 0.28652865 0.059776425 1117703
0.65000606 0.28712043 0.059388459 986117
0.70896846 0.30997366 0.044784188 1707532
0.7104665 0.31180906 0.044204354 1379597
0.64167142 0.28824344 0.059444189 6377012
0.64299434 0.28837189 0.059652567 2889486
0.63996559 0.28925434 0.058133483 9863528
0.64245385 0.29065913 0.055291831 1638912
0.6450696 0.29045025 0.055754662 1051156
0.63888383 0.28993469 0.055080295 9599837
0.63962984 0.29600802 0.050008476 3349518
0.68596667 0.3194747 0.034237921 396064
0.68812901 0.32083219 0.033238709 396552
0.68571353 0.32015803 0.03208065 198935
0.68745196 0.32188272 0.0306831 396546
0.68719202 0.32261389 0.028571665 461825
0.68930316 0.32389542 0.027983606 396039
0.69092494 0.32491356 0.027234137 264459
0.69121701 0.32716241 0.025145888 527118
0.69285017 0.32871562 0.024929643 526095
0.69617051 0.33021283 0.022915184 526608
0.69763899 0.33100313 0.023398757 592137
0.69259024 0.32944676 0.022818327 395535
0.69462508 0.32996154 0.022947371 461072
0.69770437 0.33210108 0.021127164 395785
0.69935209 0.33353841 0.020319521 658179
0.69950712 0.33512148 0.018719554 657934
0.70028996 0.33670801 0.017978251 657935
0.69895381 0.33600545 0.016768396 658447
0.70063055 0.33782083 0.016030073 527123
0.70210105 0.33982155 0.014607131 461331
0.70079833 0.33981434 0.014371932 592654
0.70252544 0.34217888 0.013467252 723723
0.70071536 0.34218365 0.01141125 461323
0.70287216 0.34364152 0.010682046 723979
0.70327497 0.34562278 0.0088899136 592905
0.70395857 0.34690511 0.0072156787 658702
0.70409912 0.34864184 0.0052765608 593420
0.70586783 0.34731287 0.0052568316 527884
0.70491624 0.350912 0.0024725795 4471862
0.70809841 0.35235408 0.0019695759 9204570
0.69563407 0.34971079 0.0014435053 8744011
0.6980778 0.35049582 0.0016417503 8810064
0.70127326 0.35168293 0.0022348166 8876117
0.70441711 0.35315779 6.711483e-05 6969420
0.70665276 0.35410529 0.00016641617 7298638
0.69250727 0.35014093 0.00147295 6835239
0.69467819 0.35252455 0.0010507703 9006929
0.67749655 0.27904698 0.0803563 789255
0.67985612 0.27942017 0.079591215 657926
0.68272126 0.28006235 0.078402281 657926
0.68524432 0.28095448 0.079518318 657927
0.68719554 0.28185201 0.078144372 723206
0.66969931 0.27806583 0.080000877 854791
0.6731087 0.27842471 0.079102039 920328
0.67636973 0.27901137 0.078989685 854536
0.67864406 0.27949882 0.077467203 854791
0.68136042 0.28053501 0.077238142 854280
0.68460214 0.28159219 0.076429725 920072
0.68742335 0.2825726 0.075331688 854535
0.68935311 0.2837503 0.074650407 854534
0.69191563 0.28536829 0.0747087 854534
0.69408864 0.28691104 0.073231459 854790
0.66565669 0.2779915 0.078021884 920841
0.66945779 0.27855417 0.077811718 1051912
0.67237657 0.27869755 0.077243984 1051656
0.67481488 0.28043833 0.076176286 1117193
0.67759174 0.2818431 0.076237202 920330
0.68049216 0.28244579 0.075128615 920329
0.68329287 0.28317973 0.074187994 920076
0.68594104 0.28406778 0.073897243 788744
0.68875933 0.28526059 0.073361754 788744
0.69129843 0.2870779 0.072374523 920328
0.69356805 0.28801581 0.071308792 788999
0.69647431 0.28850478 0.071364522 985863
0.69910067 0.29057023 0.070518672 1117449
0.70044386 0.29259852 0.069762707 1182983
0.66238499 0.27855423 0.077018797 1052171
0.6652773 0.2794044 0.076474369 1051914
0.66789716 0.28064337 0.075844586 920326
0.67076159 0.280747 0.075133145 920073
0.6732772 0.28131193 0.075034201 1051144
0.67641908 0.28221226 0.074464917 1050633
0.67895895 0.2827805 0.073474348 919819
0.6912967 0.28800961 0.070867598 789252
0.69325942 0.28892252 0.070235372 854790
0.69557422 0.2900942 0.06945169 986120
0.69855058 0.29158166 0.068628609 789000
0.70066303 0.29346758 0.06740427 1051401
0.6593079 0.27926713 0.075815082 1117965
0.66181624 0.28045443 0.074803174 1248778
0.66414833 0.28064084 0.074519753 1051658
0.66780299 0.28115648 0.073435366 1051659
0.69546872 0.29144669 0.067025721 1183498
0.69700897 0.29286933 0.066568553 1117706
0.69913423 0.29454541 0.065235794 1051915
0.70214784 0.29569474 0.064915478 1051656
0.70446873 0.29829955 0.064260185 1314826
0.65539759 0.27977434 0.07448411 1184018
0.65729159 0.2815215 0.073740482 1380107
0.66034538 0.28143379 0.073066115 1248263
0.66281891 0.28219891 0.07225734 788746
0.69983119 0.29519626 0.062958419 1051915
0.70140892 0.2972011 0.062443733 1117706
0.70348668 0.29871631 0.062188029 986376
0.7062667 0.30037349 0.061149597 1314571
0.65149552 0.28096542 0.072584987 1513238
0.65404075 0.28178903 0.072443128 1314829
0.65653324 0.28222433 0.072041392 1314059
0.65919298 0.28270218 0.071723938 1248262
0.70287651 0.30000722 0.059863687 1117707
0.70504463 0.30105209 0.05957973 986122
0.70803052 0.30238429 0.058390558 1116935
0.71007001 0.30437696 0.058163404 2430738
0.64507997 0.28161252 0.072987914 9667433
0.64752626 0.2820183 0.071668506 7498585
0.64988184 0.2813296 0.070655286 3815471
0.65210319 0.28373262 0.070244491 1446159
0.65499949 0.28316367 0.070180357 1116682
0.70462286 0.30350006 0.056813478 1249036
0.70745063 0.3033725 0.057368398 1311748
0.70966959 0.30509153 0.055466771 4468524
0.64355928 0.28269202 0.069452107 9799014
0.64526635 0.28258896 0.069523573 9273186
0.64887053 0.28533301 0.069665432 1117454
0.65053993 0.28475955 0.068138778 1380367
0.70575827 0.30649251 0.05481559 1380621
0.64842463 0.28534901 0.067255795 1248781
0.64933354 0.28593576 0.066002786 1313548
0.7069279 0.30862936 0.051818252 1314830
0.6435833 0.28799671 0.064494371 4273448
0.64582819 0.28741857 0.064888 1510928
0.70880646 0.31183386 0.048729062 1249294
0.7106297 0.3131755 0.04818058 1903626
0.64229316 0.28804085 0.063419878 4534564
0.64536417 0.28761706 0.062684834 1378311
0.64003515 0.2898598 0.061262548 7231549
0.6393162 0.29021868 0.059646189 9336405
0.68594378 0.32142425 0.036244273 331026
0.68863088 0.32224515 0.035823584 200192
0.69039392 0.3238472 0.03488493 592899
0.69004494 0.32449761 0.031594217 461831
0.69109654 0.32729134 0.029645979 461592
0.69285512 0.32909945 0.028164268 329766
0.69089711 0.32804567 0.027519464 592189
0.6935876 0.33033741 0.026398361 264728
0.69544572 0.33192554 0.025488436 461076
0.69741827 0.33266187 0.025049448 527114
0.69765669 0.33415264 0.02367264 527114
0.69944364 0.33534116 0.022672951 527365
0.69974089 0.33695424 0.020256221 527900
0.70066142 0.33880827 0.019667804 527117
0.69827497 0.33919421 0.020023525 527635
0.70054692 0.34016347 0.017992318 593172
0.70254892 0.34109953 0.017548084 658702
0.70480102 0.34184441 0.018518031 659221
0.70145088 0.34332156 0.015529871 462091
0.70375913 0.34496242 0.014741123 593168
0.70106065 0.34430492 0.012626708 462091
0.70215154 0.34506342 0.012287676 527373
0.70438135 0.34758419 0.012894034 791823
0.70290655 0.34706196 0.010428131 527372
0.70383102 0.34858081 0.0089353323 462091
0.70341367 0.35072824 0.0067503452 724235
0.70483196 0.352483 0.0066064 723723
0.70475411 0.3530404 0.0044233203 855589
0.70889801 0.35483122 0.0020691156 9007958
0.70017552 0.35451823 0.0021134615 9073494
0.7039656 0.35560706 0.0022677183 5786428
0.70636457 0.35597003 0.0021007657 5589564
0.70918995 0.35736573 0.0015482903 9401435
0.69657809 0.35493156 0.001629889 9073494
0.69978255 0.35584301 0.00081598759 9205080
0.70315617 0.35683241 0.00064849854 4668984
0.70539755 0.35811827 0.00027275085 6641221
0.69024575 0.35470065 0.00087857246 7756608
0.69332272 0.35476926 0.0012655854 9336143
0.69568151 0.35673225 0.00029325485 8217416
0.67865151 0.27941817 0.084648013 789005
0.68057424 0.2800025 0.083778858 920327
0.68377852 0.28082514 0.082536697 920071
0.68591207 0.28151566 0.081939399 920329
0.6882444 0.28252321 0.082252204 723464
0.67119753 0.27815244 0.08456856 854793
0.67410785 0.27869859 0.083632052 788999
0.67691714 0.27928171 0.082662702 920328
0.68046367 0.28000352 0.081718445 854536
0.6827448 0.28077093 0.081285655 854536
0.6848104 0.28215212 0.080383122 920072
0.68776923 0.28300402 0.079871893 920071
0.69006836 0.28410888 0.079449594 788743
0.69266975 0.28610778 0.078402996 920326
0.66457337 0.27826303 0.082883775 986634
0.66724068 0.27803531 0.082647026 920840
0.67016554 0.27864423 0.082083285 986119
0.67326224 0.2795459 0.08133626 986121
0.6757521 0.28167272 0.080478728 920074
0.67854339 0.28195962 0.080352783 920074
0.68140972 0.28262779 0.079500258 920073
0.68441254 0.28380227 0.07835722 920073
0.68662894 0.28489023 0.077308536 854792
0.68917823 0.28568316 0.077365518 854536
0.69236428 0.28660241 0.07671386 854533
0.69460613 0.28803182 0.075969815 920071
0.69693983 0.28918618 0.074521661 1051401
0.69920671 0.29114401 0.073569894 1117449
0.6608665 0.27896243 0.082327306 1117708
0.66348106 0.27877685 0.081360102 1117707
0.66614836 0.27948859 0.080402195 1117449
0.66904742 0.2803981 0.079865754 1051657
0.67206156 0.28135571 0.079532683 854537
0.67459214 0.2816731 0.078662336 854537
0.67748737 0.28229737 0.078267157 919819
0.68870568 0.28679383 0.074756622 854793
0.69140905 0.2882331 0.074431181 920584
0.69388986 0.28966308 0.074373186 1248521
0.69622499 0.29080591 0.073224247 1051400
0.6986413 0.29232758 0.072903156 854534
0.70022285 0.29357615 0.071906984 986120
0.65927392 0.27986392 0.07963562 1249035
0.66235882 0.28032616 0.079289079 1248521
0.66549826 0.28117532 0.078960836 1051399
0.66869092 0.28199446 0.07879889 723203
0.67098671 0.28287348 0.078222692 526337
0.67261958 0.28285447 0.077250123 657411
0.69605821 0.29243377 0.070880353 1183498
0.69824964 0.2935611 0.070814252 1182728
0.70049006 0.29506782 0.069879293 985865
0.70242923 0.29694226 0.068670154 1051657
0.65572327 0.2806378 0.078588426 1314832
0.65801942 0.28141347 0.077936113 1380107
0.66063708 0.28146893 0.077056825 1117450
0.69965988 0.29613271 0.067794561 1249036
0.70177245 0.29765987 0.066198826 1051914
0.70387268 0.29941094 0.066063583 1051914
0.6520685 0.28101254 0.076692283 1118992
0.65510505 0.28239024 0.076432467 1511437
0.65708697 0.28193688 0.075311482 1314572
0.65937883 0.28345877 0.075371623 986117
0.70345587 0.30095261 0.0637604 1183243
0.70654345 0.30136561 0.063619494 1314572
0.70867145 0.30361739 0.061511099 1116164
0.64924711 0.28203848 0.075999379 4078385
0.6514107 0.28381187 0.073960006 1774352
0.653566 0.28323799 0.075099111 1380365
0.65677851 0.28412747 0.074575961 985866
0.70325899 0.30169469 0.061113834 1380880
0.70536 0.3031365 0.061868846 985866
0.70600504 0.30509374 0.060588717 1117450
0.71072739 0.30625892 0.060147941 5191722
0.64638001 0.28233948 0.074675798 8418910
0.64930588 0.2850484 0.072499514 1643281
0.65168512 0.28459692 0.072482646 1051658
0.65422171 0.28428087 0.071853399 985866
0.70496786 0.30397516 0.058912933 1249036
0.70692903 0.3058998 0.058488369 1575431
0.70945764 0.30679238 0.05787456 7492687
0.64833349 0.28635839 0.070295036 1182988
0.70674646 0.30825105 0.056527734 1643794
0.70729148 0.3100495 0.05603826 1314316
0.64431858 0.28731823 0.069565892 3878442
0.64621383 0.28760043 0.068673909 1314062
0.70764065 0.31106472 0.054011822 1314829
0.70856726 0.31326082 0.052582145 1314575
0.64052343 0.28844362 0.068175495 9402463
0.64284426 0.28814614 0.06776619 5061423
0.70916629 0.31326103 0.050587177 1314317
0.63994473 0.29001069 0.064900875 8941136
0.64211845 0.28984553 0.066386163 2758155
0.6393376 0.29136834 0.064991117 4664846
0.68622082 0.32213986 0.03975451 526344
0.68776619 0.32239118 0.039722264 657930
0.69095397 0.32448187 0.038303673 592137
0.68869394 0.32408929 0.038340628 461824
0.69124919 0.3254638 0.036376595 723723
0.69188023 0.32748973 0.033655822 658438
0.69638371 0.33075827 0.03204596 723723
0.69189137 0.32888457 0.031007707 527635
0.69413233 0.32985741 0.031561196 592398
0.69618428 0.33151266 0.029919386 592647
0.696877 0.33329117 0.028673112 592645
0.69785535 0.33491397 0.027268648 526861
0.7003476 0.33734453 0.026336432 790275
0.69920367 0.33715063 0.02466011 462082
0.70119792 0.33857715 0.024593592 526861
0.69933581 0.33956593 0.023064733 593677
0.70092559 0.34061849 0.02174747 723724
0.70260322 0.34221774 0.022162199 1052688
0.70148331 0.34246907 0.021150947 657930
0.70245951 0.34322053 0.019832969 658449
0.70453995 0.3434498 0.020145714 592669
0.70123547 0.34517139 0.016836405 330753
0.70378131 0.34621039 0.017317712 593166
0.70547879 0.34747714 0.015350461 790550
0.70246589 0.34740773 0.014925361 527889
0.70176482 0.34926924 0.012269914 527635
0.70336163 0.35048568 0.011212587 659471
0.7037065 0.35262251 0.0093462467 332294
0.70545614 0.35382089 0.0074097514 725263
0.70171851 0.35428187 0.0072432756 856087
0.70417857 0.35521343 0.0070728064 659988
0.70194054 0.35633484 0.0064396858 725528
0.70409441 0.35730958 0.0045307279 790815
0.70597243 0.35792339 0.0047702789 987925
0.70839578 0.35990244 0.0028746724 5128496
0.70038009 0.35792863 0.0022153854 9139288
0.70218474 0.35887209 0.0019347072 9139030
0.70501697 0.35975227 0.0020006895 8218705
0.70726871 0.3613618 0.0010846853 8087377
0.7093482 0.36181852 0.001814127 9335898
0.69317913 0.3566837 0.0018609762 9467736
0.69554102 0.35948166 0.0018097162 9270872
0.69862163 0.35982913 0.0019060373 9205080
0.70225734 0.36114627 0.0018955469 9336410
0.70347846 0.36186472 0.00011527538 9270361
0.68724889 0.35774332 0.0017597079 7361587
0.6891923 0.35846201 0.0011047125 8348749
0.69130915 0.35941219 0.0014209747 8941903
0.6816358 0.28075415 0.087840796 788999
0.68354565 0.28114462 0.087281406 920327
0.68561733 0.28140756 0.086515903 789254
0.68857628 0.28352517 0.086198211 723463
0.67311674 0.27855033 0.087783098 789256
0.67529196 0.27887189 0.087080777 789000
0.67768097 0.27953288 0.08647728 920329
0.68064815 0.2807245 0.086379647 920072
0.68362713 0.28171656 0.085411549 920072
0.68602204 0.28243697 0.084690452 854538
0.68864107 0.28365207 0.084130645 854535
0.69096977 0.28499067 0.082946658 920328
0.69386262 0.28638005 0.082694769 1051911
0.66544986 0.27833882 0.087806046 986378
0.66865373 0.27833474 0.086652339 986377
0.6706745 0.27916515 0.08592844 1117192
0.67380589 0.2800521 0.085644066 1051656
0.67684782 0.28128681 0.084869206 788746
0.67938334 0.2821019 0.083770394 788746
0.68203431 0.28342417 0.083641827 920330
0.6846602 0.28415623 0.082337797 920330
0.68721169 0.28522432 0.081951082 920074
0.69065654 0.28628618 0.081483901 854535
0.69345295 0.28723913 0.080815077 788743
0.69558376 0.28911355 0.079825044 920328
0.69749832 0.28985083 0.078374147 1182729
0.66190314 0.27883226 0.084944248 1117964
0.66402328 0.27913412 0.085526526 1182986
0.66705793 0.27992705 0.084968626 1182730
0.66997129 0.28127176 0.084441364 1051655
0.67310363 0.28125376 0.083017647 920327
0.67511231 0.28177056 0.082680047 854790
0.67751217 0.28231066 0.081892014 920331
0.68921071 0.28690359 0.079200387 1051913
0.69192749 0.28889048 0.078668118 1117452
0.69490325 0.29036999 0.077372015 986122
0.69726598 0.29136935 0.076807261 920328
0.6994698 0.29208055 0.076265454 1182986
0.70111072 0.29369333 0.075842738 1314313
0.65774161 0.27981168 0.084318101 1249298
0.66013634 0.27976331 0.083817005 1248779
0.66343927 0.28058562 0.08366096 1248522
0.66601032 0.28074509 0.083412468 985867
0.66881913 0.28155544 0.082693636 920071
0.67113769 0.28244317 0.082111716 722945
0.69238532 0.2898961 0.076037884 1183243
0.69687855 0.2934725 0.075733244 1249292
0.6988979 0.29399306 0.07500571 986122
0.7009685 0.2954258 0.073920369 1051913
0.70359826 0.29736894 0.072518289 1445899
0.65390337 0.2807636 0.083623588 1184016
0.65597302 0.28006616 0.082479954 1249299
0.6591118 0.28162149 0.081846178 1314570
0.66200596 0.28221786 0.080549538 1314057
0.66463321 0.28237364 0.081505477 1444871
0.70055723 0.29674822 0.071811974 1117708
0.70257479 0.29818672 0.070929527 986122
0.70470142 0.30021191 0.069857478 1511692
0.65296793 0.28085673 0.080915034 855823
0.65531397 0.28260097 0.080726624 1445644
0.65761465 0.28256047 0.080118358 1445899
0.70194888 0.29950982 0.068920612 1249037
0.70363486 0.30058917 0.068199217 1314573
0.70577109 0.30223468 0.067418694 1314572
0.64622003 0.28182992 0.080491483 9602155
0.64833701 0.28211036 0.079932451 5656644
0.65129203 0.2831282 0.079236746 1511952
0.65382862 0.28345555 0.078376293 1380364
0.70378351 0.30260724 0.065618336 1380623
0.70588052 0.30350414 0.065429986 1182988
0.70884836 0.30459684 0.064367115 1378051
0.71019298 0.30583006 0.06306088 3744797
0.64718449 0.28238508 0.077074349 7235156
0.65095067 0.28454772 0.077193797 1708816
0.65328795 0.28450897 0.076952577 1051910
0.70567971 0.30499128 0.063736975 985611
0.70661157 0.30597255 0.063250422 1182986
0.64713776 0.2864553 0.076085925 1510926
0.64947039 0.28580531 0.07524085 1248783
0.70678055 0.30804142 0.060798764 1641994
0.70854813 0.30894554 0.06052959 5653566
0.64216393 0.28776646 0.074701309 8483422
0.64472282 0.28733253 0.07393682 2760219
0.64729834 0.2867032 0.073378921 1774095
0.70703638 0.30912101 0.058133662 1643539
0.70783305 0.3113949 0.05798471 1642252
0.64075059 0.28838283 0.071617126 9008473
0.64306682 0.28818515 0.071926534 3744793
0.64578331 0.28975588 0.07178086 1314832
0.70793581 0.31294683 0.056160331 1380622
0.70896697 0.31481707 0.05479598 1379598
0.70969731 0.31543523 0.052514076 1969931
0.64189297 0.29189652 0.068309784 1378051
0.63907099 0.29323679 0.066779256 3810048
0.68716824 0.32352939 0.043896198 330505
0.68945605 0.32395154 0.043796241 461830
0.68603051 0.32369658 0.041370928 200194
0.68857276 0.32469541 0.040900052 396289
0.69095099 0.32650912 0.041055739 461323
0.69365519 0.32760185 0.0408988 657425
0.69094771 0.32701585 0.037981331 526344
0.69241619 0.32780614 0.038464963 526344
0.69188827 0.32972085 0.03533864 657678
0.69513422 0.33069915 0.03508389 657425
0.6968928 0.33250728 0.033674777 789263
0.69906574 0.33345404 0.034136415 723723
0.69922012 0.33487347 0.03157109 461588
0.69998235 0.3382104 0.028721452 658434
0.70210987 0.34129015 0.025529742 592905
0.69901288 0.3417162 0.025277078 789765
0.70071059 0.34232801 0.02457583 789511
0.70247495 0.34371012 0.023927867 723985
0.70415503 0.34614486 0.022942781 723226
0.70229161 0.34536475 0.021652341 658447
0.70442677 0.34642395 0.021237731 789516
0.70303327 0.34881538 0.018712878 855816
0.70535499 0.3485668 0.016519785 659221
0.70269686 0.35080436 0.01649946 658444
0.7038489 0.35086685 0.016218245 790550
0.70158982 0.3510589 0.013645291 527884
0.70307809 0.35287049 0.013311803 659218
0.70263183 0.35486272 0.010892153 791317
0.70219076 0.35662329 0.009519875 725281
0.70410275 0.35776207 0.0087966919 791573
0.70718801 0.35952124 0.0085452795 593695
0.70380127 0.35988778 0.0067849755 594712
0.70593905 0.3596082 0.0061841607 921361
0.70860738 0.3614822 0.0059082508 3219990
0.71044499 0.36193874 0.0046145916 7825939
0.7069096 0.36313742 0.0023260713 9730402
0.70976865 0.36422643 0.0021233559 9401948
0.70080441 0.36306354 0.002098918 9402200
0.70349795 0.36392576 0.0018141866 6838343
0.70619875 0.36534485 0.0020945668 9599325
0.70870173 0.36703703 0.00080126524 9467740
0.69174176 0.36166042 0.0015352964 9336663
0.69361979 0.36238027 0.0017901659 9336663
0.69627577 0.3632465 0.0018625259 9336406
0.69943804 0.36528978 0.00063514709 9402201
0.68520629 0.36146599 0.0014911294 7229501
0.6865595 0.3626278 0.0012058616 8348228
0.68977106 0.36378253 0.0011566877 9204819
0.67217624 0.27838355 0.091888309 789255
0.67590916 0.27898023 0.091348767 789256
0.6787917 0.27985674 0.090608299 854792
0.68097311 0.2809003 0.090133846 920327
0.68405211 0.28212017 0.089692175 854535
0.68669719 0.28282064 0.08881098 788999
0.68929732 0.28453892 0.087925971 920327
0.69192898 0.28569517 0.088114023 920328
0.6942293 0.28690371 0.087145686 1117448
0.66703564 0.27849561 0.091186404 986122
0.66969705 0.27895778 0.090648651 986120
0.67225915 0.27939782 0.090041161 986121
0.67442375 0.28107232 0.089680433 1051658
0.67720395 0.28163585 0.088641763 1051145
0.68004191 0.28265044 0.088282645 723460
0.68294871 0.28397769 0.087503612 854537
0.6858986 0.28512186 0.086784124 854283
0.68845099 0.28594604 0.086412549 854537
0.69127893 0.28659204 0.085541189 854537
0.69367218 0.28788006 0.084334075 854536
0.69641238 0.28926417 0.084180832 986121
0.69867659 0.29072437 0.083743811 1247753
0.66290158 0.27916992 0.090313911 1117452
0.66527677 0.27970016 0.089193046 1248520
0.66794658 0.28036454 0.08910042 1116684
0.67088991 0.28130725 0.088447571 986123
0.67382753 0.28194559 0.087140203 1116936
0.67712146 0.28254423 0.086387873 986123
0.67986965 0.28321776 0.085657537 920330
0.69088113 0.28758559 0.083171487 1117707
0.69306022 0.28965601 0.081866145 1117452
0.69598204 0.2907351 0.082007706 920072
0.69818497 0.29174477 0.081077635 1051145
0.70019192 0.29296798 0.080934763 1248265
0.65928334 0.27909517 0.089367807 1117966
0.66183752 0.27985507 0.08782053 1183243
0.66425729 0.28135735 0.087483943 1051915
0.66622204 0.28132194 0.086815476 1117450
0.6945411 0.29110423 0.079458833 1183246
0.69694299 0.2931444 0.078731954 1051914
0.6998055 0.2941803 0.078396201 985609
0.7016775 0.29589686 0.078219295 1117193
0.70384395 0.29784614 0.076854408 1445900
0.65471774 0.280624 0.086217344 1118738
0.65699917 0.28108251 0.087023437 1249550
0.65937144 0.28159299 0.08618933 1249036
0.66277337 0.28147641 0.086091399 1051915
0.69855183 0.29574311 0.077099741 1249293
0.70097423 0.29759187 0.076425731 1183243
0.70320493 0.2985459 0.074937463 1248777
0.70515907 0.30031633 0.074469388 1643024
0.65080917 0.28185141 0.08522433 1315861
0.65288961 0.28113472 0.085847199 789774
0.65618926 0.28266227 0.08416146 1314315
0.65882111 0.28266323 0.083854973 1182728
0.66188872 0.28301546 0.083672762 1182212
0.70102912 0.29858229 0.074211538 1380622
0.7029947 0.30025217 0.072923243 1183247
0.7053259 0.3015326 0.072169065 1577487
0.70794946 0.30365393 0.071397841 1115915
0.64664698 0.2822634 0.085263789 8484711
0.64934355 0.28176785 0.083639205 4078137
0.65222335 0.28333741 0.082828343 1445901
0.65450364 0.28341609 0.082940757 1248780
0.70438761 0.30295688 0.070165455 1314832
0.70652437 0.30388853 0.069583118 919817
0.70963669 0.30530676 0.068226039 3216914
0.64662081 0.2823641 0.082464814 8879461
0.65052021 0.28506821 0.081092954 1643025
0.65267682 0.28540227 0.080992818 985867
0.70416588 0.30424547 0.068179965 1643793
0.70580429 0.30626565 0.067273021 1249038
0.70773029 0.30704945 0.067817032 2362117
0.64727837 0.2866267 0.079902053 1511442
0.65039361 0.28597754 0.079784632 1117451
0.70687169 0.30890071 0.064736843 1576974
0.64321774 0.28794768 0.079176426 5852480
0.64556879 0.28702983 0.077941597 2037011
0.64880013 0.28800321 0.078278601 1183242
0.70734227 0.30939448 0.062837064 1314829
0.7081185 0.31155342 0.061511159 2891547
0.6419282 0.288284 0.07674247 7298888
0.64527148 0.28933749 0.076479435 1642763
0.70839012 0.31331369 0.059516013 1839628
0.64060056 0.2888898 0.074348569 8416337
0.70958817 0.31592888 0.057652652 2101520
0.64222258 0.29258153 0.071617424 1575681
0.63922572 0.29345217 0.071230054 3085312
0.64094579 0.29282233 0.069672942 1509889
0.63803148 0.2948094 0.068761468 6177831
0.6913442 0.32490569 0.047297239 461824
0.68763393 0.32450527 0.046144724 331265
0.68948799 0.32487443 0.045696199 331009
0.6914261 0.32637441 0.045920193 527616
0.69312418 0.32815933 0.044453621 657930
0.69139135 0.32743746 0.04335022 527368
0.6934002 0.3287169 0.042022049 461842
0.69302428 0.33027384 0.039393902 592658
0.69434923 0.33144993 0.038871586 527632
0.69773102 0.33313638 0.038413167 331530
0.69492602 0.33232489 0.036734581 659208
0.69726056 0.33354729 0.036580801 593416
0.69887018 0.33504671 0.035787225 395793
0.69921774 0.33729795 0.033704758 593428
0.69963664 0.34035194 0.030939519 527626
0.70001692 0.3425968 0.028868556 725001
0.70198298 0.34353811 0.027620792 658702
0.70330966 0.34529614 0.027920187 790807
0.70029199 0.34360886 0.026907027 593153
0.70298952 0.34577686 0.025698006 658975
0.70395505 0.34743279 0.024329782 593937
0.70262849 0.34631807 0.023697495 330522
0.70440358 0.34913614 0.022580445 659723
0.7034632 0.35077325 0.019651294 922131
0.70248145 0.3532975 0.0175457 725263
0.70361781 0.35248393 0.017983615 856857
0.70272601 0.35480884 0.01545769 725779
0.70285445 0.35698038 0.013694942 791570
0.70212305 0.35868183 0.0116238 922660
0.70409328 0.35977665 0.010846198 1119518
0.70694941 0.36119217 0.01025331 987920
0.70940763 0.36109224 0.0097064376 4139008
0.70199686 0.36188802 0.010096371 1055249
0.70239419 0.36581877 0.0027768016 9664862
0.70571268 0.36629486 0.0024833083 9533531
0.70777351 0.36896473 0.0023514032 9599067
0.69580948 0.36552888 0.0019525886 9336920
0.70015198 0.36768472 0.0017287731 9468507
0.70196396 0.3687579 0.0020407438 9599324
0.70456392 0.36900905 0.0016084909 9533533
0.68660623 0.36514598 0.0026041865 8546380
0.69066757 0.36632249 0.0017380714 9534296
0.69269186 0.36690924 0.0021536946 9534040
0.69547403 0.36767244 0.0023526549 9534042
0.69853288 0.36920872 0.00067025423 9401946
0.70009196 0.37004542 0.0002707839 9599323
0.68364638 0.3654885 0.0025078654 8085062
0.68523443 0.36499766 0.0012945533 8217156
0.68872797 0.36648804 0.0017121434 9467480
0.69052684 0.36812246 0.00041788816 7559489
0.67678094 0.28022727 0.095519125 789002
0.67898279 0.2807219 0.094792604 854536
0.68169707 0.28142762 0.09378618 854791
0.68470854 0.28279561 0.093556941 788998
0.6877411 0.28375274 0.092482746 854280
0.69000995 0.28491428 0.092715025 919819
0.69246119 0.28663519 0.091960907 985864
0.69487965 0.28791395 0.090839863 1182984
0.66820222 0.27913508 0.094290853 855051
0.66998833 0.27959341 0.095314145 920585
0.67272484 0.2798456 0.094277203 986121
0.67556584 0.28027511 0.094081163 986120
0.67821026 0.28149194 0.093283892 1051657
0.68131185 0.28243345 0.092617035 985861
0.68419623 0.28356987 0.092332304 985350
0.68746978 0.28429332 0.091579735 854025
0.69004083 0.28503749 0.090615988 789000
0.69245291 0.28688598 0.090056598 854536
0.69528562 0.28817415 0.089436293 986119
0.69724923 0.28962702 0.088433802 1182727
0.69920552 0.29146111 0.087632895 1314313
0.66161519 0.27918655 0.094854355 1052430
0.6640085 0.2788153 0.093854427 1052172
0.66625726 0.27999038 0.093730271 1182729
0.66909307 0.281037 0.093017995 1051401
0.67205495 0.28172031 0.092697203 854537
0.67517519 0.28246754 0.092538953 985866
0.67799413 0.2832776 0.091422141 1051402
0.68014443 0.28387731 0.090716302 920326
0.68273497 0.28509238 0.089854717 854537
0.68585551 0.2861715 0.089473486 920328
0.68846267 0.28780106 0.089201331 1051912
0.69118959 0.28851658 0.088084817 854793
0.6940363 0.28956616 0.086619735 920585
0.69601578 0.29088128 0.086309314 920329
0.69877958 0.2922368 0.085491717 1116936
0.70163226 0.2944324 0.084744573 1314571
0.65981269 0.27937767 0.093222678 1117964
0.66229135 0.28090689 0.092285156 1314315
0.66461498 0.28145298 0.091421187 1117195
0.66737211 0.28153983 0.091036439 1051658
0.69538295 0.29165831 0.083658099 1117707
0.69779575 0.29413491 0.083465576 1051913
0.70007169 0.29478627 0.082484543 985866
0.70280719 0.29631826 0.081785977 1314572
0.65590668 0.28017661 0.091805577 1315091
0.65865076 0.28168058 0.090134263 1380106
0.66096544 0.28170455 0.090497911 1183241
0.66318578 0.28281224 0.08999151 1181705
0.6969862 0.29446572 0.080963671 1183499
0.6993888 0.29611745 0.080129087 1117708
0.70128846 0.29821435 0.079941809 1051914
0.70456284 0.2989071 0.079730392 1511436
0.64931625 0.28196642 0.090406775 3223076
0.65184951 0.28129587 0.089982688 855823
0.65472281 0.28197289 0.088952422 1249296
0.65652108 0.28252897 0.088639438 1380108
0.66067255 0.28287017 0.088611126 985863
0.66298735 0.2831122 0.087467432 985612
0.702061 0.29909521 0.078009665 1117453
0.70349789 0.30114034 0.077104747 1314571
0.70689738 0.30189317 0.076570451 1577232
0.70827585 0.30378371 0.075963676 1181446
0.64761317 0.2821818 0.087674141 6906195
0.64986581 0.28194696 0.087746441 2236448
0.65263951 0.28417033 0.087290764 1511694
0.65535611 0.28397378 0.086713731 1117452
0.65848583 0.28423896 0.086733639 1051659
0.70344937 0.30166909 0.075527191 1314576
0.70466799 0.30353585 0.074630558 1380625
0.70719308 0.30446437 0.073564291 1115400
0.71014023 0.30530351 0.073732734 4597536
0.64506716 0.28268296 0.087715864 9864556
0.64969331 0.28521165 0.086781144 1380885
0.65144414 0.28504741 0.084742069 1445903
0.70480597 0.3051005 0.072034717 1709332
0.70636421 0.30617025 0.071440101 1642255
0.71088761 0.30659658 0.070942044 7557446
0.64837641 0.28611821 0.084377527 1445650
0.65078247 0.28725386 0.083719134 1117702
0.70619053 0.30797669 0.07025373 1380880
0.70719665 0.30911803 0.06906563 1709076
0.64440542 0.28764862 0.082137883 3352609
0.64645582 0.28737429 0.082439303 1510929
0.64895499 0.2882185 0.082729459 1249288
0.70723307 0.31132627 0.06739372 1381135
0.64017415 0.28913051 0.080685496 9797733
0.64310896 0.28881609 0.080615461 3680030
0.64587295 0.29085776 0.078857958 1576706
0.70754945 0.31197497 0.064969778 1446671
0.70788294 0.31380558 0.064051688 1510924
0.64005542 0.2896131 0.078757942 9139543
0.64165753 0.2891663 0.078324676 6574656
0.6431163 0.29184487 0.077706218 2101518
0.70889658 0.31491038 0.061230838 1313803
0.70867234 0.31671807 0.061780393 1838344
0.6413759 0.29219872 0.07613194 1902595
0.64300883 0.29217964 0.075159371 2361860
0.63683009 0.29352331 0.075596869 9663827
0.63932675 0.29383492 0.074407518 2691072
0.63749546 0.29415399 0.072856009 8941395
0.69017547 0.32483965 0.050318062 461829
0.69304067 0.32632768 0.049287438 527109
0.69433963 0.32930899 0.046777785 592656
0.69328678 0.32973471 0.04312259 396315
0.69487125 0.33253741 0.042756617 789516
0.69340283 0.33174706 0.042272985 462103
0.69461137 0.33326849 0.040645301 527376
0.69748765 0.33472964 0.040092587 396558
0.69680882 0.33535865 0.039443135 594185
0.69904679 0.3373886 0.038164616 526866
0.70025927 0.3394421 0.037072003 1117455
0.6989339 0.33889464 0.035338223 461842
0.69932628 0.34246913 0.033151984 658205
0.69969404 0.34474707 0.031080961 725014
0.70149827 0.3457551 0.029904008 593685
0.70323145 0.34663025 0.028986335 659222
0.7029562 0.34806329 0.02773875 528153
0.70478398 0.34900215 0.026630223 593937
0.70449078 0.35038877 0.023889601 659723
0.70597631 0.35131288 0.025374949 593694
0.70289564 0.35280484 0.02224189 659721
0.70473582 0.35424232 0.022710502 396315
0.70232767 0.35460266 0.018485487 791056
0.70348138 0.35568979 0.019920528 594455
0.70207769 0.35613587 0.019390583 791065
0.70239049 0.35710558 0.017515182 726290
0.70230097 0.35900044 0.015776277 857622
0.70408583 0.36019528 0.015617847 1054760
0.70150214 0.36139923 0.013514221 923662
0.7037105 0.36200255 0.013111174 857627
0.70660353 0.36339059 0.012557387 3684388
0.70190322 0.3645789 0.010760367 661018
0.705118 0.37174627 0.0025143623 9862500
0.70724094 0.37228188 0.0022954941 9730654
0.7095471 0.37333679 0.0019925833 9664862
0.69569504 0.3702935 0.0019732118 9599834
0.69796687 0.37093717 0.002366364 9534041
0.70017862 0.37189808 0.0022372603 9533531
0.70309615 0.37302276 0.0016205907 9401947
0.68142295 0.36687049 0.0025497079 7623993
0.68549794 0.3685452 0.0024978518 8677454
0.68792218 0.36981434 0.0020419955 9730392
0.69065404 0.37082303 0.0019768476 9665113
0.69382942 0.37174895 0.0014343262 9665115
0.69580144 0.37249112 0.00071054697 9665372
0.68131584 0.36944148 0.0021010637 7952445
0.68460256 0.37138221 0.0021624565 9269843
0.6791541 0.28159422 0.098733902 1182984
0.68311787 0.28293511 0.097729862 986119
0.68790883 0.28452942 0.09624511 1182728
0.67343378 0.2807866 0.098122597 1051657
0.67663652 0.281225 0.097890079 1051656
0.67980987 0.28198725 0.097564697 1051656
0.68199104 0.28269798 0.096767604 1051398
0.68493551 0.28401101 0.096096337 1051143
0.68776852 0.28512582 0.095193863 985607
0.69073373 0.28632161 0.094415545 920328
0.69296819 0.28790435 0.094054461 920328
0.69519222 0.28915304 0.093208432 1051655
0.69788504 0.29103616 0.092678249 1314311
0.6993404 0.29204708 0.091693521 1379848
0.66667396 0.28002167 0.097178757 1052170
0.67017531 0.2808699 0.098061144 1117449
0.67245686 0.28222537 0.096675992 1117448
0.67572868 0.28314433 0.096433878 1117193
0.67790473 0.28361121 0.095664561 1182731
0.68010527 0.28524807 0.094294429 1117707
0.68282223 0.28665394 0.093315184 1051912
0.68632996 0.28772491 0.091761947 1052166
0.68877655 0.28928661 0.091403604 1117704
0.69163513 0.28973809 0.091321647 1051912
0.69482917 0.29034829 0.091109395 1182728
0.69701314 0.29109082 0.090310097 985863
0.7002489 0.29256979 0.089683414 1249033
0.7019791 0.29509965 0.088897169 1380107
0.66015762 0.28021985 0.096319973 987148
0.66297978 0.28061986 0.09646821 1183499
0.66556138 0.28244105 0.095713437 1248523
0.66862833 0.28300935 0.09466821 1117194
0.67201781 0.28264186 0.094575942 985866
0.67427981 0.28381133 0.094527185 920582
0.68395954 0.2869868 0.091489136 986376
0.69397599 0.29127634 0.089081943 1117706
0.69603163 0.29323667 0.088212311 1249035
0.69854522 0.29455084 0.087774754 1117191
0.7011739 0.29562187 0.08670485 1117704
0.70319307 0.29737982 0.086695492 1445899
0.65706146 0.28090003 0.094953775 1184014
0.65926963 0.2815443 0.095094442 1445900
0.66224587 0.28231606 0.094316423 1182730
0.66478902 0.2827298 0.093624473 1182988
0.69802725 0.29537439 0.085694551 1314569
0.70050836 0.29667348 0.0844993 1117192
0.70311564 0.29727221 0.084470153 1380619
0.70448422 0.29934794 0.083668292 1577229
0.65333426 0.28159171 0.094450831 1118484
0.65525365 0.28247809 0.093956113 1511696
0.65764427 0.28290275 0.092502117 1314827
0.66038054 0.28343084 0.092173994 1313284
0.69931018 0.29778075 0.082353592 1380364
0.70170873 0.29959852 0.081920445 1248778
0.70502877 0.30127728 0.081769884 1642511
0.70706779 0.30290896 0.080332577 1577232
0.70862269 0.30445099 0.080116212 1247238
0.64530134 0.2818701 0.093543768 9996653
0.64893824 0.28224081 0.093153358 3815213
0.65134346 0.28206372 0.092497468 724234
0.65409386 0.28382 0.091799498 1511439
0.65728819 0.28407544 0.091645241 1510663
0.70178753 0.30039287 0.07955724 1446413
0.70380461 0.3023015 0.079550266 1314573
0.70531827 0.30381474 0.07897979 985610
0.70940328 0.30497509 0.078037143 3086096
0.64624524 0.28222844 0.090402126 9142379
0.64748812 0.28247708 0.09003675 7038299
0.65083712 0.28550199 0.090137899 1511698
0.65349698 0.28546056 0.089753866 1378577
0.70537865 0.30529451 0.076628506 1249038
0.70740432 0.30663085 0.076542079 2428940
0.64858937 0.28668311 0.088045239 1577488
0.65103465 0.2867865 0.087516546 1183495
0.7063601 0.30764169 0.074070096 1381135
0.70873415 0.31073424 0.073712826 2363402
0.64491922 0.28769851 0.08645159 2431770
0.6478852 0.287963 0.085526824 1708812
0.70644915 0.31065175 0.071713507 1315342
0.70739502 0.31131577 0.070578992 1577743
0.64124238 0.28897715 0.085803151 7890255
0.6434418 0.28873932 0.084344029 3154203
0.64616865 0.29029483 0.083997548 1708042
0.70848221 0.31256384 0.069146276 2626832
0.7082141 0.31401306 0.06875515 1511955
0.63954324 0.28976995 0.083441854 9534301
0.64327115 0.29206017 0.082157016 2233103
0.64595038 0.29096535 0.081083357 1773835
0.70851976 0.31639898 0.065944135 1708046
0.63899958 0.29065043 0.081830025 10124634
0.64130914 0.2930856 0.079847932 1509380
0.64294195 0.29306656 0.078875363 2035724
0.63707209 0.29312778 0.079463005 9401427
0.63939065 0.29401553 0.078881085 2296576
0.69047534 0.32556403 0.053822517 593153
0.69436777 0.32769737 0.05231905 592911
0.69735891 0.32873031 0.052776098 462105
0.6906026 0.32705006 0.052434027 461568
0.69212782 0.32733148 0.052367389 461568
0.69543862 0.32958162 0.049710095 658456
0.69693166 0.3316685 0.050078452 461842
0.69434035 0.33309484 0.046311557 593428
0.69550675 0.3339695 0.044989944 593677
0.69755334 0.335233 0.044847131 396546
0.69319224 0.33333394 0.043854892 461842
0.69488007 0.33519074 0.042457104 462091
0.69737464 0.3368881 0.042015076 462089
0.6995616 0.33800575 0.041522264 462091
0.6997748 0.33956254 0.040145397 658438
0.70090133 0.34090203 0.039374113 724999
0.70030844 0.3420352 0.036841512 855309
0.69978344 0.3447479 0.035382688 725001
0.69937104 0.3468973 0.033293307 527635
0.70102304 0.34792706 0.032572746 659226
0.70289832 0.34870091 0.031183422 725021
0.70471799 0.34898055 0.030168951 725267
0.70303065 0.34996194 0.029982388 791321
0.70413107 0.35077941 0.028383493 790808
0.70637554 0.35298279 0.027760684 792079
0.70452124 0.3524738 0.027337551 790811
0.70587301 0.35248584 0.026314855 725015
0.70245045 0.35321745 0.024749279 725263
0.70456076 0.35603192 0.024085939 725523
0.70139086 0.35655749 0.022555232 922651
0.70347279 0.35845155 0.021031857 726287
0.70041323 0.35932258 0.019810975 987946
0.70200413 0.35959128 0.019767404 1053739
0.70203376 0.36132327 0.017816603 988197
0.70440322 0.36279213 0.017192423 1119531
0.70628035 0.36559761 0.014855862 7696973
0.6998421 0.36523134 0.014060497 661009
0.70216554 0.36551556 0.013891876 726802
0.69741786 0.37299997 0.0037639737 8414023
0.69146991 0.37284017 0.0026080012 9599835
0.68100548 0.37129208 0.0028108358 8347967
0.68340814 0.37338638 0.0028708577 9599067
0.68648458 0.37331522 0.0025315285 9599067
0.67782259 0.37291199 0.0026791692 7427643
0.67216724 0.2817235 0.10308218 1314830
0.67474908 0.28148174 0.10259295 1248780
0.67727304 0.28228298 0.10174257 1117450
0.68020922 0.28316206 0.10109395 1117451
0.68323779 0.28399974 0.10030657 1248524
0.68576705 0.2852537 0.099427104 1182731
0.68798107 0.28614032 0.0986619 1117193
0.69019294 0.28705299 0.097692728 986121
0.69215214 0.28861725 0.097259104 854792
0.67047107 0.2814312 0.10091752 1380109
0.6736533 0.28217199 0.10117352 1117451
0.67674506 0.28285342 0.099995971 986122
0.67845315 0.28609675 0.099304259 1249292
0.68042767 0.2864483 0.098213553 1315087
0.6851325 0.2863068 0.09775424 1051909
0.68750238 0.28761855 0.097512484 1051657
0.69054991 0.28850788 0.096989036 1051656
0.69269329 0.28902894 0.096161723 986119
0.69517767 0.29084408 0.095401466 986120
0.69732803 0.29209903 0.094271362 1051400
0.70011568 0.2933296 0.092795312 1380105
0.66423857 0.28188828 0.10008007 1380624
0.6667316 0.28171974 0.09960407 1380365
0.670196 0.28298336 0.099048555 1052173
0.67262745 0.28393948 0.098392606 1183245
0.67564464 0.28443885 0.098000824 1117707
0.67832458 0.28521308 0.097882152 1249035
0.68116432 0.28660256 0.096417487 1249294
0.68342119 0.28803498 0.096311331 1314830
0.68613201 0.28951335 0.094358861 1183498
0.68836445 0.29067099 0.093918204 1183498
0.69089752 0.29151431 0.09288156 1117962
0.69400126 0.2933594 0.092579603 1249036
0.69698691 0.29389104 0.092469156 1182986
0.69923562 0.29483292 0.090705574 920582
0.70227247 0.29593426 0.091558456 1445642
0.7036007 0.29807019 0.090687752 1642765
