# .PCD v0.7 - Point Cloud Data file format
VERSION 0.7
FIELDS x y z rgba
SIZE 4 4 4 4
TYPE F F F U
COUNT 1 1 1 1
WIDTH 1159
HEIGHT 1
VIEWPOINT 0 0 0 1 0 0 0
POINTS 1159
DATA ascii
0.61017001 0.29613131 0.0050806403 985093
0.61220753 0.2979874 0.0050073266 788746
0.6134994 0.30005217 0.0040801167 788744
0.61521322 0.30302447 0.0036246181 1051143
0.61759681 0.30537474 0.0033144951 1116935
0.61935419 0.30796164 0.0026059151 1116935
0.62084413 0.30945373 0.0025114417 789003
0.62223917 0.31249011 0.0018234849 1051144
0.62410855 0.31536233 0.0013506413 985610
0.62519515 0.3181358 0.0011897683 919817
0.62673402 0.32036984 5.1736832e-05 1445645
0.60401273 0.29353419 0.0049195886 1313286
0.606224 0.29440689 0.0039641261 919304
0.60843897 0.29593623 0.003757298 722956
0.61008465 0.29894871 0.0029429793 985608
0.60063416 0.29212189 0.0031859875 984837
0.60280782 0.29313269 0.0029249191 787978
0.60439122 0.29525626 0.0020141006 722702
0.60606843 0.29719183 0.0018761754 1050889
0.59690654 0.29099298 0.0017486215 1378563
0.59898376 0.29206312 0.0019229054 788233
0.6001007 0.2941125 0.00064498186 788232
0.60194647 0.29557943 0.0011370182 985097
0.59500861 0.2910969 7.5340271e-05 1642249
0.62283552 0.30731934 0.010739625 1051397
0.62447059 0.30966127 0.009401381 1248518
0.6267283 0.31256634 0.010124922 1314310
0.62745774 0.31459332 0.0087074637 1380102
0.61485767 0.29869911 0.010422587 788227
0.61597043 0.30028182 0.0095442533 985605
0.61817455 0.30200142 0.0097863674 1116933
0.61996186 0.30459464 0.0091360211 920072
0.62169486 0.30727834 0.0084006786 723210
0.62342864 0.30989823 0.0081951618 920071
0.62495774 0.3121537 0.0079766512 854536
0.62652051 0.31422383 0.0065962076 985350
0.62732977 0.31661761 0.0071153641 919817
0.62852573 0.32013035 0.0059930086 591364
0.62960279 0.32181215 0.0058130622 787458
0.61053348 0.29671669 0.0094365478 985349
0.61283171 0.2982952 0.0083826184 788744
0.61495721 0.30025804 0.008230269 723211
0.61650741 0.30340284 0.0078389049 657931
0.61804295 0.30507588 0.006968677 723467
0.61991483 0.3079665 0.0068045259 920328
0.62171674 0.31039405 0.0061995983 920072
0.62327838 0.31318837 0.0054416656 789002
0.62455201 0.31539065 0.0057966113 789002
0.62554055 0.31771493 0.0049059987 854539
0.62748754 0.32065594 0.0046303272 657672
0.62891388 0.32311672 0.0038481951 854791
0.63046515 0.32575697 0.0041517615 3087124
0.60711962 0.295008 0.0080462098 919815
0.60938495 0.29657584 0.0076316595 788745
0.60985583 0.29931635 0.0069109797 1116678
0.61272293 0.30137533 0.0070186853 1051397
0.61458474 0.30318013 0.0071306825 1116934
0.62554061 0.31991962 0.003682971 1248518
0.6261065 0.32209468 0.0018638372 1248261
0.62758482 0.32477587 0.0019509792 854282
0.62895989 0.32708895 0.0018696785 2038037
0.62962282 0.32876566 0.0014456511 2694681
0.60355866 0.29352808 0.0069382787 788487
0.60598886 0.29507977 0.0061531067 591626
0.60679722 0.29777008 0.0063233972 1051142
0.6089536 0.29854196 0.0049019456 1116934
0.62707233 0.32814699 0.00021487474 919046
0.59996927 0.29232061 0.0057100654 854025
0.60171318 0.29383218 0.0056297183 788491
0.60309255 0.29613471 0.0048913956 1051143
0.59620047 0.29152805 0.0046232939 1050889
0.59785646 0.29230934 0.004116416 657163
0.59974653 0.29495668 0.0042598248 1051143
0.59344518 0.29136032 0.0032934546 722444
0.59530485 0.29381454 0.0020897985 1050634
0.59039259 0.29090738 0.0011664629 1050896
0.59144235 0.29214758 0.0013120174 919307
0.59356904 0.29312101 0.00097894669 919050
0.5877105 0.29120651 2.7537346e-05 2167815
0.62467456 0.30950901 0.014241338 1248265
0.61711717 0.30053625 0.014025569 1248004
0.61910546 0.30294639 0.01410383 985348
0.62085217 0.30502722 0.013116002 1051139
0.62255955 0.30711484 0.012589931 985605
0.62346566 0.30948707 0.01218617 788745
0.62559807 0.3116948 0.011807501 1051398
0.6270014 0.31481808 0.011025786 985860
0.62813395 0.31718317 0.010614395 1248262
0.62888741 0.31924814 0.01008904 1379593
0.61170208 0.2973544 0.014100075 722693
0.61393571 0.29862952 0.013271213 919812
0.61579877 0.30106655 0.012597203 722950
0.61728829 0.30353364 0.011815429 592139
0.61928606 0.30566818 0.011424959 723209
0.62008452 0.30782157 0.010795951 920072
0.62205058 0.31034219 0.010438502 788748
0.62343246 0.31338805 0.0099722147 854283
0.62551057 0.31580579 0.0094590187 723210
0.62677288 0.31890249 0.0090427399 657671
0.62850487 0.32100427 0.0082813501 591622
0.62970126 0.32373261 0.0081883073 788229
0.60838306 0.29563832 0.012398243 854020
0.6102823 0.29694009 0.011989295 788487
0.61127162 0.29933786 0.01129663 657674
0.61386514 0.30158344 0.010908365 789001
0.61519432 0.30355081 0.01042974 1051397
0.62506235 0.31853139 0.0073495507 1117447
0.62646288 0.32120848 0.0068485737 920331
0.62789702 0.32460135 0.0065926909 854792
0.62918544 0.32696873 0.0055032969 1117965
0.62952733 0.32901806 0.0056977868 2432282
0.60421056 0.29399702 0.011138022 854022
0.60602045 0.29503992 0.010695279 854279
0.60756934 0.29795474 0.010135055 854535
0.61004204 0.29982349 0.0088890791 1051398
0.62802649 0.3273356 0.0047804117 1181958
0.62902701 0.33089262 0.0037540197 526601
0.62933975 0.33218265 0.0042886734 329231
0.60025698 0.2929337 0.0095968843 854280
0.60245371 0.29360145 0.00947541 722952
0.60432625 0.2968719 0.0092496276 1051398
0.62765497 0.33265379 0.0023599863 1444359
0.62869328 0.33473891 0.0014677048 3615523
0.62836546 0.33646452 0.0019809008 525580
0.59697348 0.2918933 0.0084346533 854280
0.59884357 0.29290777 0.0079922676 788488
0.60063124 0.29561353 0.0077721477 1116678
0.60292196 0.29655248 0.0074964762 1051142
0.59485352 0.2916714 0.0069236755 788490
0.59681582 0.29374498 0.0062724352 985352
0.59101564 0.29127663 0.0059449077 920080
0.59253538 0.29206389 0.0054293871 854026
0.59377497 0.29393321 0.0052024126 1116934
0.58914006 0.29160702 0.003967464 788239
0.58966494 0.29335737 0.003477335 1116681
0.58460665 0.29153305 0.0027241111 920342
0.58657801 0.29187113 0.0027428865 853773
0.58262277 0.29218584 0.0013525486 1510928
0.58463812 0.29248098 0.0006788969 1444358
0.61820757 0.3009389 0.018771291 1117190
0.61990774 0.30284232 0.01777184 1117190
0.62229973 0.30587587 0.017023385 1182981
0.6232844 0.30786496 0.016977608 985605
0.62495899 0.31059194 0.016248465 985606
0.62663341 0.31311086 0.015380502 1313799
0.62751561 0.31481826 0.01561296 1379847
0.62841439 0.31665087 0.014378548 1445383
0.61231554 0.29708773 0.017237365 1117190
0.6143012 0.29872733 0.016758919 985605
0.61647987 0.30127013 0.016230941 788742
0.61822724 0.30298805 0.015889645 723207
0.6198768 0.30560037 0.015881598 591880
0.62104499 0.30814928 0.015035748 591882
0.6231817 0.31091484 0.014556229 591883
0.62457812 0.31358659 0.014040112 723210
0.6263684 0.31574041 0.013447344 789002
0.62840748 0.31912148 0.013567567 1182726
0.6290428 0.32134649 0.012327373 919814
0.63054168 0.32359302 0.011862576 985348
0.63153529 0.3259677 0.012482166 1181956
0.60931289 0.29545218 0.017459095 1051654
0.61074573 0.29724103 0.015738547 788743
0.61245346 0.29983807 0.015505612 591882
0.61479688 0.30188519 0.01510644 788744
0.61679381 0.30467567 0.014564455 854534
0.61892557 0.30618748 0.014039338 788746
0.62018144 0.30924052 0.013233542 1051398
0.6217618 0.31111807 0.013455987 1051399
0.62309182 0.31410545 0.012147844 1051399
0.62469482 0.31663457 0.012362063 854537
0.62615359 0.31923044 0.011453032 723467
0.62744653 0.32185513 0.011150777 526599
0.62881821 0.32426536 0.010629535 460551
0.62992042 0.32788497 0.0095392466 1510923
0.60588449 0.29458132 0.014625788 1050886
0.6076768 0.29590005 0.014850676 788486
0.60870272 0.29820031 0.013909101 723210
0.61070728 0.3003293 0.013372898 1051142
0.61304718 0.30157262 0.012965262 985861
0.62583137 0.32191524 0.0093037486 1182984
0.62745088 0.32575932 0.009170413 1248266
0.6285674 0.3280974 0.0082656145 657926
0.62920922 0.33037081 0.0079264641 1249038
0.62989426 0.33266878 0.0073786974 460561
0.60143161 0.29391176 0.014375031 395277
0.6034863 0.29405785 0.013627768 854279
0.60574961 0.29681018 0.012925267 723209
0.60670531 0.29820859 0.011818886 985864
0.62871224 0.33099163 0.0063086748 985349
0.62894392 0.33391285 0.0056598186 2760983
0.5971483 0.29234841 0.012580752 1248262
0.59979177 0.29326248 0.012356341 854279
0.6015563 0.29568911 0.011531055 854536
0.6036154 0.29690143 0.012197256 985863
0.62817353 0.33717874 0.0039735436 723207
0.59366274 0.29132789 0.01188153 1379591
0.59587753 0.29213321 0.011155188 920071
0.59771198 0.29325899 0.010458589 723208
0.59905636 0.29564095 0.0098053217 985863
0.62557352 0.34022593 0.0021134615 2822670
0.62656701 0.34111202 0.0012885928 788236
0.59182632 0.29133761 0.01017642 985865
0.5934698 0.29235888 0.009622097 723208
0.59465224 0.29413688 0.0088413954 1116935
0.59014058 0.29163054 0.0079501867 854026
0.59117484 0.29378861 0.0078012943 1116935
0.58579838 0.29142499 0.0073522925 395043
0.58727121 0.29214555 0.0064952374 919819
0.58398092 0.29177266 0.0052786469 722969
0.58490318 0.29348707 0.0044434667 1116431
0.58074313 0.29291958 0.0037077665 1248273
0.58346575 0.29360425 0.0027567148 985110
0.57899845 0.29371482 0.0022826791 1312525
0.58130121 0.29396313 0.0017538667 919059
0.57726932 0.29371452 0.00072747469 2891801
0.62047499 0.30390191 0.02167803 1248260
0.62359148 0.30868137 0.021248579 1248264
0.627473 0.31529421 0.019764066 1314313
0.61508536 0.29951388 0.020911813 1117190
0.61712599 0.3011483 0.020176828 919814
0.61935282 0.30323637 0.020425081 920069
0.62098837 0.3059963 0.019615471 788742
0.62247294 0.30880404 0.01940912 657673
0.62456584 0.31103945 0.018938422 985608
0.62568259 0.31405604 0.0187217 788744
0.62746632 0.31633073 0.017634213 1116935
0.62847084 0.31852657 0.016756117 1248519
0.6295467 0.3221536 0.017264247 1576970
0.630651 0.32438734 0.016293049 1379595
0.61002946 0.29608476 0.019981205 985349
0.61227429 0.29802853 0.019976437 854278
0.61403584 0.2998395 0.0197227 657415
0.61507833 0.30208534 0.018505335 722951
0.61722988 0.30477208 0.018479645 657673
0.61897981 0.30700517 0.017480135 723209
0.62081909 0.30982944 0.017701924 920072
0.62198275 0.31260341 0.016850829 1051143
0.62359619 0.31425858 0.016610742 723211
0.62484491 0.31739181 0.016120076 854538
0.6266427 0.31958234 0.015315771 591881
0.62843645 0.32232881 0.015191615 591878
0.62970775 0.32366258 0.014401972 657414
0.63181931 0.32718271 0.014083862 2693134
0.6064688 0.29380015 0.019975424 1182470
0.607844 0.2960712 0.018680096 657159
0.60998094 0.29836547 0.018214703 722952
0.61125284 0.30061406 0.017359197 985606
0.61410218 0.30275029 0.016927838 1051142
0.62599897 0.32023644 0.013620973 854795
0.62666333 0.32283103 0.01365912 854795
0.62779635 0.32594484 0.012716711 592393
0.62853497 0.32861251 0.012121201 789260
0.62965429 0.33151123 0.011780202 1248013
0.60228854 0.29325891 0.01860702 1051141
0.60480881 0.29491743 0.017420709 788487
0.60663092 0.29686326 0.0170421 788742
0.60843134 0.29875416 0.016619742 985607
0.62653947 0.32546085 0.011267662 1314311
0.62869513 0.32917127 0.010628164 789254
0.62864149 0.3322956 0.0099720955 592645
0.63023657 0.33378774 0.0099170804 525840
0.60068119 0.29334414 0.016487956 788487
0.602633 0.29493213 0.015699446 657161
0.60408318 0.29705918 0.014554441 985864
0.62863749 0.33504868 0.0084022284 2169618
0.59682798 0.29259318 0.014730692 919814
0.59893221 0.29385498 0.01477021 788743
0.6008625 0.29610288 0.014443159 985607
0.62822962 0.33877724 0.0061661005 788745
0.59330261 0.29195479 0.013591051 1051398
0.59471583 0.29244778 0.013812006 591882
0.59590411 0.29487658 0.01275748 1051143
0.6263274 0.34292406 0.0033897161 1182480
0.59080034 0.29166371 0.012335002 920329
0.59228897 0.29398662 0.011988938 1051399
0.58731437 0.29146636 0.011347592 789264
0.58857977 0.2926476 0.010566235 920072
0.58489811 0.29174888 0.009491384 1051403
0.58665407 0.29294592 0.0093234181 1248264
0.58232772 0.2923463 0.0078416467 985876
0.58469731 0.29396939 0.0074684024 1248011
0.58017582 0.29328308 0.0060394406 919828
0.57730341 0.29403394 0.0045365691 1248534
0.5750612 0.29494834 0.0027373433 2036239
0.57006586 0.29297453 0.0024421215 526083
0.57179868 0.29494223 0.0012622476 2498063
0.57301641 0.29617208 0.0010867119 3153937
0.61794889 0.30270404 0.024792314 1051141
0.6198498 0.30440307 0.02464658 1051141
0.62165606 0.30678147 0.023418665 920070
0.62331647 0.30896536 0.023028731 854277
0.62511039 0.31123108 0.022649884 1051142
0.62633401 0.31383777 0.021975458 1051399
0.627563 0.31708786 0.021832228 1248777
0.62852728 0.31930268 0.021844625 985605
0.61104375 0.29637629 0.024214864 1117190
0.61314899 0.29829985 0.023526847 985606
0.61516494 0.30015022 0.023568511 920070
0.61624885 0.30219603 0.023188174 723208
0.61858118 0.30456579 0.022639096 591881
0.61954612 0.3075707 0.022405863 723208
0.62124687 0.31054214 0.021625459 920072
0.6229068 0.31218487 0.021629393 591882
0.62460077 0.31454575 0.020944238 460811
0.62563813 0.317399 0.02029705 723209
0.62836957 0.3193239 0.019732177 1248776
0.629237 0.32224005 0.019030452 854278
0.6307919 0.32490522 0.019058347 1445387
0.63271785 0.32751688 0.018770337 3942427
0.63360608 0.32882819 0.017920852 6834995
0.60759079 0.29468915 0.023505688 1116935
0.60950446 0.29603353 0.022554517 920069
0.61108458 0.29838252 0.022265136 526089
0.61252677 0.3010006 0.021908939 723208
0.61484462 0.3031956 0.021357894 985862
0.61671931 0.30530685 0.021073639 985861
0.61829728 0.30746776 0.020679414 985862
0.62211466 0.31275344 0.019292235 1051398
0.62303984 0.31511876 0.019637465 1051402
0.62472546 0.31817329 0.018408358 920073
0.62585604 0.32103598 0.0182724 985865
0.62731695 0.32320461 0.017530322 526603
0.62803102 0.32604539 0.017037272 657931
0.63210332 0.32839784 0.015685499 3942169
0.60406375 0.29312435 0.021838605 1182725
0.60562062 0.29488534 0.021577716 657416
0.60699141 0.29728514 0.021787167 722953
0.6092481 0.29892135 0.02100414 788745
0.61123288 0.30069304 0.020375669 985864
0.62618715 0.32315388 0.015590191 1314056
0.62735176 0.32675216 0.015420675 789261
0.62826693 0.32928982 0.014890671 854793
0.62982124 0.33195543 0.014401257 1379341
0.63077879 0.33390832 0.012329876 328721
0.5996744 0.29243508 0.02077055 1248263
0.60176396 0.29358402 0.020472288 722952
0.60299397 0.29542035 0.019858778 722953
0.60581887 0.29764384 0.019278586 985863
0.62769705 0.33393496 0.012150645 527620
0.62940776 0.33542621 0.012165248 592391
0.62877667 0.33837223 0.011876881 920841
0.59780252 0.29259944 0.019466102 920072
0.59965205 0.29441696 0.019104838 919561
0.60163188 0.29551706 0.017698109 1051142
0.62861478 0.33981538 0.0094621181 657671
0.62823862 0.34129548 0.01023531 657158
0.59390962 0.29185241 0.019094229 1379846
0.59558612 0.29260498 0.017639577 722953
0.59730959 0.29466194 0.017238677 1116680
0.59173197 0.2921581 0.016651332 920072
0.59373486 0.29359874 0.016180336 1051142
0.58812118 0.2915597 0.014497399 920586
0.58967352 0.29227886 0.014462173 920071
0.59175098 0.29398921 0.01423794 1116935
0.58604658 0.2920348 0.013152063 854537
0.58700508 0.29362029 0.013320923 1117194
0.5837034 0.29253799 0.011885047 920079
0.58103848 0.29352871 0.010136843 1051407
0.57747936 0.29381344 0.0081096888 920340
0.57858682 0.2943061 0.0088919997 1182221
0.57631969 0.29440302 0.0085252523 1181962
0.57641166 0.29486293 0.0072712898 1181711
0.57092619 0.29321849 0.006849587 460551
0.57368612 0.29549795 0.0059082508 1970962
0.56871557 0.29327351 0.0044465065 787463
0.57112718 0.296242 0.0040477514 1904648
0.57093835 0.29755858 0.0025433302 2362890
0.56697345 0.2939496 0.0018324852 1049605
0.56920749 0.29760444 0.0026094317 4733465
0.56864339 0.2986843 0.0013283491 4337939
0.56494516 0.29442614 0.0012655854 1901568
0.56794626 0.29917586 0.0006107688 4073476
0.62235391 0.30797455 0.028363347 1182983
0.6239261 0.30998585 0.027337551 985606
0.62508941 0.3117258 0.02655673 920071
0.62658715 0.31449962 0.026769578 985607
0.61375862 0.29891783 0.027680397 1182728
0.61519814 0.30080789 0.027500093 788745
0.61708069 0.30238685 0.027214825 854279
0.61926031 0.30479142 0.026812792 788744
0.62142098 0.30731422 0.02632159 788743
0.62229776 0.30969858 0.0256356 591879
0.62431562 0.31239921 0.025074303 591880
0.62603414 0.31468308 0.025054097 789001
0.62720263 0.31695396 0.024381757 1051657
0.62847209 0.32042736 0.024270535 1051401
0.63019586 0.32250589 0.023689628 919560
0.6315673 0.32489395 0.023157001 1905422
0.63267004 0.32738265 0.022250593 3285013
0.60998428 0.29673347 0.027068317 985861
0.6122843 0.29868692 0.026313543 788743
0.61390865 0.3010506 0.026276588 722951
0.61507738 0.30442262 0.025013804 985608
0.616611 0.30605289 0.025462866 985607
0.61895734 0.30865175 0.025323808 985863
0.62032223 0.31060576 0.024297178 1051400
0.62229991 0.31332642 0.024282455 1051400
0.62380916 0.31574589 0.022924364 854537
0.62501502 0.31816733 0.022632658 789002
0.62628227 0.32161653 0.021627069 723464
0.62792176 0.32371005 0.021555245 788746
0.6048882 0.29407704 0.02604872 1051656
0.6065371 0.29556933 0.025787055 788486
0.60819745 0.29718274 0.025013089 591881
0.60993707 0.29948884 0.024502814 854279
0.61224997 0.30198854 0.024197996 1051398
0.61419445 0.30335313 0.023410976 1116936
0.62473571 0.31997025 0.020435572 1117447
0.62573659 0.32210016 0.021061599 1183238
0.62683344 0.32437077 0.019945264 854794
0.6278013 0.32713008 0.020021796 723468
0.62848705 0.32987356 0.019038916 657928
0.62931061 0.3326599 0.018791199 1050891
0.63066006 0.33457232 0.019045949 460307
0.60292852 0.29390374 0.024775624 788486
0.60464776 0.29528272 0.024011612 788487
0.60625386 0.2985059 0.023589075 985607
0.60862565 0.2994701 0.023401678 985607
0.62814069 0.32979357 0.017284274 920590
0.62935871 0.33295384 0.017077506 788746
0.62976223 0.33593613 0.015994608 1117195
0.59874314 0.29269898 0.023629665 920072
0.60084534 0.2942172 0.022994399 788488
0.60286963 0.29673368 0.022671163 1051142
0.62820971 0.33461863 0.014260054 658183
0.62969685 0.33954591 0.014548659 985352
0.59641308 0.29323524 0.022016287 854279
0.5980888 0.29504615 0.02085954 1116680
0.62851179 0.34306198 0.013388872 1706503
0.59342253 0.29240441 0.021049559 723209
0.59451866 0.2934913 0.019616008 920074
0.58885288 0.29148376 0.019312322 1379847
0.59062517 0.292714 0.019429803 854536
0.58706629 0.29233873 0.018015921 920329
0.58902001 0.29266441 0.016641974 789259
0.58476484 0.29256174 0.016197562 1051400
0.58677405 0.29351318 0.015715778 1182728
0.58068287 0.2928012 0.014149845 1182996
0.58260775 0.29316872 0.014194846 985869
0.57844198 0.29346871 0.012930691 985879
0.57947981 0.29462782 0.012723446 1182730
0.57643867 0.29425195 0.011441767 1510666
0.57628751 0.29573107 0.010894775 1379346
0.57499981 0.29505575 0.0099704266 1577236
0.56998456 0.29420131 0.0087652206 525827
0.57267267 0.29615512 0.0083073378 2036751
0.56705475 0.2938965 0.0070825815 918789
0.57023096 0.29715377 0.0065742135 3021835
0.5685519 0.29889846 0.0064485073 4868416
0.56700945 0.30037183 0.0051796436 2822664
0.56370294 0.2957226 0.0037925839 2490880
0.56564808 0.300345 0.0036245584 5652760
0.56627989 0.30038974 0.0020311475 4601633
0.56004065 0.29934269 0.00031900406 3346188
0.61401516 0.29946274 0.032556593 788486
0.61586058 0.3012487 0.032363534 788231
0.61774254 0.30316246 0.031092346 788485
0.61951542 0.30516282 0.030795813 919814
0.6215024 0.30757082 0.030274093 788743
0.62342489 0.31034803 0.03005743 854536
0.62523246 0.31292772 0.029518843 920072
0.62668669 0.31578737 0.029265583 1051401
0.62799495 0.31800336 0.028321922 1117191
0.62917358 0.32070363 0.027761281 1182728
0.63063908 0.32272637 0.027934611 1314316
0.63259852 0.32482558 0.026839614 5523006
0.61043525 0.2977773 0.031538785 788228
0.61278188 0.29929453 0.030855894 854280
0.6152426 0.30133259 0.030128837 788744
0.6164875 0.30383688 0.029360592 657418
0.61848652 0.30631626 0.029725492 657418
0.61960465 0.30918667 0.028352678 854279
0.62137401 0.31158453 0.0279513 788999
0.62257338 0.31381512 0.027731895 920071
0.62465012 0.31586584 0.027559638 526603
0.62634468 0.31846789 0.026720345 461070
0.62717319 0.32147068 0.026302636 526346
0.62940943 0.32282448 0.025807679 1577226
0.63101268 0.3252314 0.025933564 1182215
0.63224435 0.32888427 0.025441825 3612945
0.60731733 0.29578781 0.029628277 920070
0.6094836 0.29739636 0.029698849 657416
0.61099589 0.30000359 0.028832018 788744
0.61312151 0.30299008 0.028917313 1051145
0.61473489 0.3043713 0.027325273 1051146
0.61643469 0.30676603 0.02791357 1051143
0.61824334 0.30842888 0.026968241 1116935
0.62343276 0.31671232 0.025392175 1117192
0.62426424 0.3190366 0.025835156 1117194
0.62567186 0.32217154 0.024612069 985865
0.62722874 0.32489821 0.024264693 592138
0.62811267 0.32795823 0.023241758 461064
0.62901229 0.33036983 0.023172498 985609
0.63048971 0.33355677 0.022550106 592143
0.60383928 0.29438597 0.028870702 920070
0.60550272 0.29593173 0.028725088 657416
0.60682976 0.29912251 0.027726829 985862
0.60906625 0.30007768 0.027354717 985605
0.62630188 0.32567376 0.022695661 1314316
0.62715268 0.32807624 0.02298528 1379852
0.6284951 0.3309882 0.021640122 789261
0.62943226 0.33350125 0.020972192 919814
0.63115931 0.33513147 0.021089971 525322
0.63167548 0.33840555 0.019173205 919559
0.59973264 0.29343504 0.027114987 920070
0.60130167 0.29444158 0.027242064 722953
0.60350758 0.29726404 0.027087927 1051399
0.60582054 0.29839042 0.02588886 985607
0.62867177 0.33799225 0.018235743 723975
0.629969 0.33979523 0.018786788 985352
0.59574473 0.29259217 0.026486516 920328
0.59745044 0.29308087 0.02606225 788743
0.59867477 0.29556957 0.025326014 985862
0.59389532 0.2922346 0.024643183 920071
0.59532493 0.29433358 0.024436057 985605
0.58977866 0.29208946 0.023934245 920329
0.59133857 0.29290378 0.022918582 920072
0.59364331 0.29380095 0.022011876 1116935
0.5880214 0.29240325 0.021577537 986120
0.58911359 0.29360768 0.022092342 1117192
0.58328038 0.29264247 0.020701408 1511434
0.58542997 0.2926389 0.020631373 1117193
0.58143026 0.29322833 0.019429982 1051928
0.5831809 0.29318833 0.018532276 1051658
0.58009762 0.29358745 0.017351568 789273
0.58128667 0.29389414 0.0177297 1182729
0.57757819 0.29457933 0.01586175 1445389
0.5797208 0.29443824 0.015331388 1248266
0.57510549 0.29516602 0.014283895 1445136
0.57703328 0.29566193 0.013627768 1510676
0.56928551 0.29428118 0.013348877 657152
0.57260013 0.29615003 0.012326598 2102803
0.56753004 0.29357079 0.011623621 656384
0.56905615 0.29510081 0.010607421 657152
0.57017219 0.29706436 0.010608673 2494985
0.56500542 0.29528451 0.0089512467 722176
0.56790006 0.29904628 0.0081375837 4798489
0.56628668 0.30132294 0.0064218044 2625544
0.56246066 0.29701912 0.0063196421 2360064
0.56433356 0.30312502 0.0056819916 4337691
0.5617274 0.30458975 0.0037311912 6177824
0.56160629 0.30489957 0.0016725659 5389850
0.62040281 0.30592114 0.034407377 1051143
0.62220299 0.30824542 0.034371436 854535
0.62378979 0.31052223 0.034158647 788745
0.6254583 0.31261033 0.03333807 1051399
0.62687576 0.31542617 0.032553375 1182470
0.62921357 0.32065529 0.032590091 788743
0.63162005 0.32386097 0.031637669 2300182
0.61314917 0.29966664 0.034029961 919814
0.61557591 0.30167681 0.034368813 854280
0.61769044 0.30366448 0.034185708 788744
0.61945868 0.30629343 0.033445537 395276
0.62124097 0.30826142 0.03273952 657672
0.62187415 0.3120774 0.032646894 723210
0.62396872 0.31390029 0.032025695 591883
0.62529075 0.3161273 0.031328559 460557
0.62708783 0.31885564 0.03129077 788745
0.62880969 0.32150641 0.030462265 920073
0.63057947 0.32352793 0.029988468 1314058
0.63197803 0.32584077 0.029366732 2497301
0.63218796 0.32919303 0.028690517 3415055
0.60787517 0.29643315 0.033791423 985606
0.60997719 0.29782385 0.033350646 723206
0.61209661 0.30023104 0.033476532 657416
0.61373574 0.30243039 0.032307386 722953
0.61472195 0.30504352 0.032167196 1051144
0.61667728 0.30712944 0.031608343 1051143
0.61901766 0.30988514 0.031222463 1116934
0.62029469 0.31174999 0.031302333 1051401
0.62212515 0.31507933 0.030003428 1051399
0.62374932 0.31770951 0.030311108 1117192
0.62520057 0.31966111 0.028837442 920075
0.62606072 0.32255247 0.028932035 985865
0.62785351 0.32503778 0.028078258 395271
0.62795264 0.32742822 0.028495312 526864
0.60398281 0.29457539 0.032401681 854536
0.60659522 0.29605335 0.032620907 723208
0.60729355 0.29989403 0.031668544 985607
0.61039639 0.30142498 0.031242967 1050889
0.61269534 0.3026014 0.030665457 1116682
0.62611461 0.3237673 0.026525855 1182987
0.62674904 0.32669339 0.027544618 1379850
0.62797743 0.32830539 0.026094675 789261
0.62897909 0.3314206 0.025697649 723208
0.6303103 0.33374405 0.024892867 854028
0.63197017 0.3354018 0.024232626 1180677
0.60095775 0.29340225 0.031209707 1051400
0.60238814 0.294754 0.031280816 526348
0.60450745 0.29829407 0.030935705 985607
0.60720617 0.29931509 0.029959798 985607
0.6289221 0.33408621 0.023470581 527363
0.62911791 0.33608341 0.022296846 593158
0.6308409 0.33973828 0.022618115 919558
0.59607327 0.29246631 0.030638158 1248520
0.59881496 0.29336831 0.029914796 788746
0.6005367 0.29655257 0.029263794 985863
0.60191631 0.29713327 0.030625522 1051401
0.62794971 0.33895907 0.021105886 789766
0.62961996 0.3395161 0.021763802 723462
0.6302141 0.3424654 0.020604193 3349001
0.59487021 0.29258391 0.028698444 1051399
0.59639961 0.29444349 0.028557479 723464
0.59829617 0.29602844 0.028431296 1051655
0.59067178 0.29288763 0.027889431 919559
0.59256923 0.29302078 0.027128458 789000
0.59455538 0.29498282 0.027067423 986118
0.58926165 0.2923044 0.026207328 920329
0.59064507 0.2941317 0.025520504 1117191
0.58633399 0.2928198 0.024381042 854538
0.58848333 0.29409391 0.024967909 1117194
0.58336496 0.29307908 0.023217797 1116423
0.58421075 0.2934314 0.022348762 1117196
0.58084351 0.29377085 0.021296203 1051666
0.5816915 0.29432204 0.021880031 1314317
0.57852191 0.29473484 0.019864798 1182735
0.57612169 0.2951318 0.018297195 1314579
0.57380235 0.29612747 0.016314924 1774095
0.57129514 0.29717529 0.014863849 2759953
0.56966877 0.29784903 0.013424277 1771275
0.56770366 0.29898649 0.011506677 5126170
0.5643791 0.30227417 0.0074494481 5060108
0.56320834 0.30575445 0.005947113 2888454
0.56058395 0.30908501 0.0035002828 4072970
0.5588907 0.30964959 0.00047671795 4993285
0.62124455 0.30607045 0.038731456 854276
0.6229893 0.30881307 0.038263798 920326
0.62433982 0.3109155 0.038104653 985863
0.62606585 0.31356671 0.03793031 1051397
0.62741596 0.31626379 0.037210286 1117192
0.61392808 0.29963952 0.039354146 853765
0.6161952 0.30201995 0.038245559 657159
0.6183545 0.30419201 0.037716866 854280
0.62025821 0.306472 0.037059128 723210
0.6220057 0.30870664 0.037139714 789001
0.62350243 0.31071764 0.036573946 723464
0.62550271 0.31399429 0.035876155 788745
0.62632996 0.31682557 0.034946799 788747
0.62826085 0.31854558 0.034946024 1182728
0.62920165 0.32158801 0.034608245 985865
0.63104719 0.32404155 0.03396225 1511180
0.63229686 0.32919809 0.033403099 3349006
0.60881257 0.29713178 0.038310051 591623
0.6103127 0.29823568 0.037762582 788486
0.6128943 0.29998073 0.036836326 788743
0.61527818 0.30204844 0.037003219 789001
0.61562896 0.30636811 0.036186159 985864
0.61733788 0.30801511 0.035138547 985862
0.61915129 0.31024331 0.035868227 985863
0.62037373 0.31233078 0.034641683 1051400
0.62244517 0.31539655 0.033923507 1051401
0.62414217 0.31793034 0.033979177 920329
0.62566197 0.31990609 0.033988595 854540
0.62753427 0.3230395 0.032442749 789003
0.62898552 0.32484597 0.032904088 657672
0.63027096 0.32710582 0.032253861 854279
0.63212341 0.32928815 0.030818105 3087119
0.60510623 0.29557565 0.036918342 591625
0.60702848 0.29637852 0.03634733 788487
0.60953826 0.29781383 0.0358634 854278
0.61074567 0.30227554 0.03521055 985352
0.61281335 0.30367565 0.035631299 985605
0.61413997 0.30480066 0.034970284 985607
0.62479824 0.32038465 0.031417072 1117193
0.62615782 0.3233664 0.03141433 1182729
0.62767941 0.32613721 0.030454576 789257
0.62852585 0.3288165 0.030395627 789259
0.62924111 0.33100298 0.029748201 723466
0.63152033 0.33516103 0.027999282 262671
0.60132074 0.29404044 0.03588593 657678
0.60362095 0.29486117 0.035082638 854280
0.60605395 0.29585075 0.034667015 395277
0.6069814 0.30004054 0.034476101 985607
0.60909975 0.30126804 0.034488916 1051145
0.62855756 0.33151141 0.027720094 855056
0.62939483 0.33437204 0.027692139 1051147
0.63073111 0.33706719 0.028350711 196876
0.5981648 0.29264563 0.03353709 1248520
0.59980851 0.29364944 0.034120142 854536
0.60291862 0.29815266 0.033294082 985607
0.62836224 0.33608472 0.02474606 527365
0.62810045 0.33858234 0.025237441 789508
0.63040298 0.34072077 0.025118947 1313285
0.59604454 0.29292706 0.032902539 920071
0.59733093 0.29430646 0.031866193 723208
0.59906709 0.29684478 0.031662762 985863
0.62749887 0.33952171 0.022803783 789508
0.5920642 0.29242864 0.031385541 854794
0.59387761 0.29297024 0.031140387 723208
0.59580249 0.29572821 0.03120321 985864
0.59062231 0.29250431 0.029676914 920330
0.59189272 0.2942982 0.029268622 985607
0.58769673 0.29287398 0.028819203 920586
0.58874583 0.2946161 0.028202653 1116938
0.58380365 0.29328251 0.026947975 1117196
0.58537591 0.29352158 0.026580036 1117195
0.58185267 0.29366523 0.025450706 1051666
0.58195484 0.29511851 0.02466774 1379852
0.57972252 0.29464591 0.023199499 1314065
0.57714212 0.29534376 0.022349834 1314064
0.5741111 0.29507178 0.021633208 2564121
0.57500994 0.29603192 0.020318925 1444875
0.5714258 0.29599804 0.020267248 2758401
0.5721662 0.29668629 0.019198537 2101770
0.57007521 0.29663271 0.017192245 4139537
0.56912231 0.2983135 0.017701566 1837068
0.56911826 0.29820919 0.015299678 1836810
0.62486696 0.3112821 0.042499959 1117191
0.6151827 0.30070728 0.042796612 1117191
0.61719388 0.30254567 0.042596817 788743
0.61927092 0.30483747 0.04202801 788743
0.62080657 0.3065874 0.041011035 854535
0.6226238 0.30887705 0.041048646 657672
0.62444937 0.31166822 0.040828943 657672
0.62588632 0.31404218 0.040358245 920327
0.62753749 0.31673136 0.039698243 985863
0.62859929 0.31936622 0.039034009 1183240
0.62945569 0.32181248 0.038494349 722950
0.63138211 0.32501614 0.038002253 2629400
0.61184353 0.29889613 0.041777611 788487
0.6136111 0.30063617 0.04120177 657416
0.61570269 0.30223531 0.04035455 723209
0.61790878 0.30438015 0.040350974 395020
0.61772859 0.30916178 0.039833307 920327
0.61930692 0.31097305 0.038575768 1051655
0.6217069 0.31279406 0.038698673 854536
0.62354743 0.31519127 0.038066864 723466
0.62509996 0.31737 0.037988305 592140
0.62610829 0.32058388 0.038010776 657675
0.62905145 0.32263768 0.036820829 789001
0.63030154 0.32539463 0.036115527 920840
0.6309514 0.32787204 0.035752773 985606
0.63198864 0.32952487 0.035292029 3086093
0.60639292 0.29619879 0.041279435 395021
0.60825735 0.29702795 0.040421188 591625
0.61059546 0.29878017 0.040163338 722952
0.61062485 0.30232975 0.039723575 985609
0.61268121 0.3043507 0.039166033 985862
0.61488199 0.30618957 0.038772941 920071
0.61756623 0.3087194 0.037956297 985863
0.62119472 0.31391317 0.036400616 1116936
0.62397945 0.31809008 0.036730766 1117191
0.62570775 0.32072502 0.035553813 789002
0.62672293 0.32376805 0.034847438 920332
0.62773657 0.32681274 0.035133064 789263
0.62879312 0.3293471 0.033689737 526868
0.6295805 0.33141968 0.03393352 985608
0.60434937 0.29551446 0.039317369 723208
0.60671127 0.29699439 0.038868606 1051143
0.60673153 0.30017665 0.038362324 1051143
0.60946083 0.30174369 0.038429797 985610
0.61168122 0.30294567 0.037105441 985863
0.62710118 0.32787031 0.03226614 1511178
0.62815571 0.33008307 0.032876074 1576974
0.62945533 0.33213472 0.031971633 919561
0.62990928 0.33485562 0.031853855 526610
0.60043693 0.29417884 0.038338304 788743
0.60313284 0.29489392 0.037810981 657676
0.60375428 0.29895407 0.037178338 920071
0.60568297 0.29976052 0.036158919 1051143
0.62885761 0.33655334 0.030330896 723720
0.62885588 0.3381789 0.02845341 920837
0.62988222 0.34038296 0.029544473 657670
0.59698701 0.29338241 0.037119031 788743
0.59867084 0.29450047 0.036678135 788745
0.60030699 0.29723394 0.035855055 985607
0.62936378 0.33974579 0.027653754 1051910
0.62956226 0.34279239 0.027537644 1968901
0.59228182 0.29277462 0.035731256 1314058
0.59469092 0.2928789 0.035435975 789001
0.59665012 0.29610753 0.034819305 1051399
0.5913682 0.29269701 0.034163296 920330
0.59316349 0.29487419 0.033799291 985607
0.58617556 0.29297739 0.033238769 1445643
0.58842969 0.2929143 0.032521665 985866
0.59012043 0.29521015 0.032396853 1116937
0.58447737 0.29332399 0.031244755 854797
0.58631527 0.29369286 0.030773163 1051403
0.58340681 0.2933712 0.029590189 1117453
0.58393502 0.29502273 0.028879881 1248523
0.58056152 0.29449475 0.027880788 1117202
0.58259213 0.29508185 0.027207971 1248781
0.57800114 0.29526186 0.026348352 1248784
0.57519895 0.29463303 0.025460005 3421745
0.57534432 0.29637057 0.024179935 1379337
0.57302928 0.29547793 0.023530483 3221019
0.57314205 0.29692048 0.022845805 1641993
0.57079697 0.29665929 0.022808373 4732190
0.57120299 0.29722476 0.022104502 1575948
0.56955451 0.29756856 0.019952297 3481106
0.61780393 0.30320776 0.046359837 1182726
0.61976564 0.30467874 0.045710862 985862
0.62189567 0.3071821 0.046066463 985607
0.623335 0.30938789 0.045207143 920072
0.62498581 0.3120968 0.04459393 789000
0.62618482 0.31468356 0.044066429 854537
0.6278823 0.31721354 0.043515265 1182985
0.62881649 0.31977218 0.043438673 1117449
0.61285448 0.29864311 0.046145976 788742
0.61476749 0.30092499 0.04531765 854280
0.61676043 0.30269191 0.045206845 723208
0.61870611 0.30468875 0.0445714 526345
0.62030911 0.30741781 0.044388771 395018
0.62202811 0.31042951 0.043565929 526602
0.62232757 0.31436878 0.04310286 985864
0.62509477 0.31520224 0.042164803 723210
0.62608457 0.31750321 0.041930914 789002
0.62770522 0.32073307 0.041745186 657673
0.62946427 0.3230201 0.041068554 854535
0.63115716 0.32537377 0.040325224 2299667
0.63175893 0.32865703 0.04059267 2166537
0.60899305 0.29746294 0.04485321 722952
0.61168569 0.29904717 0.044345975 722952
0.61394703 0.30057758 0.043911815 591625
0.61470425 0.30405921 0.04262054 722954
0.61564517 0.30681187 0.042529523 985607
0.61805683 0.30953223 0.041890025 985863
0.61923897 0.31085965 0.042096853 1051399
0.62147737 0.31350231 0.041412055 1051399
0.62280011 0.31580353 0.039654851 1051656
0.62466687 0.31895494 0.040346026 1117192
0.62606996 0.32193005 0.04004097 920075
0.62703443 0.32382512 0.039755464 789006
0.62900734 0.32648641 0.039170682 591879
0.6306659 0.32855156 0.038596511 1051144
0.60559624 0.29613322 0.043558836 722952
0.60819471 0.29716653 0.042755127 657417
0.60794628 0.30149412 0.042025089 1051143
0.61047161 0.30284137 0.042248189 985864
0.61230326 0.30403155 0.04194504 1051143
0.62732255 0.32708091 0.037196219 1117198
0.62876415 0.33003291 0.036488533 920592
0.62988883 0.3330161 0.036409497 1051143
0.60147572 0.29462874 0.041802108 657419
0.60377228 0.29549927 0.041822076 788744
0.60477507 0.29976958 0.040614843 1051144
0.60688293 0.3006601 0.041030586 985607
0.62882191 0.33345294 0.034418881 658707
0.62976038 0.33634937 0.034232378 526347
0.63072681 0.3376523 0.035040855 1049607
0.59790677 0.29383904 0.040649176 920328
0.59994388 0.29432297 0.040911555 854537
0.60107696 0.2977255 0.040458977 985861
0.60319972 0.29884723 0.039945662 985607
0.62916839 0.33990806 0.032473445 789513
0.62963045 0.34258875 0.031355917 1180932
0.59571248 0.29345804 0.039643288 788747
0.5976187 0.29662597 0.039445639 920327
0.62910026 0.34204447 0.029902518 722436
0.62902904 0.34462458 0.028666317 4400407
0.59208965 0.29329658 0.038386703 854538
0.59386468 0.2945894 0.038215816 985609
0.59644592 0.29604188 0.037206054 985864
0.58940923 0.29325891 0.036734462 920330
0.59102726 0.29554862 0.036206067 1051402
0.58597827 0.29336882 0.035517097 855052
0.58723938 0.2943542 0.03489542 985865
0.58383441 0.29356745 0.033453524 1117196
0.58489537 0.29530376 0.033807993 1182730
0.58144313 0.29413927 0.031829178 986126
0.5836513 0.29529122 0.032405496 1314315
0.57795727 0.29423618 0.029779613 526619
0.57932961 0.29497975 0.03087014 1117204
0.57554317 0.29487315 0.028756797 3224126
0.57699949 0.29607475 0.028917551 1445388
0.57328343 0.29564679 0.027708948 2957590
0.57445121 0.29681417 0.027224183 1379081
0.57103586 0.29682857 0.025599122 3482902
0.5730834 0.29709187 0.025795937 1510668
0.56842202 0.29738334 0.024009109 4401942
0.6197632 0.30484357 0.050409317 1182984
0.62252605 0.30826607 0.049275577 1051656
0.62381023 0.31007999 0.049221635 1051399
0.6255554 0.31260139 0.048755229 1051399
0.62680566 0.3151865 0.04893291 985864
0.62785292 0.31735733 0.047966003 1117448
0.61351556 0.29995167 0.050093174 854022
0.61541605 0.30130571 0.049106002 920070
0.6173957 0.30338863 0.049024165 854279
0.61958945 0.30566323 0.04822278 722952
0.62111831 0.30829757 0.048174858 460553
0.62326407 0.31052589 0.04815191 657929
0.62420726 0.31262431 0.047395766 592138
0.62641782 0.31524995 0.046820581 788747
0.62734205 0.31811455 0.046047032 854796
0.62882912 0.32059932 0.045862556 1182985
0.62988818 0.32334909 0.044757724 1116936
0.63099742 0.32624274 0.044401109 1445131
0.63244867 0.3295016 0.044730663 3350296
0.60817128 0.29650542 0.049356699 788488
0.61027884 0.29769847 0.048848391 788487
0.61218464 0.29924592 0.048684657 854535
0.613828 0.30085045 0.048190832 723210
0.6150685 0.30399722 0.047216892 788489
0.61641234 0.30741727 0.046419382 1051400
0.61878097 0.30984271 0.047423005 1051399
0.6200549 0.31140798 0.045958102 985864
0.62207222 0.31405997 0.045619845 1051400
0.62347698 0.31677395 0.044703364 1051402
0.62535131 0.31958705 0.044304192 854793
0.62679929 0.32199082 0.044620991 657677
0.62764794 0.32403094 0.04363519 526345
0.62902248 0.32687157 0.042576075 592135
0.63206935 0.32895887 0.043166578 4402976
0.6061514 0.29612255 0.04794687 788743
0.60884809 0.29717389 0.047604561 723208
0.60971534 0.30015522 0.046587169 723210
0.61107445 0.30272114 0.046306908 1051398
0.61355746 0.30468339 0.045109987 1051144
0.61770362 0.30895966 0.044586301 986117
0.62724268 0.3251338 0.042204201 920333
0.62792313 0.32768446 0.041328251 1051662
0.62935394 0.33035034 0.041214168 854794
0.63008952 0.33274162 0.040412009 1444360
0.63098013 0.334539 0.039093435 3018507
0.60283816 0.29505402 0.046590269 854536
0.60508919 0.29583091 0.045832336 657416
0.60549355 0.30015022 0.044943631 985862
0.60756326 0.30106717 0.045368075 985863
0.60986412 0.3024627 0.044065714 985864
0.62887579 0.33365613 0.038573325 723983
0.62926894 0.33665124 0.038477123 460814
0.63044548 0.33967444 0.03766799 2034962
0.59857357 0.29414964 0.045683622 985606
0.60083872 0.29476413 0.044820666 788745
0.60211992 0.29876688 0.044301629 1051398
0.60424733 0.29952461 0.043793321 985861
0.62907779 0.3375634 0.037005305 526856
0.62985826 0.34011239 0.035958529 1051402
0.59708393 0.293953 0.043452382 789001
0.59841013 0.29652753 0.04295212 920071
0.6003449 0.29811996 0.04345423 985862
0.6296438 0.34341276 0.033147812 2100499
0.59299707 0.29336452 0.042110205 854539
0.59494436 0.29413688 0.042254031 920073
0.59669328 0.29661387 0.041573167 1051400
0.59105456 0.29335839 0.0409621 920332
0.59215331 0.29613101 0.040754437 1116937
0.58669639 0.29352021 0.03928864 920845
0.58869612 0.29411376 0.039215863 1117193
0.59076869 0.29549927 0.038496435 1117192
0.58473045 0.29406518 0.038144827 920589
0.58655578 0.29581687 0.038225293 1248266
0.58230507 0.29453772 0.036325753 1051661
0.58434904 0.29579198 0.036662579 1182729
0.58002293 0.29531929 0.034440994 1248527
0.57669282 0.29502159 0.033478022 1710632
0.57759482 0.29622129 0.033029914 1379853
0.57370877 0.29593349 0.031512618 3748397
0.57542622 0.29684672 0.030906916 1313546
0.57219672 0.29677773 0.030366778 2496010
0.56935358 0.29752195 0.028730392 4995106
0.56857419 0.29785118 0.027115166 2757633
0.62364346 0.30929154 0.053592324 854535
0.61611021 0.30207056 0.053931177 985862
0.61824632 0.30413014 0.053166628 788744
0.62015575 0.30599716 0.052913725 723208
0.62201583 0.30819416 0.052196622 789001
0.62386483 0.31075826 0.051640153 723464
0.62530625 0.31328106 0.051565528 854793
0.6265133 0.31628716 0.050718904 854795
0.6280216 0.31859612 0.050337076 1117449
0.62910593 0.32186997 0.049578905 1248522
0.61118627 0.29866707 0.052796662 723465
0.61309427 0.29993361 0.052313805 854535
0.61514294 0.3015196 0.051946402 657417
0.61703956 0.30319369 0.051327646 723208
0.61881578 0.30771598 0.05116874 723208
0.61932522 0.31038898 0.050477207 1116936
0.62103188 0.3124963 0.050234914 1117192
0.62324834 0.3142727 0.049779356 789002
0.62481928 0.31718242 0.049385905 723469
0.62593204 0.31937158 0.048523545 657677
0.62805969 0.32184643 0.048054457 789258
0.62910831 0.32405463 0.047674179 657670
0.63067091 0.32679611 0.047544897 1313545
0.63177967 0.3287304 0.046187758 3087637
0.60753834 0.29692051 0.051858604 788746
0.6093145 0.29773465 0.051128209 854280
0.61076689 0.30056685 0.050941169 723209
0.61182231 0.30344296 0.049595892 1051399
0.61430961 0.30536389 0.050313592 1051399
0.61656368 0.30728644 0.049545884 1051399
0.61844289 0.30922031 0.048986912 1117191
0.62167048 0.31390148 0.047803819 1051400
0.6238482 0.31763697 0.047571242 1117195
0.62534833 0.31995738 0.047118187 1051656
0.62640762 0.32311118 0.047002256 1182731
0.62770408 0.32525763 0.046219468 592136
0.62816209 0.327618 0.046022892 789003
0.62859797 0.3298021 0.044952989 526602
0.6304152 0.33356428 0.044590771 1442819
0.60361588 0.29557383 0.049742043 722953
0.60577947 0.29629001 0.050453663 788745
0.60626709 0.30041552 0.049481392 1116936
0.60856676 0.30149278 0.049016535 1116679
0.61062407 0.3026033 0.048538089 1051399
0.6281724 0.32924992 0.043084741 789258
0.62878996 0.3314648 0.044010282 855053
0.62928498 0.33396649 0.042908788 788746
0.63090813 0.33557817 0.042941213 4070678
0.59934843 0.29468602 0.04914242 461068
0.60136205 0.29486439 0.048998058 854281
0.60274351 0.2989552 0.047639787 985863
0.60502183 0.29990664 0.048108101 985863
0.62879783 0.33464015 0.040728986 723980
0.62894464 0.33742929 0.04097718 657934
0.62945777 0.3397043 0.039906859 591625
0.59767371 0.29422069 0.048012674 854537
0.60016215 0.29619992 0.047538996 723212
0.60101891 0.29820645 0.046746731 986117
0.62856847 0.34149939 0.037710488 592134
0.63006622 0.34237656 0.038303375 1509384
0.59401554 0.29382741 0.046740592 985865
0.59537458 0.29447228 0.045499384 920330
0.59814572 0.29753828 0.045554459 1051400
0.59173739 0.29366434 0.044897676 920330
0.59384006 0.29635233 0.044537008 1051401
0.588072 0.29354572 0.043356001 986383
0.58937895 0.29424459 0.043290317 1051659
0.59138632 0.29608369 0.042916536 1117192
0.58591044 0.29386568 0.041648805 920588
0.58698475 0.29579437 0.042311907 1248270
0.58306289 0.29494411 0.040421486 1117455
0.58491051 0.29599088 0.038922012 1313803
0.57960856 0.29458234 0.039491653 132633
0.58147746 0.29548076 0.038538754 1379852
0.57784545 0.29546505 0.037763119 592665
0.57861948 0.29591978 0.037092566 1445645
0.57611263 0.29528072 0.035820007 1580073
0.57595879 0.2969366 0.035262823 1313546
0.57282054 0.29705864 0.034113169 3483942
0.57366216 0.29821903 0.032249153 1510925
0.5706048 0.29794812 0.03237772 3614743
0.56824946 0.29788738 0.031169295 6375719
0.61800003 0.30413637 0.057327151 788745
0.62066185 0.30683067 0.056578636 854536
0.62235785 0.30883151 0.05618149 854537
0.62400961 0.31143218 0.055725574 789002
0.62570763 0.31359005 0.055002451 985864
0.62688667 0.31629974 0.054903269 1051657
0.62789416 0.31853455 0.053822637 1117449
0.61375988 0.30044371 0.056388974 723208
0.61601686 0.30235738 0.056234539 788744
0.61840808 0.30450028 0.055509686 854536
0.61943781 0.30625945 0.055656672 394765
0.62007064 0.30899161 0.054750025 788746
0.62229711 0.31178856 0.053734779 920330
0.6238668 0.31458634 0.054256976 657931
0.62599516 0.31623763 0.05282861 657932
0.62704086 0.31909192 0.052368879 789260
0.62889981 0.32213962 0.052749634 1117450
0.63003165 0.32431185 0.051430941 1116938
0.63101017 0.32734677 0.051385343 1641996
0.63257325 0.3295182 0.051407754 3151374
0.63368785 0.3314839 0.050333798 7622449
0.60842407 0.29714897 0.055652559 1117190
0.61036015 0.2983582 0.055431902 788745
0.61288971 0.29979417 0.05463016 789000
0.61322212 0.30262744 0.054791629 985608
0.61526108 0.30576754 0.054346442 1051400
0.61722326 0.30781353 0.05381161 1051400
0.6195426 0.31071597 0.052563071 1117191
0.62270039 0.31542075 0.051578939 1051401
0.62367022 0.31773067 0.052097261 1116941
0.62527895 0.3205716 0.05085808 1117194
0.62644958 0.32310727 0.050674498 986123
0.62787151 0.32580307 0.050082386 592139
0.62996823 0.3281799 0.049679041 1248525
0.63230962 0.33033323 0.048529208 3612181
0.60481632 0.29584259 0.054835439 788744
0.6065805 0.29659212 0.054077804 723209
0.60851067 0.29837537 0.054288983 723209
0.60972297 0.30141282 0.053980768 920073
0.61214191 0.30335218 0.052764237 1116936
0.62702286 0.32595903 0.048174381 1249034
0.62830961 0.32865703 0.048330665 723466
0.62882715 0.33135056 0.047290385 986125
0.62974751 0.33404785 0.047020018 1247244
0.63147819 0.33568358 0.046295524 4661782
0.60048586 0.29459423 0.053674281 1248776
0.60292792 0.2953248 0.052860618 920073
0.60322905 0.2984536 0.05285871 985862
0.60644019 0.29974416 0.052487135 985607
0.6084137 0.30122608 0.05147016 920328
0.62870371 0.33534247 0.04524982 592653
0.62994754 0.33799505 0.045031905 590862
0.63031125 0.34144217 0.044423461 985100
0.59882003 0.29428446 0.051701665 985863
0.60055399 0.29593861 0.051515281 592140
0.60275328 0.29863971 0.050382555 985606
0.62872314 0.33775365 0.043449879 789513
0.62959671 0.3408004 0.042581856 1182730
0.59489959 0.29387522 0.050499618 920330
0.59658557 0.29520953 0.050091863 920331
0.59855211 0.29704496 0.049626172 1116938
0.59259504 0.2938408 0.049151301 789263
0.59459198 0.29654613 0.049100757 1182474
0.58861959 0.2938419 0.047766864 1117194
0.59085763 0.29419342 0.047429323 920335
0.59264004 0.29613048 0.047925115 1182729
0.58675456 0.29392472 0.046188056 1051915
0.58853906 0.29579687 0.046080172 1182987
0.58470154 0.29444996 0.044464111 1117453
0.58610642 0.29580283 0.044390559 1248781
0.58160269 0.29465383 0.044606149 527394
0.58251262 0.29505292 0.042967796 1248781
0.58022213 0.2950623 0.041509807 330015
0.58012158 0.29593045 0.041120172 1445645
0.57641923 0.29627979 0.040303767 2105384
0.57883823 0.29615077 0.03941226 1709069
0.57191646 0.29590279 0.03932637 8618368
0.57416773 0.29726809 0.038219631 1905942
0.5760057 0.29732662 0.037600636 1379598
0.57202137 0.29775488 0.036622763 3154461
0.5692606 0.29862565 0.034678578 4797982
0.56736958 0.29809409 0.033022821 9138768
0.56726211 0.29873788 0.034316182 6244637
0.62247193 0.30940652 0.060808599 1117448
0.6238209 0.31126219 0.059947133 854793
0.62624896 0.31524909 0.059667826 723468
0.62726665 0.31661558 0.059221625 986121
0.61440504 0.30067652 0.061076522 395019
0.61628032 0.30270553 0.060166836 723208
0.61847407 0.30476624 0.059763014 788744
0.6203959 0.3068895 0.059102952 789001
0.62226295 0.30938774 0.059225857 657674
0.62429011 0.31182498 0.058449745 986122
0.62525064 0.31397212 0.057918489 723466
0.62675732 0.3170045 0.057054281 986122
0.6279099 0.31947631 0.056755841 986123
0.62909067 0.32254344 0.055758357 1051912
0.63039815 0.32553473 0.055786431 1182474
0.61073983 0.29901633 0.059390426 788744
0.61324424 0.3004626 0.058918655 788744
0.61473632 0.30282289 0.058952332 985607
0.61611307 0.30538821 0.058108568 854280
0.61783189 0.30868107 0.057489038 1051399
0.61951321 0.31073534 0.057200253 1051655
0.62093246 0.31332135 0.056448519 1051657
0.62243629 0.31581002 0.055788279 1117195
0.62384021 0.31792212 0.055803776 1117194
0.62602162 0.32124388 0.054855049 789262
0.6270051 0.32351154 0.054532826 723727
0.62879837 0.32465875 0.054192007 723468
0.63118291 0.32766616 0.054005325 2299410
0.63268328 0.33043551 0.053792238 5913901
0.60540533 0.29636168 0.058620691 1051399
0.60748136 0.29722086 0.058096349 788746
0.60970354 0.2983225 0.058173776 723209
0.61019653 0.30168721 0.057262421 985608
0.61316454 0.3036465 0.057348192 1051399
0.61488527 0.30522186 0.056281805 1116935
0.62398541 0.31913906 0.053247094 1182733
0.6262449 0.32389694 0.052959502 1248779
0.62762928 0.3269881 0.05211556 789259
0.6286788 0.32960948 0.052267969 658187
0.62924755 0.33202815 0.051551998 1314313
0.60253102 0.29444587 0.056595862 1117192
