# .PCD v0.7 - Point Cloud Data file format
VERSION 0.7
FIELDS x y z rgba
SIZE 4 4 4 4
TYPE F F F U
COUNT 1 1 1 1
WIDTH 1153
HEIGHT 1
VIEWPOINT 0 0 0 1 0 0 0
POINTS 1153
DATA ascii
0.65988129 0.42851448 0.01629658 2103042
0.66130292 0.42864174 0.014333766 1445639
0.65893441 0.42946988 0.01270768 2168583
0.65658313 0.42954302 0.010309033 4076297
0.64592326 0.42827839 0.0010724254 7166757
0.64711463 0.43205571 8.6326152e-05 6509597
0.71649593 0.42541593 0.0707753 1315075
0.71883166 0.42751974 0.069314845 1446402
0.72102463 0.43061131 0.068199597 1511939
0.72206223 0.43200511 0.066703066 1446659
0.72363883 0.43429631 0.064928144 1512195
0.72497499 0.43661863 0.063809976 1446658
0.72607231 0.4392556 0.062445804 1446658
0.72698843 0.44081646 0.062306166 1446657
0.72797525 0.44415951 0.060529888 1512450
0.71167195 0.42183757 0.070760995 1315074
0.71386409 0.42361251 0.069460973 1117698
0.71554333 0.4252668 0.068168834 1117954
0.71725047 0.42801225 0.067153126 1117698
0.71829468 0.43033844 0.065688923 1052161
0.72013646 0.43163899 0.064334393 1249026
0.72048551 0.43456694 0.063689463 986114
0.72597283 0.43873283 0.060424209 1380866
0.72670233 0.44026983 0.059080601 1446404
0.7275455 0.4429881 0.059083074 1512195
0.72868937 0.44635665 0.057213992 1512195
0.72985262 0.44856513 0.056958288 1314050
0.73117411 0.45110565 0.054799214 3546637
0.70866799 0.41963753 0.070163347 986115
0.71069163 0.42103982 0.068772048 986370
0.71245873 0.42294741 0.067849576 855041
0.71378773 0.42516887 0.066238686 855042
0.7157985 0.42758104 0.065214962 855041
0.71711242 0.42955047 0.06364578 855042
0.71831554 0.43233123 0.062838919 854787
0.71947455 0.43447548 0.061384149 855042
0.72077638 0.43761981 0.060477003 855043
0.72193545 0.43917 0.058929548 920324
0.72233438 0.44201648 0.057360083 920579
0.72949749 0.44892797 0.054136559 1576962
0.73000085 0.45101756 0.052364424 2166529
0.73052746 0.45312941 0.050422102 4664077
0.70421487 0.41619742 0.070761591 789505
0.70554948 0.41717261 0.069583751 789249
0.70741284 0.41856802 0.06814006 920578
0.70935297 0.42008749 0.066893198 986627
0.71058625 0.42191887 0.066479966 789506
0.71898443 0.43422094 0.059461884 789251
0.71971118 0.43680468 0.058294572 789251
0.72039992 0.44009358 0.056636766 789250
0.72143149 0.44182006 0.055506356 789506
0.72237813 0.44357759 0.0544957 920577
0.72346503 0.44623542 0.052603886 986369
0.72464919 0.45008463 0.051978849 920322
0.70028663 0.41319078 0.068888247 788993
0.70215541 0.41470474 0.068990573 788994
0.7039246 0.41658399 0.06739682 920577
0.70618242 0.41850138 0.065809771 1249027
0.72055662 0.44143057 0.054042459 789505
0.72136217 0.44267917 0.05273021 855042
0.72176188 0.44692487 0.050380863 920578
0.72346163 0.44904628 0.049446687 920833
0.72540927 0.45134643 0.048502453 1181441
0.69813144 0.41266802 0.068348095 789250
0.699974 0.41425863 0.066497922 854786
0.70185727 0.41640022 0.065387882 1117954
0.7216661 0.44657278 0.048581988 855298
0.72311747 0.45155007 0.047162294 1248257
0.69529676 0.41122991 0.068211585 789505
0.69645578 0.41251171 0.065730542 789250
0.69800824 0.41498467 0.064227998 1183234
0.69867802 0.41577089 0.062072456 1314818
0.72293758 0.45280057 0.044108987 1247747
0.69126773 0.40986544 0.06686338 855041
0.69288933 0.41099113 0.065098256 855041
0.69450521 0.411991 0.06357041 789250
0.69614029 0.41518414 0.062725052 1315074
0.68929893 0.40952134 0.064961806 789508
0.69051194 0.41044784 0.062758014 855041
0.6922282 0.41332984 0.061955392 1117698
0.69356483 0.414776 0.060536154 1315075
0.71098149 0.44624895 0.04472515 1315077
0.71217233 0.44867158 0.042914629 1315075
0.68760407 0.40935442 0.062268913 855042
0.68840659 0.41062969 0.060859829 920578
0.69003713 0.41442341 0.059947759 1380609
0.6918655 0.41448021 0.059383005 1380354
0.70346463 0.43767223 0.045918517 1183748
0.70509887 0.43921882 0.046404243 1183492
0.70721018 0.44152278 0.044939309 1183491
0.7082181 0.44323897 0.042971797 1183492
0.70983487 0.44567043 0.04153911 1249285
0.71122599 0.44766906 0.040126428 1315330
0.7124877 0.45011383 0.039386295 1315076
0.71418214 0.45296848 0.038818046 1315078
0.71484262 0.45502061 0.03679809 1315079
0.71568733 0.45814806 0.035297178 1380615
0.68515003 0.4096317 0.060485356 920578
0.68686336 0.41031215 0.058679134 920577
0.68697375 0.41438404 0.058083192 1446145
0.68935835 0.41424525 0.056599289 1380610
0.69876188 0.43373251 0.047871336 1183236
0.70069456 0.43478936 0.0468449 1052163
0.70199776 0.43625039 0.04521735 1117954
0.70418262 0.43777323 0.043826386 1117955
0.70538163 0.43992171 0.043303192 1249028
0.71488392 0.45600289 0.034729064 1249543
0.71533984 0.45801526 0.032999009 1315333
0.71609992 0.4602983 0.032227777 1315077
0.71693683 0.46232539 0.031785928 1249285
0.71795505 0.46491951 0.029739238 1511175
0.68270111 0.40918952 0.058020264 920834
0.68374872 0.41060913 0.05705744 986369
0.68527424 0.41453496 0.055137649 1511939
0.6872642 0.41463089 0.055657871 1380610
0.69670665 0.43287414 0.045165569 1052164
0.69836992 0.4338941 0.044401065 1052163
0.71651471 0.46234077 0.029438242 1249283
0.71774352 0.4646191 0.027643375 1380102
0.71897393 0.4671517 0.026910536 5850664
0.68070805 0.40995511 0.056128934 1052161
0.68246049 0.41030869 0.055607378 1117697
0.68283725 0.41515595 0.054003835 1577732
0.68485206 0.4145503 0.052789927 1577733
0.69352466 0.43140516 0.045055807 1117957
0.69484901 0.43187997 0.04397738 1117445
0.67818844 0.40974468 0.054801166 1117954
0.67965651 0.41052639 0.052607417 1183234
0.68155432 0.41507995 0.051467493 1708804
0.68214452 0.41478246 0.049687542 1643268
0.6885339 0.42941171 0.044080943 1183491
0.69075924 0.43037874 0.043219924 1117699
0.69305015 0.43135315 0.041575551 1117702
0.67650896 0.40992737 0.052391335 1183491
0.67997354 0.41542405 0.048416629 1708804
0.68748462 0.42912853 0.041784421 1117954
0.68942326 0.42994449 0.040599853 1117699
0.67396641 0.41033506 0.050054476 1183750
0.67604357 0.41125339 0.048917085 1117702
0.67724252 0.41621742 0.047030143 1774597
0.68359125 0.42797482 0.04156962 1249029
0.68566883 0.42833191 0.040451571 1183492
0.68778598 0.42945665 0.039283119 1249281
0.67209947 0.40999475 0.047858894 1249542
0.67265505 0.41201472 0.046809494 1183238
0.67519593 0.41668028 0.046046659 1774600
0.67567462 0.41651902 0.044034228 1774597
0.68137062 0.42806315 0.038515024 1314564
0.68328857 0.4278214 0.03833466 1183491
0.66923475 0.41095775 0.04625307 2236167
0.67127228 0.41157049 0.045543134 1775367
0.67306381 0.41707346 0.04175134 1774596
0.67943859 0.42781782 0.036954686 1249027
0.68094993 0.42793828 0.036149196 1183490
0.66563296 0.41007617 0.04451555 5985308
0.66748059 0.41088414 0.044757269 4603416
0.66824871 0.41181239 0.042339951 4471567
0.67082536 0.41735116 0.040805385 2498052
0.67738074 0.42789137 0.035125196 1249027
0.67890638 0.42753714 0.033583418 1183491
0.66561878 0.41098875 0.042018421 5918491
0.66630113 0.41159841 0.03998825 5852185
0.66885173 0.41727471 0.038399607 4208141
0.67614937 0.42747778 0.03345257 1183492
0.6673677 0.41703147 0.036675677 5523478
0.67351055 0.42775631 0.031462677 1249030
0.67099726 0.42816848 0.028909996 1249028
0.66865587 0.42847949 0.02660273 1314820
0.66754627 0.42845362 0.025066316 1380612
0.66482675 0.42908686 0.023082539 1446152
0.66218549 0.42896387 0.020432271 1445893
0.66017836 0.42914227 0.019446209 1971458
0.65852523 0.42887497 0.017803609 3418634
0.65741313 0.42940345 0.014194719 3747335
0.71784663 0.42729694 0.073969439 1380867
0.71963221 0.42884651 0.072889656 1446660
0.72122598 0.43135199 0.071982637 1446659
0.72310424 0.43360713 0.070738882 1512707
0.72406793 0.43535948 0.068946362 1578243
0.72541243 0.43859234 0.068321139 1577731
0.72622836 0.44009501 0.06724932 1512195
0.72689742 0.44273049 0.065953508 1643524
0.71299493 0.42352194 0.074552253 1051907
0.71488476 0.4251399 0.0740325 1183490
0.71591336 0.42689979 0.072519071 1052163
0.71771181 0.42902446 0.071145505 1117954
0.7187953 0.43182844 0.069629028 1052420
0.71962231 0.43470293 0.068427444 1117698
0.72246563 0.43603814 0.067435026 1315074
0.72530288 0.437729 0.065900825 1512193
0.72615302 0.43933532 0.064582884 1512193
0.72740829 0.44336343 0.06404984 1512194
0.72826385 0.44609183 0.062145442 1578242
0.72910112 0.44774085 0.060772553 1577732
0.73030984 0.4498533 0.059521139 1707522
0.70838326 0.41902387 0.07550405 855043
0.71003574 0.4209401 0.074087605 1051906
0.71178651 0.42245078 0.072727934 1051907
0.71330851 0.4239634 0.071362332 920834
0.71520412 0.42658168 0.070389062 920834
0.71658558 0.42882562 0.069237456 986370
0.71826023 0.4316974 0.067740239 986371
0.71906084 0.43387601 0.066514149 920834
0.72047246 0.43658879 0.065349571 920834
0.72173965 0.43890643 0.063686855 986115
0.72237062 0.44084495 0.063087672 986370
0.73070264 0.45075494 0.057186097 2494982
0.70467818 0.41640037 0.074862406 789250
0.70659024 0.41808623 0.073279694 920578
0.70828044 0.41976088 0.072109759 1051906
0.71029902 0.42104751 0.070968643 986627
0.71866119 0.43441647 0.063968241 921090
0.72047788 0.43945751 0.062087908 789507
0.72121918 0.44094813 0.0605537 855043
0.72191501 0.44337606 0.059302919 855041
0.72345048 0.44608051 0.058002666 986370
0.72462654 0.44957942 0.056963228 986370
0.70161611 0.41455084 0.073785692 789250
0.7028836 0.41599369 0.072359458 855041
0.70431697 0.41823751 0.071533233 1249027
0.70610106 0.41866264 0.07005094 1249025
0.72062045 0.44322574 0.056696422 855042
0.72207415 0.445326 0.05601576 920577
0.72417998 0.44849324 0.054585084 1117698
0.72507751 0.45076036 0.054770783 788482
0.7253257 0.45251614 0.051979557 1115392
0.69779718 0.41225892 0.072979212 789250
0.69953203 0.41351169 0.072029769 788994
0.70071304 0.41614258 0.070352957 1183234
0.70215851 0.41736645 0.069281839 1249027
0.72126466 0.44850281 0.053452365 920834
0.72265613 0.45109311 0.051740363 854786
0.72340631 0.45350468 0.049887583 2363399
0.69397283 0.4109081 0.072777316 789250
0.69554603 0.41191506 0.071080111 854786
0.69735318 0.41337359 0.069715112 854787
0.69877553 0.41615975 0.069149598 1314817
0.69224072 0.41091794 0.070366986 789506
0.69332618 0.41184193 0.068418689 855042
0.69547307 0.41471294 0.068311214 1248771
0.69695121 0.41556346 0.066274844 1314563
0.68968767 0.41021097 0.068137959 855042
0.69152981 0.41155869 0.067297973 855042
0.69277698 0.41489911 0.065929115 1446148
0.69400918 0.41523141 0.063653886 1380612
0.70979214 0.44579723 0.049204141 1249543
0.71128267 0.44767565 0.048038989 1249541
0.68635029 0.40930504 0.066938818 855299
0.68755758 0.41006434 0.066131495 920578
0.68910974 0.41121912 0.064776875 920578
0.69160163 0.41467792 0.063603908 1380610
0.70281702 0.43724188 0.052472509 1118214
0.7044692 0.43886736 0.051619567 1117956
0.70624036 0.44098943 0.049515985 1117956
0.70777237 0.44230455 0.048116095 1183492
0.70957166 0.44457918 0.046898365 1183748
0.71142352 0.44736144 0.046077743 1315076
0.71225142 0.45002466 0.045130625 1315079
0.71347994 0.45189148 0.044123918 1315080
0.71449798 0.45399982 0.041700006 1315080
0.71506792 0.45694113 0.04069528 1249287
0.68466312 0.40903667 0.065849751 920834
0.68564183 0.41018707 0.064117298 920578
0.68784606 0.41477829 0.061888158 1446403
0.6995405 0.43489668 0.051598065 1117958
0.70145512 0.43607825 0.049929366 1117956
0.70319867 0.43781126 0.04848595 1183491
0.70471877 0.43943626 0.04890769 1183492
0.71535957 0.45629287 0.039122194 1315336
0.71584225 0.45845777 0.03841491 1315078
0.7164309 0.46144223 0.036164746 1315081
0.71764749 0.46479195 0.034264088 1116934
0.71857464 0.46614224 0.033275634 2496269
0.68183661 0.40898424 0.063555524 986370
0.68346369 0.41018489 0.061854854 920578
0.6861645 0.41472182 0.059809051 1511939
0.6954388 0.43242341 0.050270557 1183237
0.69774872 0.43366325 0.049055405 1117700
0.71736526 0.46355054 0.033092767 1182982
0.71836942 0.46624118 0.030851118 2430990
0.71914101 0.46778059 0.030865185 6507825
0.67980325 0.40930676 0.061458468 986372
0.68059969 0.41029871 0.06019932 1051906
0.68215215 0.41514385 0.058433324 1511938
0.68399745 0.41482371 0.058027104 1511938
0.69347429 0.43181366 0.048677444 1183235
0.69566762 0.43277583 0.047850713 1117701
0.67821121 0.40928978 0.059631854 986371
0.67787361 0.41128844 0.057575881 1117955
0.68143368 0.41543925 0.055552959 1643266
0.69043338 0.43030474 0.048336938 1183490
0.69183934 0.43117252 0.046527937 1117699
0.67572939 0.40971386 0.056899011 1052164
0.67680359 0.41108078 0.056344241 1117957
0.68003172 0.41554803 0.054053009 1643267
0.68711603 0.42962003 0.047851361 1117701
0.68837178 0.43005967 0.046215259 1117956
0.67443782 0.40974066 0.055491522 1052422
0.67467743 0.41170192 0.054136485 1118214
0.67745209 0.41622376 0.050840273 1708805
0.68498081 0.42866874 0.045122355 1117956
0.68691248 0.42899516 0.043862835 1183492
0.67143661 0.4104532 0.053058401 986630
0.67244303 0.4116202 0.051704109 1183495
0.67569131 0.41665691 0.048462063 1774599
0.682917 0.42819893 0.043357819 1183493
0.66897595 0.41074371 0.051172838 1644037
0.66991454 0.4117108 0.049019068 1577988
0.67310905 0.41753194 0.048105717 1708549
0.67979592 0.42825699 0.041013323 1249029
0.66680962 0.41116995 0.050461918 4078100
0.66731608 0.41216612 0.048507348 4077329
0.67154306 0.41770947 0.045240611 2234884
0.67728198 0.4279041 0.038678393 1314564
0.66522068 0.41134143 0.047916144 5458463
0.66574997 0.41185528 0.045870058 5918238
0.66942412 0.41781852 0.04340741 3550471
0.67416567 0.42803264 0.038170457 1249027
0.67551643 0.42806023 0.036419839 1314307
0.66710103 0.41780135 0.041705921 5655059
0.67344457 0.42823026 0.034395367 1249028
0.66541356 0.41797984 0.038824357 6444054
0.6706109 0.42886156 0.033149883 1249029
0.66845357 0.42865795 0.030976474 1380356
0.66531205 0.42922014 0.02941522 1577223
0.66646677 0.42929417 0.027291298 1445892
0.66289753 0.42983079 0.027813107 1511946
0.66442168 0.42961687 0.026289567 1511687
0.66210592 0.4301343 0.024865031 1511943
0.65841383 0.43012571 0.023535416 3089410
0.66072476 0.43005306 0.023000062 1643011
0.6569311 0.42960536 0.021383457 5325849
0.65818727 0.42978659 0.020639047 3286787
0.66459465 0.45545319 0.0017051287 920586
0.66695631 0.45753121 0.00058269128 855050
0.66012269 0.45213652 0.0024491958 855052
0.66207862 0.45318156 0.0011501424 789512
0.65698838 0.44981778 0.00083377212 855051
0.65912104 0.45070827 0.00040845945 855050
0.65311909 0.44767225 0.00084462017 723979
0.71892971 0.42864543 0.07849662 1380867
0.72048163 0.43082261 0.07682088 1446658
0.72241652 0.43319941 0.075468689 1512450
0.72397912 0.43586153 0.075229257 1578499
0.7249043 0.43733573 0.074109934 1512707
0.72594702 0.44021314 0.071898073 1512452
0.72712511 0.44341031 0.070070088 1643779
0.71172428 0.42255664 0.079501182 986370
0.71377462 0.42432904 0.078891762 1117699
0.71562064 0.42645556 0.077717923 1117955
0.71735352 0.42848849 0.076193511 1183491
0.71826464 0.43107361 0.074925669 1052163
0.71917164 0.43360659 0.073902339 986369
0.72181463 0.43580347 0.07220728 1249538
0.72457564 0.43725145 0.070616037 1512451
0.72634882 0.4410395 0.069593593 1512710
0.72749925 0.44449824 0.067580625 1577987
0.72863817 0.44666916 0.06623923 1643778
0.7297436 0.44891798 0.06484472 1576961
0.73132801 0.45174265 0.064453378 4269325
0.70670897 0.41796809 0.080385759 789249
0.70888209 0.41992581 0.079304948 920835
0.71070784 0.42164817 0.078094378 1052161
0.71294087 0.42358673 0.076453455 986625
0.71487129 0.42636707 0.075398549 920834
0.71656001 0.42864686 0.074362263 920837
0.71763021 0.43055946 0.072350658 986372
0.71864909 0.43292055 0.071776882 920835
0.71980971 0.43539459 0.070620313 986369
0.72091216 0.43770945 0.069403045 986370
0.7218591 0.44064239 0.067897998 986369
0.72271955 0.44255415 0.066974059 1052162
0.73055303 0.45062247 0.061761342 2429700
0.70416158 0.4163481 0.079843536 855042
0.70595223 0.41755387 0.078085907 855042
0.70794445 0.41938806 0.07717146 1052161
0.709773 0.42097661 0.075588524 1052161
0.7207185 0.43812037 0.066910923 920835
0.72089422 0.44039759 0.065588646 855042
0.72166556 0.44246358 0.065025419 920833
0.72238457 0.44481683 0.063802317 986370
0.72369903 0.4480235 0.061729789 1117954
0.72531581 0.44982263 0.06008669 920321
0.70042121 0.41415814 0.078651704 855041
0.70231009 0.41553465 0.077661313 920578
0.70368516 0.4174692 0.07629779 1117698
0.70527196 0.41885066 0.075397901 1249283
0.72094941 0.44202197 0.062695026 855042
0.72116017 0.44443542 0.061424837 855041
0.72184193 0.44680551 0.060526878 986369
0.72570229 0.45257986 0.057191312 1837830
0.6982581 0.41341937 0.076845542 854786
0.70021266 0.41471878 0.075645901 986114
0.7013303 0.41748434 0.07461971 1380354
0.72087717 0.4467321 0.057721078 920834
0.72128338 0.45007887 0.056911685 986369
0.72294474 0.45283663 0.054810055 1247745
0.69456393 0.41179955 0.076172233 789250
0.69662344 0.41267753 0.074739203 854787
0.69768381 0.41626906 0.073343478 1380353
0.70038021 0.41712421 0.072649866 1380353
0.72317123 0.45597452 0.050434485 5847581
0.69100517 0.41043776 0.075335436 855044
0.69298965 0.4114117 0.073898792 854787
0.69440967 0.4141939 0.07276924 1183490
0.69582957 0.41572052 0.071195669 1380353
0.68901372 0.40989858 0.073287636 854787
0.69037634 0.4111608 0.071797334 854787
0.69257623 0.41364986 0.070771836 1183234
0.69347674 0.41505295 0.069375269 1445892
0.7073319 0.44251537 0.055605404 1183748
0.70931435 0.44478956 0.054177716 1183496
0.71011925 0.44621098 0.053181797 1315078
0.71363604 0.45202714 0.050960392 1315335
0.71448845 0.45352572 0.049922377 1315334
0.68728083 0.41007301 0.071119204 855043
0.68809056 0.41089278 0.069677621 986114
0.68999624 0.41486394 0.068903059 1511685
0.69143283 0.41502997 0.067740679 1577220
0.70352477 0.43820351 0.056104183 1183749
0.70543659 0.44016021 0.054370373 1183492
0.70742738 0.44260052 0.053494513 1183749
0.70857841 0.44398645 0.051517934 1183749
0.71052974 0.44707751 0.051118806 1249285
0.71166503 0.44897509 0.050142586 1315075
0.71293247 0.45112556 0.048512474 1315078
0.71401358 0.45356017 0.046600372 1315078
0.71506017 0.45646662 0.046405658 1315079
0.71585846 0.45945477 0.045012325 1446408
0.68497407 0.40994579 0.069214426 986115
0.68563175 0.41076756 0.067150012 986369
0.68843484 0.41472352 0.066290699 1511684
0.69978243 0.43529087 0.055444017 1183748
0.70182788 0.436993 0.054581538 1183494
0.70407128 0.43842232 0.053915903 1183493
0.70585692 0.44091573 0.052431263 1183748
0.71454263 0.45527267 0.044165149 1249288
0.71560091 0.45836478 0.042404883 1315080
0.7163837 0.46112332 0.041542418 1446663
0.71725106 0.46350205 0.040592723 1314821
0.71788895 0.46669739 0.039101794 1708036
0.71906817 0.46910876 0.037376381 6902585
0.68009508 0.40951556 0.068107635 1052165
0.68243754 0.41005248 0.067044601 986370
0.68584299 0.41498256 0.064911827 1511940
0.69686139 0.43364096 0.055375613 1183748
0.6988039 0.4348954 0.053377494 1183493
0.71610779 0.46112263 0.039330184 1380872
0.7171222 0.46312335 0.037733935 1249545
0.71767986 0.46515626 0.037225239 1051652
0.7186811 0.46765536 0.035222501 4403486
0.67940831 0.40937018 0.065878868 986626
0.68038011 0.41045973 0.06525401 986369
0.68285716 0.4106521 0.064521685 1051906
0.68399978 0.41514456 0.062418193 1446659
0.69264495 0.43201947 0.05397778 1118213
0.69522691 0.43275863 0.052704796 1183494
0.69724381 0.43417451 0.051482439 1183493
0.67773497 0.40929708 0.065757573 1052419
0.6778667 0.41022864 0.063400388 986627
0.68162644 0.41553605 0.061409906 1577730
0.69104612 0.43101579 0.051805153 1117955
0.69307005 0.43223906 0.051772967 1117957
0.67531991 0.40949702 0.062926084 1052421
0.67643595 0.41079253 0.060545877 1117699
0.67925733 0.41595352 0.058554463 1577731
0.68731463 0.42998016 0.051407725 1117956
0.68844712 0.43054456 0.049624279 1183492
0.67224216 0.41019011 0.059539631 986889
0.67382419 0.410891 0.059760273 986373
0.67464101 0.4118427 0.057440892 1117958
0.67749906 0.41622144 0.056350797 1709061
0.68499529 0.42945182 0.048792422 1183236
0.66968465 0.41074178 0.058380306 1249800
0.67199349 0.41115397 0.056674309 1051908
0.67496091 0.41704345 0.054759458 1774598
0.67581946 0.416659 0.053122275 1643526
0.68184996 0.42860812 0.048446573 1183491
0.6835264 0.42927033 0.046961077 1183494
0.66963094 0.41148973 0.055180274 1643781
0.67034525 0.41286248 0.053636707 1709830
0.67957991 0.42841113 0.046395764 1249027
0.68118548 0.42846444 0.044742182 1183493
0.66675615 0.41113827 0.055092886 3682830
0.66738987 0.41219643 0.052762419 3748880
0.66834319 0.41299677 0.050794408 3419918
0.66956753 0.41825378 0.049948469 3353349
0.67165846 0.41775417 0.049846061 2103299
0.67741162 0.42856681 0.0444737 1314819
0.66529894 0.41211247 0.051319048 5590043
0.66688842 0.41286713 0.050578132 4997909
0.66914302 0.41808507 0.046547845 3616007
0.67560691 0.42850912 0.0419368 1314564
0.66335064 0.41217399 0.049591005 6247968
0.66362369 0.4129706 0.047323674 7035427
0.66705316 0.41823909 0.046017364 5326098
0.67303669 0.42857102 0.040339127 1249028
0.66454649 0.41831207 0.044155657 6772762
0.67113578 0.4287506 0.037614629 1183493
0.66869497 0.4291445 0.035941213 1249285
0.66631609 0.42960998 0.032806724 1380358
0.66428274 0.42994389 0.031719983 1380615
0.66239828 0.4297758 0.030117467 1446149
0.66026485 0.42996502 0.027940236 1905922
0.65819669 0.43017891 0.026950389 4076301
0.65642035 0.43058589 0.023675352 5523487
0.6772052 0.46825638 0.0029694587 855312
0.67153877 0.46341717 0.0040844381 855310
0.67321068 0.46541572 0.0031068362 921102
0.67555737 0.46760097 0.0015704334 920846
0.67802238 0.47025472 0.0005524978 986382
0.66782576 0.45932186 0.0044335872 855307
0.66946197 0.46113092 0.0031275004 855054
0.67098689 0.46290946 0.0012242794 855052
0.67242873 0.46522492 0.0002127029 920844
0.66277421 0.45455647 0.004893247 855050
0.66504341 0.45649403 0.0038836822 920586
0.66729701 0.45823574 0.002734635 920588
0.65733188 0.45110273 0.0052415505 789516
0.65951067 0.45233971 0.0045859739 855052
0.66089302 0.45318019 0.0038083643 855053
0.65393031 0.44897759 0.0040360838 789515
0.65590507 0.44977912 0.0036969371 789515
0.65812808 0.45057341 0.0027933791 854795
0.65010643 0.44677624 0.0041143633 855049
0.65251738 0.44754595 0.0031402744 789514
0.6470266 0.44465792 0.0035220049 855050
0.64896333 0.44596714 0.0016967654 789259
0.65006232 0.44645232 0.00038313866 855055
0.64514869 0.4440822 0.000941284 789259
0.6412552 0.44235384 0.00062166154 855051
0.64259863 0.44352031 0.00012148917 854796
0.71723759 0.42687541 0.084026426 1446403
0.7183007 0.42805821 0.083240256 1446659
0.71964222 0.42992395 0.082160816 1446405
0.7219125 0.43284464 0.080720305 1512452
0.72306979 0.43447557 0.078962825 1512451
0.72446203 0.43732727 0.078622125 1512707
0.72556287 0.43909907 0.076782405 1512707
0.72672045 0.44239458 0.075111359 1512707
0.71133488 0.42243722 0.084779799 855298
0.71344972 0.4238987 0.083909892 1183491
0.71486747 0.42576271 0.082725525 1052163
0.71641272 0.4275713 0.080890283 1052419
0.71730292 0.43049949 0.080104038 920834
0.71885389 0.43245733 0.078672156 1052162
0.71980184 0.43496284 0.077418521 1117699
0.72033048 0.43734521 0.076687351 920577
0.72587186 0.44006443 0.074865311 1578244
0.72659612 0.44198963 0.073278189 1512708
0.72724944 0.44410703 0.072676145 1578245
0.72807521 0.44574469 0.071388319 1775364
0.72916418 0.44843847 0.06912934 1643522
0.7303775 0.4515371 0.068703584 2758408
0.73135626 0.4527331 0.068083882 5518611
0.70825249 0.41960299 0.084117495 854786
0.71010894 0.42149234 0.082989261 986370
0.71210021 0.42301431 0.081741408 1051906
0.71368825 0.42472097 0.080700919 920578
0.71549267 0.42728013 0.079535976 920834
0.71693295 0.42977047 0.077636339 920835
0.71848857 0.43285272 0.076814562 855041
0.71970141 0.43467051 0.075818837 920578
0.72067004 0.4372102 0.074617349 920834
0.72161353 0.43973953 0.072632968 986371
0.72241479 0.44223249 0.071620747 1117697
0.7226485 0.44475478 0.070338577 1117955
0.73040205 0.45063031 0.066354737 2101251
0.7029624 0.41600737 0.084198691 789505
0.7049377 0.41730437 0.083548218 789250
0.70673835 0.41893941 0.082462437 986370
0.70844734 0.42046082 0.080686852 1183491
0.72146434 0.44225055 0.070582032 920578
0.72196442 0.44450974 0.068464458 920834
0.72357088 0.44668677 0.067800045 1118211
0.72485662 0.44963616 0.065875821 1117953
0.72588861 0.45203105 0.063716762 1706243
0.72623712 0.45369005 0.064423129 3281672
0.69910419 0.4138568 0.0839753 855298
0.70104271 0.41509962 0.08264111 855042
0.70328361 0.41658235 0.08126238 986370
0.70513755 0.41861922 0.080461718 1314819
0.72142309 0.44619539 0.065188609 986626
0.72306371 0.44888532 0.064375825 1117954
0.72548884 0.45054275 0.062790677 1116674
0.72624248 0.45213479 0.061575115 1705730
0.69715756 0.41324002 0.081796095 855042
0.69947797 0.41447034 0.080654606 920578
0.70097584 0.41697785 0.079999208 1249026
0.70294595 0.41785997 0.079268381 1380611
0.72143465 0.44967431 0.062561914 1052417
0.72170913 0.45156646 0.060644388 855298
0.72303236 0.45312554 0.059179306 1509377
0.6936357 0.41162866 0.081199899 789251
0.69571775 0.41268188 0.079730332 789250
0.6976428 0.41559461 0.079262942 1249026
0.69869363 0.41666481 0.077147856 1380609
0.72169298 0.4523201 0.058684327 920578
0.72338331 0.45445362 0.05666922 3218444
0.69221401 0.41118273 0.078754649 854787
0.69424492 0.41242653 0.078126676 920066
0.69534051 0.41601676 0.076926589 1446146
0.69559824 0.41601965 0.074729174 1446403
0.68860716 0.4102425 0.078565985 855042
0.69010699 0.41116178 0.077099837 920322
0.69266123 0.4122099 0.07582444 985858
0.6931231 0.4155719 0.075232349 1446147
0.70775783 0.44283569 0.05976072 1315332
0.70943713 0.44423574 0.058999322 1315335
0.71103811 0.44603193 0.05792664 1184263
0.71218497 0.44862762 0.056700967 1249797
0.71313524 0.45072156 0.055480286 1315590
0.71396542 0.45233309 0.055218071 1446661
0.6862694 0.40979636 0.076140136 855042
0.68792379 0.41093501 0.075266592 920579
0.68885875 0.41530451 0.073653258 1446659
0.69110429 0.41517889 0.072788656 1446402
0.70499122 0.44006041 0.059859462 1184005
0.70651567 0.44136804 0.058516189 1249540
0.70798457 0.44331205 0.057209857 1249542
0.70981878 0.44572628 0.055515751 1315080
0.71097684 0.447905 0.053933173 1315333
0.71214581 0.45016503 0.0522746 1315333
0.7141515 0.45343962 0.053302675 1380870
0.71482277 0.4552871 0.051394448 1380869
0.71574056 0.45764577 0.049871109 1446663
0.71623677 0.4596979 0.049209654 1512455
0.68405783 0.41007257 0.073836237 920834
0.68571502 0.4104754 0.072882041 920834
0.68642473 0.4150615 0.070937261 1643268
0.68810689 0.4151344 0.070237011 1511684
0.6994096 0.4357222 0.060327105 1118211
0.70094121 0.43727854 0.059448533 1118211
0.70309085 0.43879113 0.058315799 1183747
0.70520711 0.44000939 0.057159483 1183750
0.71632957 0.45937651 0.047299683 1446406
0.71696728 0.46269795 0.046119049 1446918
0.71778393 0.46484566 0.044015527 1314819
0.71920764 0.46826443 0.042514689 4732184
0.68232381 0.40970841 0.071925014 986371
0.68320173 0.41055009 0.071372315 1051908
0.68460298 0.41511214 0.070400536 1643269
0.68624771 0.41496742 0.068902627 1643012
0.69551909 0.43324125 0.060173489 1249029
0.69759852 0.43453276 0.058524117 1183491
0.70027453 0.43628645 0.056876257 1118212
0.716214 0.46170062 0.043122917 1512454
0.71801013 0.465684 0.042246759 1182721
0.71868682 0.4675318 0.040701687 2693389
0.71949178 0.46895322 0.039705828 7033905
0.67983121 0.41020429 0.070688896 1052163
0.68141901 0.41066039 0.068733215 1117442
0.68410605 0.41527578 0.068003334 1708805
0.68349022 0.41522995 0.065562315 1577732
0.69205397 0.431288 0.058737054 1183492
0.69478691 0.43270546 0.05765219 1183749
0.67788154 0.41020682 0.068463236 1117954
0.68159604 0.41590485 0.066801853 1643267
0.68093264 0.41578156 0.064402953 1577986
0.68993533 0.43099609 0.056880549 1117955
0.69297093 0.43190342 0.056269653 1118212
0.67526782 0.41048425 0.066163182 1117957
0.67653316 0.41139397 0.065163173 1117701
0.67886424 0.41608196 0.063571438 1578243
0.67871046 0.41601026 0.061366573 1577987
0.6863448 0.42998442 0.055961967 1117957
0.68824381 0.43035287 0.054742582 1117956
0.67320961 0.41106492 0.06413573 986631
0.6745922 0.41159558 0.06263189 986376
0.6768418 0.41659978 0.062715933 1577990
0.67636842 0.41678581 0.060148582 1577988
0.68434864 0.42966059 0.053354144 1183496
0.68599731 0.42985156 0.053663865 1117702
0.67066526 0.4111526 0.062021062 1315335
0.67244923 0.41204417 0.061750829 920580
0.6748656 0.41711205 0.058340073 1577989
0.68211699 0.42927852 0.052273437 1249029
0.68365443 0.43001089 0.050601818 1183237
0.66890889 0.41144788 0.060384393 2301961
0.6711452 0.41257668 0.058645129 1314565
0.67282021 0.41796792 0.055704176 1643524
0.6800186 0.42868876 0.050605923 1249283
0.66727155 0.41095456 0.059017956 3419917
0.66795951 0.41326642 0.056555875 3748363
0.67155111 0.41808712 0.054135576 2103298
0.67718768 0.42878801 0.049614064 1314820
0.67883253 0.42864332 0.048116192 1314564
0.66419411 0.41185293 0.056246191 5787422
0.66573071 0.41365704 0.054284245 5918498
0.66893637 0.41858077 0.052686527 3747848
0.67514259 0.42911071 0.048612356 1249540
0.67564428 0.42905807 0.046587959 1380357
0.66407263 0.41200885 0.053664327 6116644
0.6640932 0.41344422 0.052680358 6707233
0.66716409 0.41860175 0.050370052 5063184
0.67323101 0.42926019 0.044197731 1314822
0.66160095 0.41335118 0.051915355 6642214
0.6649909 0.41876745 0.047273397 6772765
0.67077655 0.42975533 0.044396669 1315076
0.67048031 0.42945182 0.042318195 1315077
0.66770524 0.42990369 0.04108651 1380869
0.66928023 0.42950279 0.039633557 1314822
0.66559708 0.43054086 0.037384838 1446152
0.66313708 0.43021178 0.03697525 1446149
0.66495407 0.42987928 0.035564423 1446151
0.66182798 0.43020469 0.034179889 1445634
0.65911031 0.4303652 0.03235957 2958088
0.66160113 0.43014103 0.03190735 1445634
0.6577816 0.4305917 0.030326761 5063194
0.67763144 0.46969181 0.0072320551 986889
0.67862129 0.47194731 0.0062339306 1052694
0.67711782 0.46734834 0.0058352053 986638
0.67738676 0.46922848 0.0054726154 986637
0.67843848 0.47133821 0.0034060664 1052431
0.6791693 0.47322744 0.0013645515 986640
0.66896129 0.46381909 0.0065461509 986639
0.67114478 0.46470475 0.0055042282 920845
0.6729815 0.46721336 0.0046749525 921102
0.67444748 0.4689312 0.0035911798 1052430
0.66492826 0.45872018 0.0070476681 920588
0.66657013 0.46043101 0.0065669417 920845
0.66883516 0.46261644 0.0060966313 920843
0.65780282 0.45260957 0.008775305 855308
0.66022521 0.45400566 0.0076098144 789516
0.66230351 0.45628837 0.0071130916 855308
0.66392076 0.45780465 0.0063291192 920586
0.65464103 0.45042264 0.0082017928 854799
0.6566422 0.45154613 0.0078105628 789517
0.65846324 0.45258456 0.0070994943 855309
0.65080535 0.44759524 0.0071972013 854794
0.65291691 0.44917175 0.0068512149 789259
0.64769268 0.4461146 0.007183589 789517
0.6495744 0.44663167 0.0060988888 855051
0.64472342 0.44375378 0.0062708482 789258
0.6457448 0.4451248 0.0050942674 789514
0.64007998 0.44270629 0.0048115104 854797
0.6420095 0.4434548 0.0041457713 789513
0.6379087 0.44251323 0.0031958967 854792
0.64044189 0.44233054 0.0033426136 855051
0.63679302 0.44174403 0.0011594221 854795
0.72136414 0.43144453 0.088159561 1512450
0.71684039 0.42649692 0.089651927 1512197
0.71774709 0.42754441 0.088797197 1577989
0.71922529 0.42909551 0.086720571 1512195
0.72131038 0.43175763 0.085744739 1512451
0.72245514 0.43391109 0.084813192 1578244
0.72360098 0.43587369 0.08361198 1643779
0.72480929 0.43831304 0.081673816 1578243
0.72611666 0.44170576 0.079815716 1578501
0.72703505 0.44315892 0.079956122 1644290
0.72769713 0.44546527 0.078998148 1709827
0.71253884 0.42376855 0.089174509 1249283
0.7140401 0.4250249 0.087644994 1117955
0.71606374 0.42736197 0.08659032 1117955
0.71705925 0.4301765 0.084856793 986371
0.71818036 0.43202233 0.083729774 986627
0.71994364 0.43353587 0.082558967 1183492
0.72071326 0.43745941 0.081602931 1117698
0.725923 0.44106102 0.078176603 1578243
0.72677165 0.44280756 0.076876834 1578499
0.72770834 0.44575211 0.076608375 1709828
0.72851974 0.44795913 0.074825294 1644034
0.72965264 0.45115727 0.074313432 1904386
0.73053092 0.45257056 0.073385261 3810320
0.70728385 0.41974258 0.089277327 920577
0.70904469 0.42090443 0.088038743 986626
0.71127683 0.42270017 0.08680445 1052162
0.7131359 0.42443621 0.085729875 920833
0.71522331 0.42686203 0.084698774 920580
0.71630371 0.42867446 0.082910508 920835
0.71819961 0.43231055 0.081786916 986372
0.71899492 0.4343949 0.080215722 920579
0.72003424 0.43665785 0.079484962 986370
0.72093904 0.43897039 0.07818462 986371
0.72195005 0.44154197 0.07671611 986371
0.7225762 0.44427991 0.075085141 1183235
0.72882605 0.44840622 0.072369657 1578497
0.72942895 0.45062393 0.071538888 1708034
0.73045397 0.45224291 0.071510002 2889736
0.73120767 0.45383492 0.070294455 6506008
0.70378649 0.41693789 0.088537604 789505
0.70592028 0.41869813 0.08737731 920833
0.70769197 0.42020628 0.085809484 1117699
0.709508 0.42139885 0.086038589 1446403
0.72110689 0.43913239 0.075618044 1051907
0.72166651 0.44104147 0.075240292 920837
0.72190875 0.44346666 0.073789887 920834
0.72241211 0.44550785 0.0723444 1052163
0.72394925 0.44805151 0.071047753 1249026
0.72564518 0.45282328 0.068576828 1968900
0.69878685 0.41349137 0.088408813 789252
0.7006495 0.41488767 0.087965861 789252
0.70230126 0.41597521 0.086148947 855042
0.70406544 0.41798604 0.085432395 1183234
0.72232765 0.44855112 0.068809956 1052417
0.72464615 0.45084357 0.06809178 1183233
0.725586 0.45175678 0.06607803 1246977
0.72571921 0.45489073 0.065567657 4333586
0.69641304 0.41263077 0.086883336 789507
0.69890785 0.41420388 0.085815728 854788
0.70090342 0.4163779 0.084693983 1052163
0.70263278 0.41810435 0.083400592 1446146
0.72159386 0.45122305 0.065108389 1052417
0.69370723 0.41153723 0.086574733 789250
0.69500911 0.41236252 0.084499121 789250
0.69671422 0.41425365 0.084240682 920834
0.69812799 0.41688436 0.082730956 1380611
0.70000029 0.41736311 0.081208944 1446147
0.72189599 0.45406175 0.062584378 1313537
0.72264349 0.45516804 0.061539255 2822921
0.69142085 0.41103518 0.083668672 789251
0.69287282 0.41246146 0.083126441 854786
0.69408107 0.4153952 0.081608742 1446657
0.69570106 0.41619223 0.080544531 1380610
0.68932426 0.41095385 0.082342394 789507
0.6912477 0.41196328 0.080902047 854787
0.69225955 0.415571 0.079560548 1380866
0.7132448 0.45132715 0.060158566 1446663
0.71429253 0.45274672 0.059195705 1446664
0.71494585 0.45457226 0.05782079 1446664
0.68540448 0.41032487 0.081517085 920581
0.68717837 0.41062731 0.080154352 855043
0.68852258 0.41157779 0.079258695 986113
0.68950224 0.41548431 0.077261597 1446403
0.70444536 0.44104201 0.063419975 1315332
0.70694095 0.44311994 0.062448062 1315076
0.7083776 0.44571173 0.060908899 1249798
0.71005356 0.44712156 0.060300246 1249798
0.71141863 0.44953245 0.059555098 1315333
0.71347022 0.45194376 0.057625979 1381126
0.71427733 0.45483729 0.055178389 1446664
0.71552235 0.4570201 0.05512628 1446663
0.71666116 0.46015841 0.053383097 1512456
0.68299472 0.41013664 0.078929149 920837
0.68512416 0.41084784 0.078456312 920579
0.68775535 0.4150598 0.075996868 1512194
0.70094287 0.43945473 0.062731653 1249539
0.70309705 0.4408313 0.061750159 1249283
0.71588862 0.45922238 0.051743947 1446664
0.71686864 0.46225244 0.050454512 1512456
0.71771544 0.46412298 0.049023822 1315334
0.71901065 0.46637213 0.048556425 2102539
0.72018993 0.46849179 0.046058118 7165492
0.68080658 0.40981677 0.076824404 1052165
0.68267131 0.41065606 0.076003082 986371
0.68536222 0.41525042 0.074063309 1512194
0.69597656 0.43470061 0.063248634 1118211
0.69819587 0.43651044 0.062779561 1183748
0.7004196 0.43830919 0.062176481 1183746
0.71831393 0.46607524 0.046394609 1444866
0.71909463 0.46744168 0.045270666 3351062
0.67923963 0.40981877 0.075219199 1052164
0.68079269 0.41111487 0.073966637 1117699
0.68335176 0.41502377 0.072626919 1577987
0.69369376 0.43359026 0.062554918 1249284
0.69524115 0.43383938 0.061036654 1183492
0.67707771 0.4099673 0.072895557 1052419
0.67829233 0.41134697 0.07307668 1183748
0.681135 0.41563046 0.069973938 1643522
0.68925798 0.43111742 0.061563693 1183492
0.69155264 0.43243867 0.060817495 1183491
0.67588371 0.40995452 0.071525656 1183749
0.67601991 0.41157222 0.070610881 1249031
0.67850655 0.41662067 0.06653136 1709059
0.687639 0.43051296 0.059499525 1117957
0.6731385 0.41063887 0.06932959 1249286
0.67376506 0.41165969 0.068109736 1052165
0.67750525 0.41672301 0.065114856 1643522
0.68345022 0.42950606 0.05858779 1183491
0.68537569 0.43007934 0.058446944 1183747
0.67058998 0.41110414 0.067190424 1052680
0.6715098 0.41173083 0.06545949 1117701
0.6743083 0.41779006 0.063230373 1709060
0.68155599 0.42920288 0.057201311 1314565
0.68365258 0.42972216 0.055294231 1183493
0.66808105 0.41138756 0.065356061 2105100
0.66978157 0.41223064 0.064309001 1709571
0.67256653 0.41804785 0.061105952 1774596
0.67985332 0.42950881 0.054892614 1249029
0.66571838 0.41165486 0.06365712 4472343
0.66708297 0.41265059 0.06195724 4471829
0.66955411 0.41848511 0.059144422 3484681
0.6712954 0.41835463 0.057544135 2169345
0.67808568 0.42908567 0.052518502 1314819
0.66387284 0.4119246 0.060883418 6314021
0.66514844 0.41227329 0.059399851 6444576
0.6683172 0.41862655 0.056584194 4602641
0.67525983 0.42947826 0.051556237 1315075
0.66178071 0.41244397 0.057814918 7168545
0.66356808 0.414419 0.05538094 6904355
0.66638297 0.41859144 0.055051178 5851924
0.67250931 0.4296639 0.048716053 1314821
0.670757 0.43006867 0.046374455 1315078
0.66339093 0.42016155 0.051233403 7232021
0.66861117 0.43031687 0.044291303 1315076
0.66653979 0.43079501 0.043188877 1446405
0.66410071 0.4311454 0.040843979 1577737
0.66224742 0.43093273 0.039313361 1577220
0.65968347 0.43064448 0.036842972 2760711
0.65840888 0.43047738 0.03509894 4602135
0.65517724 0.43226585 0.032599322 7035684
0.67704213 0.47109452 0.0092405267 921100
0.67838609 0.47292918 0.0087204054 987152
0.67919755 0.47687852 0.0061966516 1183502
0.67185706 0.46856862 0.0097410157 1052945
0.67302459 0.46949607 0.0082950816 1052430
0.67465615 0.47052443 0.0069876835 1117964
0.68026805 0.48093066 0.003085129 1513490
0.68137282 0.48275179 0.0023297928 6577496
0.6620822 0.45682335 0.013734788 855310
0.66628361 0.46361336 0.0095607713 986387
0.66808611 0.46525797 0.0084369667 986897
0.67030567 0.46677017 0.0075410455 986897
0.67295635 0.46791181 0.0069258288 1052427
0.65835762 0.45327443 0.012758378 921352
0.66042113 0.45582488 0.01264149 855563
0.66123551 0.45754525 0.010305211 986639
0.66294998 0.46042031 0.0090607069 855056
0.6650039 0.46268266 0.0084991753 920594
0.66751081 0.46385223 0.0078209378 1052176
0.6557368 0.4514285 0.011936501 920845
0.65785515 0.45326051 0.011453617 855306
0.65983605 0.45516574 0.0096638165 855307
0.66181898 0.45777625 0.0082998611 855310
0.66157305 0.4593806 0.0088295527 920847
0.65144747 0.44987726 0.012188211 920840
0.65347385 0.45054197 0.011260297 855050
0.6483537 0.44759244 0.010680746 855050
0.65076625 0.44892454 0.0095133595 855049
0.64494199 0.44572777 0.0096648 855051
0.64683098 0.44687405 0.0090898201 855053
0.6425333 0.4454515 0.0085786693 855053
0.63911819 0.44348472 0.0069759265 723721
0.64121711 0.44438258 0.0066370443 723977
0.63686651 0.44324541 0.0053432249 789257
0.63447517 0.44312319 0.0035303868 854793
0.63212055 0.4428969 0.0014689863 855047
0.71666551 0.42804584 0.092534691 1512450
0.71839303 0.42945313 0.091722101 1577987
0.72001904 0.43110806 0.090458035 1512451
0.72164845 0.43328238 0.089953154 1577986
0.72306895 0.4353171 0.088402286 1643779
0.72428554 0.43761122 0.086622506 1578244
0.72561485 0.4408485 0.085275903 1578244
0.72666246 0.44285166 0.08585877 1709828
0.72758222 0.44545269 0.083476275 1710083
0.71152568 0.42363605 0.093131855 1446661
0.7135784 0.42510092 0.091901213 1315331
0.71510828 0.4267208 0.091493577 1249538
0.71643567 0.42886075 0.090242833 1052419
0.71780121 0.43101585 0.089113712 1052419
0.71897399 0.43389472 0.087585926 1117955
0.72006619 0.43642744 0.086657867 1052420
0.72549349 0.44016317 0.083406299 1709319
0.72635114 0.44240659 0.082672536 1578244
0.72751886 0.44501227 0.0816468 1709827
0.72852159 0.44813484 0.080196291 1775364
0.72921038 0.45001024 0.078715265 1774337
0.73040158 0.45234644 0.076746576 3284233
0.73057818 0.45381495 0.076434739 4861458
0.7074433 0.42059228 0.092995495 920834
0.70963585 0.42217422 0.091668844 1052418
0.71182203 0.42409441 0.090999514 1052163
0.71402836 0.42622674 0.089309618 986369
0.7155664 0.42856002 0.088122621 855300
0.71729726 0.43111655 0.087245941 986626
0.71832532 0.43335617 0.085687824 1052164
0.71960199 0.43586981 0.08434917 986372
0.72062624 0.43881673 0.083223768 986371
0.72129059 0.44088364 0.081730172 1052163
0.72242075 0.44263142 0.08007744 1117955
0.72957802 0.4518891 0.075809702 2166785
0.70320326 0.41738117 0.093403265 920835
0.70487452 0.41821948 0.09211646 920579
0.70685154 0.41998354 0.090980664 1052418
0.70899493 0.4211908 0.090480611 1052417
0.7206198 0.44102681 0.080207601 920838
0.7211411 0.44352686 0.078021735 986371
0.72257435 0.44538194 0.077580199 1183746
0.72359854 0.44789523 0.075332709 1249026
0.72477937 0.45112744 0.074699685 1313537
0.72593653 0.45188275 0.075016163 1705984
0.7013191 0.416006 0.091604471 789507
0.70335877 0.41761193 0.09054175 986371
0.70480871 0.41936332 0.0899854 1380866
0.72119486 0.44558328 0.075919166 986625
0.72144568 0.44743681 0.074022681 1052418
0.72451138 0.45025271 0.072079927 1248514
0.72497439 0.45204467 0.071497187 1313025
0.69783819 0.41392168 0.09112671 789506
0.69971734 0.41498899 0.09012866 854787
0.70081377 0.41774812 0.088373855 1315076
0.72141963 0.45073318 0.070602939 1118209
0.72232211 0.45611501 0.068495229 3479301
0.69445932 0.41247267 0.090303093 789250
0.69648063 0.4134059 0.088880807 855042
0.69738829 0.41612226 0.087622538 1249283
0.69902503 0.41727543 0.085647576 1446147
0.72166884 0.45312226 0.066778556 986114
0.72178119 0.45524484 0.066367537 2297346
0.690786 0.41140342 0.089565381 789251
0.69204032 0.41202116 0.088313967 855042
0.69397151 0.41330066 0.086744636 920580
0.6948328 0.41636097 0.086128488 1380868
0.69723248 0.4169929 0.085482448 1380867
0.68855286 0.41060671 0.087009907 789507
0.69037771 0.41171199 0.086425573 855042
0.69076896 0.41569495 0.085072942 1381124
0.69286323 0.41598439 0.08392866 1315332
0.68588322 0.41033429 0.085873842 920581
0.68791342 0.41155887 0.083856367 855041
0.68939906 0.41582602 0.082581222 1446658
0.69019544 0.41553092 0.080800444 1446915
0.70836723 0.44751164 0.064160585 1381124
0.7105844 0.44952503 0.063112736 1381381
0.71159828 0.45189571 0.062373027 1446919
0.71334457 0.4538064 0.061575219 1381125
0.71457201 0.45625377 0.059851386 1381380
0.71540588 0.45806965 0.058108136 1512710
0.71696061 0.46191436 0.057180688 1578505
0.71770269 0.46349525 0.056050301 1578247
0.719715 0.46734038 0.054333448 3153420
0.72074234 0.46845713 0.053504348 7231025
0.68438506 0.41069591 0.083518252 920579
0.68592745 0.41158554 0.082283236 986114
0.68740344 0.41551849 0.080122486 1512451
0.70357007 0.44309872 0.06549482 1446917
0.70628935 0.44481802 0.064829707 1315588
0.70815998 0.44697964 0.062475622 1315589
0.71554649 0.45897493 0.056365781 1578246
0.71636939 0.46080667 0.054956168 1578249
0.71766055 0.46328747 0.054077953 1512711
0.71833694 0.46574518 0.052642316 1248771
0.71994996 0.46760631 0.051207647 4468764
0.72043419 0.46848655 0.04941114 7099954
0.68195903 0.4104324 0.081509732 986371
0.68344676 0.41129786 0.079907566 1052163
0.68512774 0.41557857 0.078378916 1643522
0.69696027 0.43725917 0.067509815 1381129
0.6989038 0.43854979 0.065800667 1249798
0.70162201 0.44038782 0.065209739 1315588
0.6798346 0.41038349 0.079380795 1052163
0.68066835 0.4114303 0.077017441 1117698
0.68364871 0.41594344 0.076549374 1709314
0.69304335 0.43548316 0.065770343 1381123
0.69565088 0.43582803 0.06524723 1249541
0.67605257 0.4102017 0.077869184 1183748
0.67789674 0.41056472 0.077052914 1117955
0.68089265 0.41601998 0.075006574 1709059
0.69105732 0.43287334 0.065390512 1249540
0.69210488 0.43387431 0.064466596 1249539
0.67540497 0.41178113 0.074990869 1249029
0.67907971 0.4161163 0.071832538 1643779
0.6869387 0.43106887 0.064677432 1249282
0.68886155 0.43202779 0.06444972 1183749
0.670982 0.41107935 0.07399898 1117961
0.67323244 0.41123265 0.07313738 1183497
0.67699957 0.4166972 0.071858987 1775111
0.68442452 0.43060732 0.062538788 1183491
0.6867013 0.43064839 0.06185706 1183747
0.67083001 0.4120943 0.070703052 1249032
0.67276895 0.41264361 0.070335597 1117703
0.67551976 0.41728708 0.067473255 1774854
0.68226731 0.42990851 0.061020248 1183492
0.66864926 0.41206574 0.069695361 2104330
0.66969508 0.41308874 0.067211047 2038022
0.67118615 0.41839886 0.066526107 2431748
0.67306733 0.41814488 0.066162772 1774341
0.67791724 0.43008319 0.059462927 1183747
0.67991114 0.4296394 0.059472129 1249030
0.66615647 0.41126403 0.068895951 4998941
0.66621137 0.41208225 0.066719092 4407062
0.66772544 0.41329569 0.06655702 4274195
0.6697529 0.41867313 0.063750729 3418634
0.676314 0.42949361 0.057285354 1314821
0.67787457 0.42956746 0.056568578 1249028
0.6637671 0.41137868 0.066174299 6971441
0.66455996 0.41124505 0.063973516 6183212
0.66566008 0.41367596 0.063738294 6246939
0.66882908 0.41889608 0.060862109 3813902
0.67421991 0.42987931 0.056343988 1314819
0.67557222 0.42976668 0.054575145 1380356
0.66285235 0.41398662 0.06304194 7496228
0.66652447 0.41893351 0.058925427 5917973
0.67290115 0.42973706 0.053764656 1314821
0.6733501 0.4299953 0.05153878 1446149
0.66970754 0.43053997 0.051992819 1446661
0.67140365 0.4302246 0.050714612 1380613
0.66928363 0.43038747 0.0487414 1446406
0.6660772 0.43161082 0.046934888 1577736
0.66474599 0.43144166 0.045202397 1643787
0.66233838 0.43175554 0.043003932 1577478
0.66038525 0.43169808 0.041230343 1774081
0.65689063 0.43150288 0.040255859 6575655
0.65841591 0.43152696 0.039645217 4273684
0.65542972 0.4328278 0.036527455 6706722
0.6553272 0.43258542 0.034542367 6969888
0.67561305 0.47275013 0.011201486 986898
0.67721587 0.47456831 0.010646187 1052437
0.66448522 0.45812345 0.017643146 789520
0.67008317 0.46910739 0.010391507 1052700
0.67171645 0.47098809 0.010499898 1118228
0.67373538 0.47230238 0.010518108 1118223
0.67859948 0.48009288 0.0050090216 1249546
0.68135369 0.4851585 0.0041124299 8615260
0.65787178 0.45370159 0.017664645 789766
0.65965235 0.45508647 0.016890727 789768
0.66140312 0.45700505 0.017220929 789514
0.66205555 0.45914221 0.013448074 724235
0.66788828 0.46658659 0.0095834211 986898
0.66904658 0.46827528 0.0097141415 986903
0.65655982 0.45263124 0.016247354 855563
0.65860832 0.45421809 0.014297716 855561
0.66050732 0.45703512 0.014722146 724234
0.66114151 0.45959705 0.012618609 658187
0.66205156 0.46107265 0.01176177 723725
0.66339695 0.46543705 0.0084645748 855059
0.66553217 0.4667632 0.0092691518 855570
0.65266049 0.45064163 0.015275497 920843
0.65475464 0.45204127 0.015099868 920849
0.66148442 0.46491253 0.0079573095 723473
0.66332275 0.46767864 0.0082199164 657936
0.64965463 0.44928616 0.015038349 920843
0.645051 0.44799957 0.012769595 1052169
0.64763188 0.4483403 0.013099328 920587
0.64362162 0.4469499 0.012318328 986636
0.64546579 0.44731295 0.011502124 920587
0.64002126 0.44566029 0.010245364 789513
0.64153117 0.44675618 0.010713682 986638
0.63793737 0.44493008 0.0087914988 789513
0.63413328 0.44439727 0.0083325952 855306
0.63543749 0.44467196 0.0076952688 789514
0.63228482 0.44450071 0.0073877946 855308
0.63284731 0.44402397 0.0052474663 789516
0.72150367 0.43522912 0.092887357 1644034
0.72334671 0.43700176 0.091648892 1644035
0.72495311 0.44030917 0.091020316 1644293
0.72586536 0.44182616 0.089846015 1644292
0.72685415 0.44504523 0.088200599 1775619
0.71540636 0.42863694 0.094653293 1512709
0.71731007 0.43071738 0.093821794 1381379
0.71857756 0.43351489 0.093185931 1315331
0.71948838 0.4352237 0.091851503 1249284
0.72216523 0.43759367 0.090017304 1446402
0.72479939 0.43910453 0.088754833 1643782
0.72593671 0.44106677 0.087464154 1644037
0.72699374 0.44403005 0.086969823 1710083
0.72793227 0.44736588 0.0852447 1907203
0.72853446 0.4493621 0.083650202 1972485
0.7293483 0.45128036 0.083220303 2102787
0.72985315 0.45322973 0.081429914 3415558
0.71081018 0.42451715 0.095485494 1643780
0.71249014 0.42637777 0.094335169 1249540
