# .PCD v0.7 - Point Cloud Data file format
VERSION 0.7
FIELDS x y z rgba
SIZE 4 4 4 4
TYPE F F F U
COUNT 1 1 1 1
WIDTH 1137
HEIGHT 1
VIEWPOINT 0 0 0 1 0 0 0
POINTS 1137
DATA ascii
0.70628178 0.31937414 -0.015822828 1315860
0.70763093 0.32041645 -0.016514778 1380367
0.70966053 0.32286298 -0.017706335 2366745
0.67546582 0.29113156 -0.0077851415 855309
0.67790592 0.29327029 -0.010728717 854537
0.67918348 0.29456949 -0.0096037388 1182983
0.68135035 0.296978 -0.011937499 1182993
0.68379116 0.29865313 -0.011946559 1314573
0.68734097 0.30108422 -0.012571275 594444
0.69784904 0.31091291 -0.015635252 1512719
0.70049286 0.3162894 -0.016581357 1840147
0.70415962 0.31986064 -0.018671572 2103567
0.70722473 0.32018244 -0.018540978 1050368
0.67399728 0.29239416 -0.012377203 658180
0.67594874 0.29294431 -0.012582719 788999
0.67805576 0.29595941 -0.013518512 1249293
0.68007749 0.29677629 -0.013227701 1183761
0.69844049 0.31385186 -0.018647313 1512719
0.67265475 0.29312354 -0.015360832 788229
0.67473733 0.29406887 -0.015081167 1118220
0.67620224 0.29574251 -0.016267061 1641996
0.67911482 0.29681981 -0.016737282 1641996
0.66902614 0.29194731 -0.017234266 1052688
0.67089701 0.2925927 -0.016970158 789513
0.6722765 0.29602063 -0.018350124 1511438
0.67449558 0.29585335 -0.019460499 1577228
0.6677624 0.29059449 -0.018639743 1118485
0.67112923 0.29491407 -0.01906383 1511181
0.6963892 0.30215281 0.0051346421 854022
0.70119464 0.30712062 0.0030472279 919813
0.69084454 0.2978417 0.0033089519 855060
0.69199359 0.29947212 0.0037055016 723720
0.69485462 0.30118817 0.00411129 788485
0.69715333 0.30361801 0.0033324957 1051143
0.69878173 0.30571544 0.0017076731 920582
0.70066774 0.30730987 0.00061023235 1248774
0.70279914 0.30895513 0.00063204765 985349
0.70406014 0.31090343 0.00071072578 985606
0.7063145 0.31409681 -0.0010674596 1117190
0.68889809 0.29813272 0.0033003092 723210
0.69155455 0.30020866 0.0011452436 658957
0.69319832 0.30108714 0.00086134672 790028
0.69509989 0.30362266 -0.00022131205 1315081
0.69822693 0.30528307 -0.00022476912 1577479
0.69910538 0.30688745 -0.0012236834 1052939
0.70117509 0.31055778 -0.0024482012 1183757
0.70440817 0.3111335 -0.0020507574 985604
0.70591271 0.31281921 -0.0029591322 1117190
0.70725244 0.31668901 -0.0036320686 1314827
0.70927608 0.31926721 -0.0051121712 1315339
0.6828239 0.29552999 0.00049763918 722692
0.68582898 0.29676151 0.00088721514 1051399
0.68780363 0.29807392 -0.00037747622 789258
0.69003224 0.29879677 0.00011396408 854022
0.69223696 0.30217355 -0.0014669895 1314826
0.69344038 0.3045049 -0.0025314689 1183756
0.69665372 0.30622476 -0.003412962 1117964
0.69884706 0.30912739 -0.0048561692 1184013
0.6996944 0.31014055 -0.0033962727 1446156
0.7015689 0.31394303 -0.0050461292 1249287
0.70371556 0.31424025 -0.0053645968 1380876
0.70595187 0.31729877 -0.005869031 1054228
0.70828128 0.31964836 -0.0068063736 985859
0.70960712 0.32112598 -0.008022666 1642761
0.71189451 0.32261169 -0.0080161095 5192498
0.67878985 0.29306597 -0.001244545 986895
0.68228149 0.2950654 -0.0016590953 789001
0.68473756 0.29672199 -0.0020689964 920329
0.68688476 0.29997483 -0.0030779839 1249040
0.68827999 0.30165601 -0.0039631128 1379855
0.69080895 0.30286369 -0.0041672587 1577227
0.69388336 0.30423707 -0.0048571825 986895
0.69457889 0.30761397 -0.0061466694 1315340
0.69664752 0.30863973 -0.0055397749 1315339
0.69925833 0.31262687 -0.0080289245 1642764
0.70161718 0.3135865 -0.0067174435 1708555
0.70422137 0.31557879 -0.0077731013 1118481
0.70449281 0.31761026 -0.0091738105 1970958
0.70745015 0.31937054 -0.0092790127 1643793
0.70923018 0.32289866 -0.011373401 1906187
0.71137226 0.32327044 -0.011698902 4996146
0.67654306 0.29186624 -0.0025076866 855309
0.67910051 0.29341102 -0.0032986999 855050
0.68069202 0.29586571 -0.0044687986 1248779
0.6823262 0.29797685 -0.0052203536 1707275
0.68485951 0.29970914 -0.0054907799 1576715
0.68757957 0.30130851 -0.006283164 1248788
0.69246483 0.30585334 -0.0073999166 1642764
0.69721693 0.31088957 -0.0094376802 1183753
0.7012558 0.3162269 -0.010777473 1839892
0.70570445 0.31960171 -0.012327909 2037518
0.70986772 0.32254726 -0.012318134 1708815
0.71027517 0.32739034 -0.013521791 5194554
0.67436737 0.29265389 -0.0060972571 854794
0.67670226 0.29355174 -0.0053635836 788484
0.67914355 0.29600674 -0.0071815848 1182986
0.68144709 0.29760182 -0.0070064664 1445644
0.68338037 0.29995459 -0.0098330975 1641482
0.68610561 0.30223969 -0.0091158152 1641992
0.68897963 0.30355406 -0.0091823936 1773318
0.70252359 0.31953058 -0.013632834 1905687
0.70739412 0.32397163 -0.015125751 1644825
0.67377961 0.29344699 -0.0082574487 1314056
0.67642659 0.2942051 -0.0084388256 1379847
0.67750585 0.29782256 -0.0089766979 1707275
0.6804533 0.2986016 -0.0099043846 1379341
0.68217063 0.29999056 -0.010779202 1576972
0.70311505 0.32246947 -0.016644835 2103566
0.70675182 0.32651073 -0.018710494 1512205
0.70940804 0.32717347 -0.018784046 5523776
0.66983789 0.29319736 -0.010234416 722948
0.67181587 0.29322761 -0.010634422 788743
0.67340565 0.29542583 -0.012090445 1707789
0.67622471 0.29641062 -0.012768447 1642249
0.70109129 0.31997469 -0.018802583 2037273
0.70379424 0.32537463 -0.019717515 2037774
0.67056322 0.29356766 -0.013656199 1314057
0.67282987 0.29558158 -0.012722194 1642764
0.66687262 0.29336891 -0.01454097 855561
0.66943002 0.29391348 -0.014980733 594697
0.66586208 0.29362035 -0.017754316 1380108
0.66830385 0.29421258 -0.017810106 1248264
0.67031121 0.2958799 -0.017649889 1707527
0.66194427 0.29166174 -0.019816399 1707534
0.66382486 0.29345188 -0.019941509 1182990
0.69429326 0.30108571 0.011198401 788483
0.69584334 0.30311525 0.009462595 789000
0.69849658 0.30476457 0.0095360279 788485
0.70019776 0.30573994 0.0079052448 854020
0.70233721 0.30800486 0.0080883503 920069
0.70375824 0.30987325 0.007039845 985861
0.70976615 0.31767252 0.0053616762 722693
0.71137935 0.31871703 0.0050508976 3089178
0.68810648 0.29667732 0.0084145069 921102
0.68986154 0.29870242 0.0089179277 788997
0.69223177 0.30102199 0.0081665516 658695
0.69496179 0.30203456 0.0074888468 854540
0.69697571 0.30491108 0.0061240196 1051658
0.69825172 0.30749059 0.0064224601 1577479
0.70127845 0.30789554 0.0056257844 1117189
0.70396292 0.31051484 0.0037586093 985862
0.70530605 0.3126933 0.0039101839 1051398
0.70659268 0.31535256 0.0032715797 921871
0.70902586 0.31742403 0.0026946664 788484
0.7114026 0.31997639 0.0013275146 3813415
0.68453419 0.29551327 0.0069873333 854537
0.68698454 0.29702353 0.0072022676 1051403
0.68934166 0.29935408 0.0059854984 658954
0.69135499 0.30091751 0.0052216053 1183241
0.69318181 0.3027969 0.0044931769 1249296
0.69530851 0.30506548 0.0047245026 1248779
0.69750094 0.30762011 0.0030892491 1118217
0.69941002 0.30967599 0.0023399591 1380615
0.70100838 0.31059864 0.0028187037 1642764
0.70348334 0.31415737 0.001445055 791317
0.7067765 0.31514594 0.0012037754 1117190
0.70808196 0.31801131 -0.0001347065 1052943
0.70987737 0.31863248 -0.00087422132 854277
0.7114588 0.32239479 -0.0020452738 4401179
0.68161631 0.29430887 0.0061172247 921102
0.68334818 0.29591554 0.0047566295 722691
0.68596518 0.29793626 0.0033735633 1182991
0.68847245 0.29956746 0.0036172867 1642511
0.68983054 0.30181411 0.0028856993 1117961
0.69101459 0.30348527 0.0011498332 1643014
0.69405681 0.30526024 0.0017029047 1314569
0.69609261 0.30773771 0.0010119677 1314571
0.69852459 0.30945021 0.00089508295 1315085
0.70038521 0.31206718 -0.00074660778 986895
0.70173478 0.31383693 -0.000192523 1643017
0.70353693 0.31704584 -0.0022763014 1381138
0.70603156 0.31838027 -0.0021741986 1709839
0.7089628 0.32048267 -0.0024600625 1643791
0.71105766 0.32173729 -0.0028785467 4077103
0.67834443 0.29315871 0.0049934983 921102
0.67992866 0.29467237 0.0030993819 722691
0.68175328 0.29602402 0.0022904873 1117707
0.68438113 0.29787323 0.0011150837 1314319
0.68566179 0.30064571 0.0016291738 1314827
0.6887964 0.3017472 0.00055885315 1446159
0.69293416 0.30591863 -0.0013495088 1576968
0.694399 0.30683565 -0.0018452406 855309
0.69656563 0.31077445 -0.0031342506 1708557
0.69867957 0.31253517 -0.0018810034 1708308
0.70159018 0.31543487 -0.0043615103 1184526
0.70263088 0.31702253 -0.0037540197 1774605
0.70519173 0.3170571 -0.0041381121 1906444
0.70899856 0.32279754 -0.0059973001 1774859
0.71161914 0.32407904 -0.006509006 5520943
0.67659175 0.29440477 0.0015954971 854536
0.6786083 0.29454333 0.00059092045 854794
0.68035907 0.29627624 0.00091540813 1379077
0.68278313 0.29752451 -0.0010867715 986895
0.68664539 0.30257714 -0.0028948784 1511435
0.69452429 0.30903715 -0.004543066 1642764
0.69926405 0.3147279 -0.0056841373 1708558
0.70190918 0.3187497 -0.0081840754 1643014
0.70930552 0.32458651 -0.0098943114 1710618
0.6735214 0.29194671 -0.0021394491 855060
0.67470944 0.29356241 -0.0012379885 789000
0.67665434 0.29623762 -0.0024734735 1576971
0.67908168 0.29717958 -0.0027245283 1446154
0.68108809 0.29908127 -0.0035425425 1773319
0.68402541 0.30014724 -0.0039706826 1707526
0.7025007 0.32168865 -0.011196136 1774600
0.70819795 0.32795018 -0.010485172 1512990
0.70998514 0.32743576 -0.011077642 4799798
0.67149466 0.292573 -0.0028641224 854541
0.67379612 0.29449433 -0.0034931302 1444872
0.67634052 0.29654413 -0.0036353469 1707529
0.67842627 0.29654795 -0.0046214461 1707275
0.7030921 0.3246277 -0.014208317 2103565
0.70794725 0.32857519 -0.015943527 1184526
0.67028755 0.29290611 -0.0054582357 920588
0.67152953 0.29406938 -0.0068681836 1183241
0.67448455 0.29624599 -0.007683754 1642249
0.70482898 0.3277359 -0.017431259 2169362
0.66859949 0.2934556 -0.0081759691 1117448
0.67065322 0.2951898 -0.0079776049 1641996
0.66705185 0.29397881 -0.010679841 1116937
0.66975987 0.29507661 -0.01230377 1904397
0.66145641 0.29232845 -0.012804449 1578006
0.66350311 0.29266509 -0.013083339 1774600
0.66553223 0.29419875 -0.013051093 1052937
0.66835463 0.29637232 -0.013988137 1773574
0.67032933 0.29707554 -0.014245391 1707782
0.66222334 0.29352582 -0.014838636 791823
0.66342402 0.29479641 -0.015501261 854019
0.66531223 0.29786167 -0.016086936 1511436
0.65879512 0.29259121 -0.017836392 1314329
0.66075325 0.29401714 -0.017819226 1314832
0.66507816 0.29705426 -0.019855738 1314307
0.65666568 0.29230398 -0.019727468 1840924
0.65894735 0.29447216 -0.019862175 1182987
0.69492692 0.30109477 0.016899109 722949
0.69734901 0.3028335 0.016299129 722949
0.69883418 0.30442727 0.015496492 788741
0.70118654 0.30718577 0.014020324 854277
0.71104735 0.31780124 0.011190176 2103052
0.71272862 0.3185252 0.010991693 5915951
0.68919873 0.29781547 0.016171873 1184013
0.69245505 0.29979014 0.015740156 788484
0.69413722 0.30170572 0.013598561 854793
0.69669664 0.30274618 0.013504565 722949
0.69907749 0.30525255 0.01200372 788740
0.70063192 0.30730563 0.011045277 788486
0.70288682 0.30925035 0.011491537 854278
0.70498407 0.31224859 0.011122108 985864
0.70633447 0.31455195 0.0093984008 1182727
0.70999694 0.31764644 0.0090676546 1248522
0.71269381 0.31950897 0.0075856447 5916206
0.68813312 0.29824105 0.013132632 788742
0.69060242 0.30065703 0.01265651 986126
0.69220853 0.3016668 0.011983573 986380
0.69475365 0.30416363 0.011276305 1052429
0.69671637 0.30679947 0.010859072 1249546
0.69863391 0.30894214 0.010871887 1381128
0.6996603 0.31099057 0.0091513395 1643269
0.70254451 0.31112719 0.0090410709 1249031
0.70522875 0.31217965 0.0084602833 1051398
0.70749319 0.31587452 0.0070086718 985349
0.68221927 0.29523498 0.011426985 854537
0.68468356 0.29609716 0.011727929 854793
0.68710077 0.2984972 0.010302126 986633
0.68954706 0.30002233 0.010636568 1117964
0.69187564 0.3030389 0.0093327165 855060
0.69321108 0.30408114 0.0088273287 1184013
0.69510341 0.30646586 0.0080768466 1445901
0.69702065 0.3093515 0.007316947 1380617
0.69944811 0.31094205 0.0077154636 1380363
0.70120466 0.31353495 0.0055927038 1315085
0.70267051 0.31443021 0.0066378713 1709065
0.70471311 0.31696796 0.00462991 922127
0.70927858 0.3214069 0.003315568 1513742
0.68201709 0.29571313 0.0086385608 722691
0.68359554 0.29658175 0.0084995031 1248776
0.68580937 0.29776144 0.0089829564 1182471
0.68766981 0.30171978 0.0063316822 1708298
0.68991381 0.30275834 0.0069580674 1380363
0.69180977 0.30458936 0.0073267221 1708040
0.69588763 0.3085382 0.0050566792 1249292
0.69785368 0.31182164 0.0036503077 1446413
0.69977987 0.31266275 0.0042915344 1249548
0.70225048 0.31577027 0.0029981136 1315086
0.70332456 0.31727707 0.0026119947 1905421
0.70592314 0.32024473 0.0021185875 1118481
0.70817745 0.32272667 -8.8214874e-05 1313795
0.710729 0.32405439 0.00055396557 4269331
0.71198905 0.32486671 0.00015038252 6966074
0.67610788 0.29263997 0.009144187 921102
0.67841661 0.29467589 0.0082141757 853765
0.67976058 0.29578015 0.0072442889 1051658
0.68136549 0.29827583 0.0060178638 1445643
0.68449247 0.29993635 0.0060144067 1445643
0.68724006 0.30040801 0.0051615238 1183754
0.69307393 0.30666918 0.0040067434 1576972
0.69598687 0.31068268 0.0030135512 1381132
0.69720322 0.31073749 0.002432704 1183494
0.70000482 0.31383234 0.0013779402 726030
0.70073903 0.31571898 0.00097584724 1773845
0.70407391 0.32053843 -0.00040638447 1971213
0.70677876 0.3215839 -0.00048530102 1971473
0.67436647 0.29335815 0.0054792166 920853
0.67661256 0.29421654 0.0055006146 854796
0.67857754 0.29602826 0.0047621727 1314312
0.68113136 0.29809627 0.0033299923 1577222
0.68274915 0.29956836 0.0020993948 1511435
0.7023195 0.3187916 -0.0021647811 1774098
0.70391399 0.32335675 -0.0037236214 2036496
0.7076866 0.32476234 -0.0034207106 1645328
0.67303085 0.29262042 0.0041218996 986125
0.67479384 0.29476267 0.0027276874 1314056
0.67770886 0.29589343 0.0020523071 1577224
0.70778656 0.32742208 -0.006575942 1908500
0.70843661 0.32935256 -0.0089403391 2104596
0.67129433 0.29362896 9.5486641e-05 854540
0.67350316 0.29432333 0.0010075569 920332
0.67458045 0.29661256 -0.0013927221 1642764
0.70245302 0.32385811 -0.0088016987 1971730
0.66749477 0.29222989 -0.001419723 921361
0.66959739 0.29397416 -0.0016322732 985863
0.67193431 0.29575467 -0.0017940998 1576715
0.67430425 0.29651791 -0.0025652647 1707275
0.70310551 0.32679749 -0.011849523 2103572
0.7071901 0.33397359 -0.014231205 1249287
0.66768402 0.29281735 -0.0053809285 986895
0.66783655 0.29423338 -0.0052896142 854534
0.66907108 0.29769212 -0.004770875 1707275
0.70372361 0.3297022 -0.014886379 2300952
0.70689791 0.33263963 -0.015726268 1512990
0.66304243 0.29262018 -0.0068731904 1708807
0.66489315 0.29364076 -0.0058222413 1051912
0.66726083 0.2951538 -0.0059348941 1314571
0.66941524 0.29629427 -0.0062997341 1707275
0.7043494 0.33267587 -0.017909408 2235415
0.70710063 0.33520848 -0.018847167 3810323
0.6630317 0.29450029 -0.0082677603 919556
0.66643202 0.29670435 -0.010270059 1511435
0.65935516 0.29341492 -0.010921896 1644304
0.66208982 0.29466975 -0.011525691 1183240
0.66365445 0.29703748 -0.012001038 1052940
0.66032088 0.29504144 -0.013870656 789510
0.65664184 0.29440057 -0.015194058 1446422
0.65812522 0.29550076 -0.016425431 855563
0.66266334 0.29839116 -0.01724577 1511436
0.65321958 0.29446429 -0.01774925 1250569
0.65631717 0.29432714 -0.0180583 791064
0.65710682 0.29718959 -0.017933965 1313541
0.66007912 0.29903603 -0.018292785 1707526
0.6529274 0.29313028 -0.019244373 2368797
0.69981867 0.30643559 0.022240996 788741
0.70132452 0.30722716 0.02216351 854533
0.70373321 0.31047916 0.020369768 854533
0.6928066 0.29987812 0.022639513 657410
0.69530857 0.30215633 0.021482468 788740
0.69741976 0.30380788 0.01993078 788485
0.69935834 0.30529413 0.018991649 788742
0.70164853 0.30702141 0.01977551 854279
0.70306969 0.30888993 0.018727005 920069
0.70518792 0.31259906 0.01770246 1051397
0.70727301 0.31518447 0.017586827 1116935
0.70860469 0.31778586 0.015834868 722438
0.71126521 0.31895328 0.015774965 3615266
0.68506777 0.2943002 0.021108866 789765
0.6872918 0.29548809 0.02226305 986895
0.68940485 0.29871428 0.019683957 985866
0.69224936 0.299631 0.019865334 788227
0.69465655 0.30142698 0.019170344 722948
0.69687295 0.30553812 0.01789844 855060
0.70006859 0.30664018 0.016792476 854277
0.69964147 0.30896896 0.016278386 986377
0.70249534 0.31110841 0.015254498 920586
0.70473927 0.31231749 0.013783932 1051398
0.70604783 0.31365958 0.015755415 1182471
0.7081638 0.31696647 0.013672292 788485
0.71072799 0.31835091 0.013310552 1840142
0.7122426 0.31944048 0.012831748 5850161
0.68182266 0.29311591 0.019960165 921102
0.68615466 0.29722971 0.018802941 920328
0.6881547 0.29903537 0.016992927 986120
0.68989027 0.30021316 0.017032743 1182994
0.69245017 0.30339786 0.015846431 1052177
0.69430864 0.30488592 0.015540123 1183752
0.69643348 0.30731219 0.014550626 1249036
0.69913054 0.30902791 0.013400435 855309
0.70068181 0.31131101 0.013279259 1117707
0.70197237 0.31518567 0.011892557 1052688
0.70615911 0.31508005 0.011904478 1248518
0.70756489 0.31681073 0.010828078 1051398
0.67857754 0.29193169 0.018811584 921102
0.68008065 0.29463696 0.016093969 789258
0.68308723 0.29544383 0.016131043 789254
0.68486762 0.29752004 0.015208781 855302
0.68715829 0.29844189 0.015633821 1051912
0.68900317 0.30123052 0.013571024 1051665
0.69086039 0.30416304 0.013658345 1576716
0.69373167 0.30554473 0.012603641 1445899
0.69486511 0.30656329 0.013222337 1314571
0.69748652 0.30992445 0.011023521 1315079
0.69941294 0.31249189 0.0099369287 1117957
0.70128322 0.314037 0.010561347 1446413
0.70227778 0.3171823 0.0095698237 1380879
0.70532137 0.32030201 0.0084389448 791823
0.70974088 0.32407397 0.0063770413 1579785
0.71193683 0.3246417 0.0068460107 1578514
0.67626667 0.29328743 0.014461637 921102
0.67915559 0.2948353 0.01472652 854794
0.6823113 0.29581076 0.013550639 789001
0.68587315 0.29978216 0.010796189 1249546
0.6912418 0.3063719 0.0089909434 1511686
0.69711804 0.3113831 0.0078930855 921102
0.69993901 0.31456989 0.0067325234 987144
0.70240939 0.31670582 0.0075495839 1249806
0.70380753 0.31914183 0.006398797 1446416
0.70516431 0.32215726 0.0058143735 1381905
0.70805597 0.32240018 0.0044585466 1382156
0.7114476 0.32765228 0.0031785965 7624002
0.67399323 0.29212195 0.01322341 1182988
0.67734581 0.29473531 0.011914253 789002
0.68014014 0.2958917 0.010939598 986124
0.68178034 0.29843146 0.010576963 1314821
0.68382639 0.29944545 0.011075079 1249542
0.6859175 0.30342883 0.0087711811 1511431
0.68844986 0.3046411 0.0086795092 1511686
0.70065713 0.31785372 0.0033813715 1774351
0.70267582 0.3195793 0.0046812296 1775120
0.70458269 0.32211626 0.0029312372 1577743
0.70655453 0.32413834 0.0021955371 1643025
0.70911509 0.32546598 0.0027133226 2167566
0.71049094 0.32866415 0.00085735321 1052688
0.67218328 0.2927708 0.009580195 921102
0.67438436 0.29378206 0.0099467039 920329
0.67661273 0.29522693 0.0087787509 1117450
0.67746556 0.29766324 0.0092160106 1511180
0.68040335 0.29989126 0.0081266761 1445643
0.68288505 0.30107635 0.0080178976 1511435
0.70326781 0.32184094 0.00089216232 1971224
0.70797861 0.3260963 -0.0019256473 1973010
0.71019882 0.32733017 -0.00063765049 1380623
0.6709348 0.29155582 0.008202672 1052169
0.67243969 0.29417807 0.0069100857 854533
0.67460728 0.29537231 0.0069881678 1314309
0.67679137 0.29688689 0.0055356026 1577225
0.70385927 0.32477987 -0.002120018 2103066
0.70807862 0.32875615 -0.0050808787 1973010
0.66883951 0.29285643 0.0046634078 1051401
0.67090869 0.29490215 0.0039660931 1314313
0.67350453 0.29639041 0.004149437 1445640
0.70881379 0.33135301 -0.0066620111 2298892
0.66523522 0.29152063 0.004042387 921363
0.66786289 0.29415619 0.0040379763 1708557
0.66962254 0.29440933 0.0023579597 788484
0.70305717 0.32964423 -0.0086778402 2235158
0.70516026 0.33070469 -0.008081913 1971986
0.66649663 0.29432657 0.0003631115 1183245
0.66823828 0.29570448 -0.00040996075 1511435
0.67006022 0.296487 -0.00043749809 1445643
0.70371032 0.33190635 -0.01250267 2300951
0.70742893 0.33537602 -0.012686431 2168336
0.66243339 0.29244775 -0.00084811449 725272
0.66546285 0.29414505 -0.001845777 1117190
0.66714585 0.29696649 -0.0044294596 1510929
0.70430183 0.3348453 -0.015514791 2759187
0.66094112 0.2937066 -0.0049906373 1512718
0.66253603 0.29476291 -0.0046328306 1051912
0.66517115 0.29626322 -0.0041720271 1510929
0.70903051 0.34008664 -0.019269347 7692876
0.65945053 0.2956894 -0.0075119734 1118481
0.66149056 0.29522377 -0.0066924691 788485
0.66418207 0.29746854 -0.0085055232 1510929
0.6580981 0.29525727 -0.0091742277 1577228
0.65993035 0.29667783 -0.0099692345 1182727
0.66125298 0.29866076 -0.010274529 1511435
0.65705299 0.29583627 -0.011698306 856592
0.6596905 0.29623899 -0.011433721 792329
0.65332109 0.29522613 -0.012248456 1120039
0.65566599 0.29665762 -0.013917089 1118219
0.65746546 0.29811639 -0.014464378 1249546
0.6602639 0.29986596 -0.014608026 1511435
0.65146166 0.29589742 -0.015975654 1317914
0.65454626 0.29656875 -0.01650691 921100
0.65116954 0.2945635 -0.017470717 3026981
0.68960214 0.29730004 0.028890252 921102
0.6939525 0.30116349 0.027131498 788484
0.69650501 0.30336195 0.026339948 854021
0.69944203 0.30588633 0.028028548 788741
0.70081615 0.30698884 0.025770843 788741
0.70257366 0.30964839 0.026006341 854533
0.70389605 0.31156182 0.02478981 920069
0.70536649 0.31340778 0.023825288 985862
0.69077027 0.29937792 0.026677608 723207
0.69339192 0.30051515 0.024906456 788484
0.69571507 0.30294102 0.023656011 788485
0.69819045 0.30567861 0.023649216 788486
0.70234048 0.31001186 0.023443341 920586
0.70424944 0.31085187 0.022725582 920070
0.70550847 0.31342989 0.021129131 1051399
0.70722497 0.31595927 0.021433115 985351
0.70969844 0.31908247 0.020658016 722694
0.71133667 0.3200804 0.019129813 4140835
0.68387508 0.29362854 0.025081396 921102
0.68508291 0.29610795 0.025075674 920593
0.68760657 0.29787326 0.024145484 789002
0.69017518 0.2990787 0.023733139 722948
0.69089323 0.30251408 0.023695886 1248782
0.69838679 0.30812138 0.020795882 921102
0.69922537 0.30992943 0.02162075 1249294
0.70174825 0.31256258 0.019594312 921102
0.70847332 0.31755757 0.018826604 787978
0.71009123 0.31894615 0.0182482 1247753
0.6800555 0.29293367 0.024520278 855309
0.68258357 0.29494756 0.022682011 1249037
0.68434727 0.295856 0.022871315 986121
0.68669027 0.29816723 0.021548569 1116935
0.68799531 0.30040282 0.021761775 1249294
0.6902715 0.3031722 0.020309448 986646
0.69231623 0.30482209 0.01972878 1380104
0.69435215 0.30653703 0.019250035 986635
0.69637066 0.30839482 0.018522203 1117965
0.69879985 0.31116241 0.018005252 1183756
0.69994581 0.31244332 0.01651454 1643272
0.70170134 0.31465402 0.017265797 1118730
0.7045964 0.31838584 0.015433967 725271
0.67880094 0.29319629 0.020328403 921102
0.68099749 0.295605 0.020576 920327
0.6831944 0.29607415 0.019470572 722948
0.68454361 0.29876971 0.020828485 1576971
0.68740845 0.30145103 0.018197417 1576971
0.6894545 0.30246508 0.018695474 1576971
0.69077682 0.30509001 0.017907619 920853
0.69312674 0.30740118 0.016491532 1380364
0.69598281 0.30935371 0.015912056 1510928
0.69718826 0.31074721 0.016192198 1577482
0.69942594 0.31278244 0.015036047 1249548
0.70145822 0.31619233 0.013476014 1184523
0.70279181 0.31772685 0.013843358 1577997
0.70523548 0.32072508 0.012729168 1250327
0.7089901 0.32432538 0.013075113 1247494
0.71225303 0.32664174 0.0091601014 2102542
0.71216893 0.32821342 0.010225594 5979686
0.67459953 0.29213101 0.019297242 920853
0.67701215 0.29328901 0.019420207 855051
0.67961323 0.2951287 0.018940508 657156
0.68129706 0.29837477 0.016678274 1315087
0.68331635 0.29942298 0.017201245 1249546
0.68536305 0.29975966 0.016922355 1249546
0.68644404 0.30402625 0.015089214 1577223
0.68989468 0.30544454 0.015029132 1642759
0.69165778 0.30721718 0.015519738 1708041
0.69909012 0.31383324 0.012271285 1643272
0.70116138 0.31641859 0.012342095 1512718
0.70274329 0.31847179 0.011010587 725271
0.70373499 0.3193281 0.01089555 1905167
0.70575953 0.32230294 0.01068157 1119508
0.70746124 0.32536584 0.0086574554 1577741
0.71017343 0.32616663 0.008588016 2102799
0.67576218 0.29505143 0.016420841 722948
0.67752707 0.29578751 0.016295433 1051909
0.67927772 0.29732651 0.016155362 1380627
0.68149769 0.30119684 0.014816701 1773319
0.68440831 0.30229706 0.014413357 1577479
0.70298219 0.32091045 0.0074368715 1315602
0.70456314 0.32275057 0.0078738928 1970960
0.7064451 0.32438201 0.0072947145 1381905
0.70936 0.32767147 0.0042315722 3084288
0.71099055 0.32977259 0.0055029988 8150090
0.71095312 0.33133119 0.0039190054 3155230
0.67212927 0.29313332 0.014390767 1051657
0.67405498 0.29380986 0.014889002 789257
0.67565501 0.29823661 0.012218595 1446925
0.67869073 0.29870689 0.011811137 1446168
0.68050468 0.30244803 0.010616958 1707525
0.68242979 0.30317378 0.010275483 1511435
0.68440455 0.303877 0.010017991 1577228
0.70328057 0.32468817 0.0040279627 2037273
0.70736599 0.32687637 0.0045948029 1379343
0.70937926 0.3299185 0.0022630095 1248519
0.66994655 0.29225194 0.013730884 1248781
0.67288482 0.29546174 0.011406481 985864
0.6745382 0.29795909 0.01026094 1577481
0.67689937 0.29964367 0.0096030235 1839111
0.678702 0.30104584 0.010109961 1642505
0.70384598 0.32698387 0.00026369095 2103319
0.70598209 0.32943374 0.002402842 2497818
0.66703403 0.29235274 0.0094576478 855820
0.66935182 0.29385513 0.0097959638 854538
0.67141819 0.29609114 0.0090144277 1839111
0.67433083 0.2971684 0.0085442662 1904904
0.70175803 0.3258664 -0.0002374053 2037522
0.70445943 0.33061194 -0.0018625259 2366744
0.70657486 0.331018 -0.0021631718 1379849
0.70932961 0.33569521 -0.0038379431 9003845
0.66393518 0.29183549 0.0090565681 1250067
0.66586304 0.29173532 0.008849442 986895
0.66764033 0.29508132 0.0062814951 1379852
0.66957861 0.29665315 0.006103456 1511438
0.67202246 0.2976082 0.0065662265 1249546
0.7051056 0.33212781 -0.00647825 1643021
0.66207176 0.29255274 0.0054631233 1118232
0.66400898 0.29385221 0.0051492453 986126
0.66601944 0.29511398 0.0050997138 1116934
0.70300955 0.33181369 -0.0062834024 2235158
0.70573837 0.33584765 -0.0087102652 3610112
0.70782638 0.3369652 -0.0082091689 7360309
0.66177964 0.29121882 0.0039680004 988700
0.66214705 0.29606086 0.0017163157 1906186
0.66454369 0.29587239 0.0013291836 1182983
0.66779077 0.29715914 0.0014327765 1511435
0.70635712 0.3380751 -0.012524188 6044454
0.65941942 0.292597 -0.0004658699 1054495
0.66195703 0.29517108 0.00012147427 1117192
0.66340101 0.2966769 -0.00040280819 1643015
0.70436507 0.33631527 -0.01384902 3085569
0.65960026 0.29569399 -0.0027778745 1577230
0.66290188 0.2969355 -0.0023017526 1577479
0.65877604 0.29658097 -0.0047343373 854021
0.66051447 0.29812294 -0.0058979392 1577479
0.70350134 0.34185648 -0.019594193 4006672
0.65662038 0.29637903 -0.0073549151 1183503
0.65700901 0.29862982 -0.0081468225 1839374
0.65329307 0.29671982 -0.0084991455 2102282
0.65487874 0.29693675 -0.010919869 1183763
0.65157342 0.29722059 -0.011639893 1972246
0.65338862 0.29900035 -0.012646079 1445126
0.65606928 0.29981256 -0.012396276 1708039
0.64952338 0.29662901 -0.014938653 2302751
0.65294671 0.29891425 -0.015920997 985094
0.65303683 0.30024526 -0.016450584 1773582
0.64994836 0.29751271 -0.018820167 2760736
0.65017354 0.29975212 -0.017638326 1707787
0.70202959 0.30907482 0.031647682 854532
0.69235981 0.30136096 0.031690955 788485
0.69540411 0.30438936 0.031189919 854793
0.69849277 0.30644697 0.030799448 788484
0.70042109 0.30837429 0.031690776 788741
0.70313704 0.31060314 0.028986216 854532
0.70495981 0.31297284 0.029423118 920326
0.70640028 0.31493312 0.028268754 1051655
0.68514538 0.29554731 0.031753004 789516
0.68730712 0.29608038 0.032232821 723723
0.68902898 0.29923546 0.030489326 723464
0.6910488 0.30056554 0.03053385 789000
0.69323683 0.3025685 0.029761195 986378
0.69618094 0.30356771 0.028727949 854020
0.69785285 0.30527762 0.027965784 788484
0.69982255 0.30916193 0.027412772 920843
0.7033906 0.31341773 0.026655078 1248777
0.70559472 0.31440973 0.026816368 986379
0.70776927 0.31706387 0.025595069 920071
0.70933509 0.31894487 0.024584055 591108
0.71124041 0.32193002 0.024026334 4534053
0.68508571 0.29708207 0.029104352 788744
0.68776309 0.29808122 0.02879107 657158
0.68963045 0.3011598 0.028181553 1380360
0.6911025 0.30355167 0.028731167 1643021
0.6925661 0.30527449 0.026587009 1117973
0.69544518 0.30777502 0.025109291 1380365
0.69679546 0.30951965 0.025279343 1315342
0.69998777 0.3113482 0.024409771 921102
0.70153368 0.31352398 0.024044752 1380615
0.70382297 0.31617957 0.023649156 921102
0.70519638 0.31898034 0.022204041 1052688
0.7108295 0.32099634 0.022053599 3021844
0.67918324 0.29510838 0.027162731 921102
0.68204916 0.29574996 0.02737695 789003
0.68417221 0.29792196 0.026295066 1314310
0.68653834 0.29860541 0.026367724 1313802
0.69037831 0.30360067 0.024765611 1314313
0.69275105 0.30536199 0.024081588 1118224
0.6942941 0.30752206 0.023198247 1118223
0.69678795 0.30961519 0.022254229 1511434
0.69836813 0.31245828 0.022147059 1577738
0.70215201 0.31452891 0.021847785 921351
0.70263076 0.31648088 0.019470692 921862
0.70394456 0.3178454 0.020611882 1380876
0.70522356 0.32161683 0.019204319 1052688
0.67668641 0.2926783 0.024407625 920864
0.67814934 0.29465759 0.02556628 986381
0.68116629 0.29615435 0.024992466 1183240
0.68443954 0.3002153 0.022348106 1576971
0.68853152 0.30224335 0.023344338 1577222
0.6876086 0.30480433 0.021239638 1445894
0.69062316 0.30672389 0.021093845 1445389
0.69313908 0.30833432 0.021912098 1773581
0.69396055 0.3095316 0.019131601 1249546
0.69805264 0.31155968 0.020127773 1381132
0.69919407 0.31506234 0.018808305 1577740
0.7009418 0.31616938 0.018891513 1577992
0.70278007 0.3191182 0.016399562 921862
0.70458567 0.32108226 0.016638637 1511951
0.70577109 0.32363811 0.01680553 1184274
0.70881736 0.32570165 0.014616489 1181701
0.71039855 0.3278254 0.015803814 4662545
0.71300733 0.33064276 0.013716698 5914887
0.67409545 0.29335779 0.023909569 854546
0.67616487 0.29513621 0.023547232 1051399
0.67907846 0.29584968 0.022304475 788483
0.6802215 0.3006179 0.020886779 1838610
0.68309975 0.30166054 0.020427525 1641998
0.68575191 0.30414796 0.021559298 1707275
0.69122732 0.30930325 0.017819285 1249547
0.6941399 0.31038058 0.017349064 1577229
0.69859076 0.31456709 0.017165303 1446925
0.70165169 0.31935018 0.015874624 1643785
0.70606041 0.32427692 0.014088631 1774864
0.71004367 0.32863384 0.01128912 2824461
0.71171403 0.32954574 0.011960626 4863017
0.67346632 0.29328167 0.020419896 855057
0.67591989 0.29538262 0.020612717 986373
0.67847353 0.29647437 0.020089507 1315334
0.68572152 0.30576199 0.017188787 1445894
0.68865883 0.30682802 0.016760647 1577476
0.70204175 0.32158807 0.013209701 1775890
0.70628744 0.32759514 0.010598779 1447698
0.70883095 0.32757986 0.010231256 2233873
0.66967261 0.29232317 0.019981444 1118481
0.67180324 0.29418516 0.018395424 788483
0.67401433 0.2957651 0.017083108 1249032
0.67814136 0.30046844 0.015839398 1838599
0.68019098 0.30223194 0.016516268 2100745
0.68312824 0.30329797 0.016088128 1707788
0.70263445 0.32317227 0.0086436868 1644304
0.7026332 0.32452706 0.01019758 1841683
0.71124524 0.33266521 0.0054140091 6178859
0.6682421 0.29361665 0.015454829 1052688
0.67045522 0.2946437 0.016215205 1248521
0.67562318 0.29906482 0.015673041 1839111
0.70319855 0.32682294 0.0064334273 2103572
0.7048794 0.33069986 0.0041038394 2168852
0.70798117 0.33193988 0.0045185089 1510148
0.66703349 0.29332012 0.014716506 986637
0.66910857 0.29464245 0.012958944 788483
0.67061007 0.29790759 0.012554824 1446666
0.67319286 0.29875684 0.012078404 1512202
0.675686 0.3007369 0.011322796 1773318
0.70381737 0.32905024 0.0026195645 2235158
0.70857954 0.33562505 0.0022972822 6111245
0.66508025 0.29429317 0.011462569 1118219
0.66849697 0.2956576 0.011507154 1643281
0.67107415 0.29748911 0.010543346 1643271
0.70711863 0.33612633 -0.0027807951 4134913
0.70928204 0.33786458 -0.0014434457 9662541
0.66203117 0.29260164 0.010082662 791064
0.66378427 0.29511428 0.007999897 854020
0.66613144 0.29659498 0.0081782937 1445897
0.66804469 0.29787698 0.0079631209 1577488
0.66007507 0.29258353 0.0056920052 988700
0.66292113 0.2957263 0.0067663193 1511435
0.65802503 0.29268277 0.0059705377 988700
0.66080528 0.29667136 0.0035607815 1380103
0.66347015 0.29786226 0.0042783618 1643268
0.65668976 0.29401135 0.0013973713 988453
0.65942478 0.29653278 0.0010613203 854277
0.6604948 0.29834139 0.0003220439 1709060
0.65366817 0.29409173 0.0017655492 1120021
0.65797251 0.29766718 -0.0010551214 1380359
0.65175545 0.29483157 -0.0019119382 2236962
0.6547941 0.29467106 -0.0022521019 857114
0.65662098 0.29853839 -0.0035392046 1511690
0.65344024 0.29715097 -0.0060497522 1643803
0.65455079 0.29859775 -0.005441606 1577484
0.64932656 0.29614043 -0.006324172 3421226
0.65142596 0.29601869 -0.0065187216 1053744
0.65277457 0.29902124 -0.009006381 919812
0.64967418 0.29784954 -0.01011765 2498587
0.65275347 0.30010974 -0.010428369 1904908
0.64758503 0.29736054 -0.013901711 3355443
0.6498692 0.30055171 -0.013833165 1445643
0.65033054 0.3006382 -0.01546973 1181702
0.6456303 0.29990107 -0.017488778 3616806
0.64851522 0.30245739 -0.018617809 1575687
0.6966933 0.30584928 0.037608385 788740
0.69913507 0.30787486 0.03683567 788740
0.70153755 0.30932689 0.036408365 854277
0.6912241 0.30180308 0.03640449 722692
0.69384634 0.30298173 0.036489129 788229
0.69607818 0.30546838 0.035526752 789001
0.69863117 0.307078 0.034775555 919812
0.70091295 0.30895317 0.033937514 854276
0.70300293 0.31124055 0.034036636 854277
0.70404363 0.31343478 0.032902122 1182726
0.70625657 0.3158524 0.031813264 1051399
0.68745553 0.29821697 0.034681916 723212
0.68940836 0.30005622 0.035217702 722692
0.69105512 0.30155927 0.034176886 723730
0.69346058 0.30452883 0.033003747 855051
0.69543505 0.30496475 0.033349276 1051401
0.69728869 0.30792594 0.031863332 854793
0.69913507 0.31082726 0.032230377 1446154
0.7011289 0.31251979 0.030361772 921102
0.70259976 0.31479096 0.030522823 986642
0.70497215 0.31635731 0.029905796 1052435
0.70794451 0.31855944 0.029761434 657157
0.70939457 0.3205657 0.028554201 919301
0.71136719 0.32235903 0.0290066 5522490
0.68248284 0.29760462 0.033808708 854537
0.68525046 0.29823726 0.033225238 920587
0.68789828 0.30007327 0.032498777 723981
0.69112271 0.30433363 0.03113085 1249292
0.69361472 0.3068414 0.030368328 1445902
0.69620073 0.30827227 0.030452609 1314570
0.69774544 0.3107374 0.028479695 1117963
0.70001388 0.31262973 0.027653992 1315083
0.7019248 0.31484541 0.028414369 1511692
0.70356524 0.31812185 0.026265204 1905167
0.70498443 0.31905085 0.026811063 856842
0.71077859 0.32263923 0.025975525 4008737
0.67929274 0.29577827 0.032396197 855060
0.68172544 0.29726118 0.031211197 986122
0.68350542 0.29930806 0.03074789 1182728
0.68583542 0.30121747 0.029176414 1511692
0.6883136 0.30300802 0.029866755 1445901
0.69257462 0.30779549 0.02828896 1446420
0.69439191 0.30961496 0.026726842 1445905
0.69660634 0.31114054 0.026935697 1643021
0.69747269 0.31282264 0.027829647 1512718
0.70005739 0.31616667 0.024588227 1512712
0.7043401 0.32161295 0.023293197 1970960
0.67706865 0.29459032 0.031241894 921102
0.67700791 0.29587281 0.028704882 854794
0.68051112 0.2972014 0.028371692 985864
0.68303823 0.29919907 0.0277794 1708554
0.6918087 0.3069734 0.025780976 1773581
0.69343519 0.30937141 0.025229812 1446420
0.69746995 0.31391323 0.023639798 1577993
0.69801068 0.31583002 0.024867177 1512711
0.7005955 0.31917417 0.021625876 1644304
0.70316917 0.3200258 0.022008538 1709069
0.70444137 0.32302272 0.020754635 922889
0.70646596 0.32534885 0.019622982 1709071
0.6747092 0.29516578 0.027009249 1052174
0.67703068 0.29569939 0.02650243 1117963
0.67823231 0.29738423 0.02773571 1117449
0.68540782 0.30554587 0.023088217 1445642
0.68733323 0.30627161 0.022746682 1445642
0.68923914 0.30690545 0.022511005 1577228
0.69853473 0.31734496 0.020322919 1512712
0.70058149 0.31768167 0.020043969 1644304
0.70391136 0.32329676 0.019036412 1841168
0.70505488 0.32558361 0.017985404 1382671
0.70751935 0.32768366 0.016832411 1183237
0.71010387 0.3292008 0.017416716 5253660
0.71124953 0.33207601 0.015490353 4010529
0.67150819 0.29348063 0.025323391 1380624
0.67321712 0.29462081 0.025251925 920329
0.67891467 0.30165309 0.022586346 1773324
0.68170667 0.30338383 0.02289772 1707531
0.68363196 0.30410948 0.022556365 1576459
0.70111954 0.32068902 0.017081559 1710097
0.7021091 0.32301211 0.014741898 1775890
0.70410115 0.32477194 0.01606667 1841683
0.70888329 0.3301751 0.013454914 1644572
0.711151 0.33101845 0.013419867 5522234
0.71150142 0.33462229 0.012453496 8546119
0.6697849 0.29413861 0.022901416 789777
0.67187971 0.29465851 0.021750629 1051912
0.67609942 0.30058789 0.022943079 1773068
0.70264721 0.3260195 0.011779487 1841683
0.7046392 0.32777929 0.0131042 2300176
0.70669132 0.32956144 0.012852311 1448199
0.70836407 0.33269319 0.011339664 4597778
0.66568702 0.29245365 0.020453215 1184274
0.66835546 0.29411513 0.021532834 1052430
0.67002934 0.29473498 0.020060778 1248520
0.67400146 0.30046105 0.017912209 1839111
0.6760937 0.30219066 0.01861459 1773581
0.70318532 0.329027 0.0088170767 2300176
0.70528007 0.33069581 0.010176182 2168846
0.70798689 0.3340407 0.0068634152 3809805
0.71002829 0.33577809 0.008272171 7756087
0.66685128 0.29509345 0.018065989 1116678
0.66904432 0.29564321 0.017549932 1970446
0.70382607 0.33194339 0.0058889985 2234639
0.70587987 0.33302629 0.006401062 2429700
0.70857418 0.33702564 0.0039849281 6439221
0.71068895 0.33810896 0.0044612885 9992547
0.66365683 0.29437351 0.016029954 1117709
0.66559041 0.29497206 0.014161646 854020
0.66701353 0.2978847 0.01368928 1708811
0.66954541 0.29992309 0.013700247 1577479
0.67138231 0.30135983 0.014196396 1708295
0.66240072 0.29453325 0.012347043 1184025
0.66396964 0.29595333 0.013551474 1511435
0.66786969 0.30014873 0.010281324 1184004
0.66052866 0.29461801 0.011763215 986641
0.66233456 0.29698619 0.010305166 1380101
0.66474271 0.29848808 0.010284901 1512197
0.65656328 0.2954039 0.0091055632 988435
0.65856028 0.29533798 0.0076172352 855567
0.66146421 0.29599163 0.0085265636 1379846
0.66105533 0.29919928 0.0068882108 1643271
0.65527081 0.29410839 0.0077918768 529935
0.65693063 0.29811144 0.0055679679 2103312
0.65981781 0.29778948 0.005690217 1445893
0.65396029 0.29542571 0.0032606125 988435
0.65691662 0.29661891 0.0039861202 2234897
0.65731812 0.29891506 0.0024609566 1445894
0.65191025 0.29552487 0.003539145 3225397
0.65495062 0.29813868 0.00078690052 1577483
0.65672982 0.29771626 0.00046175718 919812
0.64990485 0.29552931 -0.0009354949 5922140
0.6531986 0.29952365 -0.00078874826 1774859
0.65499675 0.29925388 -0.001639545 1511688
0.6518594 0.30029145 -0.0034862757 1051141
0.6524272 0.29976711 -0.0049721003 1445896
0.64923251 0.29962635 -0.0070014596 1642765
0.64570922 0.29824495 -0.0082777143 6250325
0.6495195 0.30079785 -0.0081061721 1314055
0.64980257 0.30059218 -0.009934485 1051143
0.64588052 0.29872519 -0.012177646 3421736
0.64756978 0.3000688 -0.012214959 3351574
0.64719594 0.30298942 -0.014426827 1312776
0.64345157 0.30003414 -0.01658982 3487508
0.64523947 0.30346721 -0.015173137 2101504
0.6398344 0.30213863 -0.018543422 5790263
0.64411807 0.3054285 -0.019583464 2298121
0.69448078 0.30480373 0.042913258 722948
0.69698358 0.30682975 0.042104721 722948
0.6993829 0.30855685 0.041395903 788742
0.70079935 0.31008118 0.040615082 788741
0.70238793 0.31197405 0.039712727 920070
0.69002122 0.30128169 0.041970789 789004
0.69151497 0.30317354 0.040766716 722948
0.69413352 0.30423743 0.040703773 722949
0.69567949 0.30677888 0.03966701 1182987
0.69873399 0.30838943 0.038815856 788740
0.70107007 0.309944 0.038276672 854278
0.70323145 0.31266767 0.038153172 920070
0.70488924 0.3147057 0.036554813 985863
0.70649445 0.31734884 0.03671658 1182985
0.70814097 0.31951714 0.035496891 591107
0.70961148 0.32136315 0.034532428 1181955
0.68893981 0.3013629 0.038818717 789002
0.69090122 0.3024565 0.039149761 789255
0.69301093 0.30522111 0.038075745 1051657
0.69536078 0.30755901 0.036706567 1445899
0.69617593 0.30966061 0.036631942 1380111
0.69941103 0.31172696 0.03611815 1511951
0.70066857 0.31398797 0.035191715 1380877
0.70284009 0.31565958 0.034046292 1380624
0.70678449 0.31730345 0.034272432 1117193
0.70820558 0.31917194 0.033223927 525316
0.70987606 0.32177603 0.031630754 1707531
0.71083009 0.32422632 0.03119117 5984071
0.68290973 0.29845941 0.037417233 788228
0.68558943 0.29970726 0.037367702 788745
0.68723059 0.30182979 0.036406815 1314573
0.68911064 0.30384904 0.035884976 1380111
0.69127607 0.30616516 0.034844458 1183243
0.69342339 0.30706868 0.034697771 1511435
0.69594693 0.30984783 0.033444047 1380362
0.69744146 0.31200057 0.033609033 1183758
0.70013368 0.31374606 0.032917619 1380624
0.70343399 0.31811702 0.031499028 1314832
0.70550001 0.32091725 0.032543123 2103825
0.67933679 0.29690552 0.036124051 722693
0.68124241 0.29873675 0.035566688 920844
0.68424082 0.30071601 0.034680486 1183761
0.68636715 0.30131665 0.033771038 659221
0.68807244 0.3048619 0.032528698 1576971
0.68983269 0.30594784 0.032469869 1511435
0.69502157 0.30985808 0.031094015 1249040
0.6966725 0.31192446 0.03162998 1315339
0.69749069 0.31426913 0.029277742 1446925
0.69948268 0.31602898 0.030602455 1512718
0.70264363 0.32012382 0.028354526 1905420
0.70419979 0.32135221 0.029138267 1512207
0.70760518 0.32576925 0.025702357 2233094
0.70930451 0.32793972 0.026951969 2298375
0.67597705 0.29584527 0.033171535 722951
0.67806327 0.29686522 0.033528566 1051403
0.68090904 0.29815432 0.033273458 1183498
0.68169481 0.30084378 0.032222986 1183500
0.68477005 0.30311531 0.031590283 1511438
0.68681622 0.30428949 0.031565785 1511182
0.69542599 0.31248587 0.028108478 1512718
0.69900799 0.31736434 0.026239693 1512718
0.69995213 0.31896704 0.02766186 1512718
0.70327008 0.32265037 0.025747001 1184786
0.70486462 0.32399297 0.025408149 2103055
0.70842946 0.32923776 0.022814453 1838336
0.7103548 0.32996345 0.022472918 6109727
0.6723094 0.29429039 0.031576753 1118994
0.67466784 0.29563171 0.031959236 1051915
0.67721099 0.29646069 0.030528486 722693
0.67895877 0.29975098 0.030521989 1708296
0.68151474 0.30010682 0.030226827 1577228
0.70059413 0.32052875 0.023179829 1578511
0.70053953 0.32195193 0.024783373 1512213
0.70358819 0.3251245 0.022612214 1119503
0.70533037 0.32705683 0.021937907 1774863
0.70672572 0.3301408 0.020545661 1972504
0.70982838 0.33066803 0.018923819 5517339
0.66948152 0.29345432 0.031704724 1578511
0.67283314 0.29619628 0.028506279 1118221
0.67591953 0.29742396 0.027914762 1446925
0.67639971 0.30132794 0.028083324 1904903
0.7041409 0.32694277 0.019660115 1447698
0.70670176 0.32974195 0.019123554 1380879
0.70774341 0.33249795 0.017484426 2690821
0.71029836 0.33335465 0.017135561 5717282
0.66981018 0.29504943 0.027309895 1052173
0.67226136 0.29523885 0.027097821 1248778
0.67479265 0.30162281 0.024642587 1707785
0.67772996 0.30268896 0.024214506 1707788
0.67965531 0.3034147 0.023873031 1773068
0.70464504 0.32988033 0.015449107 2235155
0.70694381 0.33137769 0.015451968 1578513
0.70938611 0.3342163 0.012754142 7556923
0.71042347 0.33587709 0.014196515 9202256
0.66783822 0.29327697 0.02595681 1970446
0.66670835 0.29595155 0.024480224 723203
0.70522547 0.33211896 0.011779726 1709065
0.70728612 0.33394808 0.013082743 3609600
0.66434288 0.29428023 0.022565246 726034
0.66631186 0.29522991 0.022079647 1052168
0.67106867 0.30114374 0.020095706 1643018
0.67290568 0.3025806 0.020591855 1577228
0.66253322 0.29538924 0.020771146 1445641
0.66523176 0.29540867 0.01901257 854021
0.66737521 0.29905063 0.019919276 1577479
0.66923177 0.29970691 0.019599617 1643271
0.66177392 0.29524386 0.018142939 1051920
0.66542137 0.29991585 0.015823364 1708295
0.6683073 0.30102745 0.015378058 1643271
0.66051394 0.29643655 0.015096009 1314573
0.66290522 0.29821038 0.015773356 1905419
0.66468275 0.29813126 0.014469862 1577474
0.65907991 0.29680258 0.013001204 1511438
0.6618225 0.29939282 0.0126791 1709060
0.65480542 0.29683715 0.010879219 791321
0.65742427 0.29733431 0.010711849 1249296
0.65885472 0.29994085 0.0087367296 1708807
0.65451336 0.29550323 0.0093841553 527884
0.65635777 0.29797137 0.0083665848 985350
0.65015233 0.29695809 0.0053128004 3160628
0.65440118 0.29869771 0.0054253936 1314056
0.65587163 0.30035102 0.0047665238 1708808
0.64986026 0.2956242 0.0038177967 5132624
0.65260851 0.29807597 0.0023840666 1840143
0.64800084 0.29629549 9.0539455e-05 7104605
0.6507836 0.30042368 0.0002758503 1445125
0.65285456 0.30092162 0.00074011087 1774601
0.65021068 0.30047846 -0.0024280548 1445642
0.64557195 0.29760432 -0.0043215752 7170398
0.64823282 0.30177075 -0.0053935051 1905157
0.64683223 0.30263627 -0.0072849989 1377799
0.64609599 0.30287546 -0.0097641945 1970693
0.64377308 0.30370981 -0.013056397 3746582
0.64169377 0.30146724 -0.014816225 5921870
0.64395249 0.30598184 -0.013981581 1640709
0.64213645 0.30479538 -0.017517686 4010279
0.6436516 0.30698627 -0.017701805 1640452
0.69296497 0.30218154 0.049528837 855309
0.69503903 0.30274832 0.050069213 789520
0.69578528 0.30497843 0.048502266 788484
0.69734979 0.30643535 0.047973454 723204
0.70174986 0.31057602 0.048402309 788997
0.70305759 0.31274158 0.047023833 920326
0.69331646 0.30362907 0.048817396 788485
0.69437337 0.30643427 0.046388865 1839368
0.69767189 0.30767566 0.046509624 1314054
0.70046544 0.30966967 0.046057343 788997
0.70186257 0.31110233 0.045382321 788996
0.70340168 0.31301761 0.044396043 920070
0.70486677 0.31580359 0.042734265 1051657
0.70906609 0.32047021 0.042826712 591105
0.68636543 0.29864115 0.045910656 725263
0.68750739 0.30064613 0.046253026 920333
0.69040227 0.3021819 0.045487642 789001
0.6918875 0.30399606 0.044743896 985865
0.69454628 0.30622029 0.04472214 788745
0.69672549 0.30876756 0.043787122 789257
0.69772929 0.30953941 0.042828739 1380104
0.70154238 0.31153372 0.042531729 788741
0.70363164 0.31320092 0.041572273 854789
0.70406139 0.3163121 0.040665388 1511434
0.70681024 0.31828696 0.040392935 920326
0.70914942 0.32150081 0.039482951 1050114
0.71040308 0.32334495 0.038288236 4142127
0.68226469 0.29798901 0.044216931 722948
0.68413067 0.29872668 0.045103788 723725
0.686553 0.30062565 0.043981314 920074
0.6887058 0.30232215 0.043200731 854798
0.6904937 0.30506313 0.042031646 1314572
0.69260538 0.30711684 0.041301548 1642505
0.69494539 0.30889755 0.041495025 1314829
0.69636154 0.31134316 0.040048599 855558
0.69858873 0.31284502 0.039112806 1446156
0.70055705 0.31533235 0.039426267 1512204
0.70390832 0.31895846 0.037357569 1643279
0.70700991 0.32103544 0.037222624 986888
0.7093901 0.32147789 0.036954761 1050628
0.71063852 0.32426205 0.03506285 5524294
0.68330896 0.29921556 0.041313291 658189
0.6853931 0.30076402 0.041337013 1379081
0.68727058 0.30248708 0.040576637 1313804
0.68956834 0.30572689 0.039083004 1445902
0.69198394 0.30693883 0.039654911 1183245
0.69616556 0.31181058 0.038086772 1511442
0.69756973 0.31374738 0.036590457 921100
0.69994295 0.31568497 0.036469281 1446415
0.70207393 0.31738341 0.036108613 1380622
0.70373386 0.32034308 0.0345577 1118989
0.70553333 0.32166457 0.034568608 1775631
0.70781016 0.32477957 0.035136878 2365197
0.7098695 0.32787937 0.032674432 3350807
0.67706954 0.29682255 0.040647626 788483
0.67950213 0.2975322 0.039952874 723467
0.68177712 0.29887736 0.040456176 396314
0.68406248 0.30182987 0.038238168 986639
0.68535388 0.3039844 0.0374614 1642249
0.68786335 0.30558297 0.037685156 1707786
0.69089001 0.30702013 0.036807895 1904903
0.69588232 0.31210423 0.034760952 921102
0.69656718 0.31472486 0.034703553 1314834
0.69861388 0.31506148 0.034424663 1314834
0.69945407 0.31809527 0.03295821 1577488
0.70359409 0.32028341 0.03277874 2037004
0.70364934 0.3223471 0.030799448 1052688
0.70640761 0.3244333 0.03098774 1971725
0.70818555 0.3258467 0.031452775 2364679
0.6764456 0.29600185 0.038592279 722949
0.67743826 0.3003099 0.036841989 1708808
0.67971301 0.30059493 0.036812007 1249294
0.68205762 0.30210605 0.03681159 1643017
0.6854282 0.30355954 0.03611362 1773068
0.69995773 0.32106796 0.030006707 1709074
0.70201147 0.32215089 0.03051877 1905936
0.70430857 0.32500088 0.029159009 1250319
0.70737922 0.327214 0.027293384 2166789
0.70896041 0.32933772 0.028480768 3154196
0.6745441 0.2971139 0.035118401 1051657
0.67655313 0.29862756 0.03567332 1380618
0.67855495 0.30093583 0.034092009 1511945
0.68100202 0.30283517 0.033163428 1643021
0.68280524 0.30356008 0.03289336 1577228
