# .PCD v0.7 - Point Cloud Data file format
VERSION 0.7
FIELDS x y z rgba
SIZE 4 4 4 4
TYPE F F F U
COUNT 1 1 1 1
WIDTH 1170
HEIGHT 1
VIEWPOINT 0 0 0 1 0 0 0
POINTS 1170
DATA ascii
0.7261197 0.3756097 0.080751009 329222
0.68930274 0.33628935 0.081210144 329476
0.69080275 0.33806896 0.080893107 591879
0.69320631 0.34059092 0.080891237 986373
0.69554371 0.3426221 0.080764286 1183749
0.69791389 0.34380662 0.080848068 1183749
0.7240299 0.37381133 0.079421274 460293
0.72537339 0.37699461 0.079998717 525574
0.72668296 0.37873411 0.079892457 525318
0.68593544 0.33597246 0.079417184 329478
0.68756127 0.33768523 0.079323135 657669
0.68982536 0.3403703 0.079407468 1183494
0.69171703 0.34151167 0.078989476 1117701
0.69425422 0.34269086 0.078588426 1052166
0.72721636 0.38184139 0.076623917 721425
0.68107158 0.3363893 0.077612892 395271
0.6837489 0.33681044 0.076687068 526341
0.68587917 0.3385483 0.07715413 854534
0.68810624 0.34071925 0.077132948 1249029
0.68024164 0.33718055 0.075262778 526340
0.68145746 0.33745575 0.074464552 460548
0.68388969 0.33992419 0.075017057 1249028
0.67839324 0.33736631 0.073236868 460553
0.68057394 0.33995706 0.073766023 1183491
0.68279564 0.34034029 0.073365755 1380614
0.67525131 0.33720303 0.071158648 789260
0.6769557 0.33898056 0.071536355 789000
0.678693 0.34023097 0.071052566 1183492
0.67273295 0.33871427 0.069131918 1578253
0.67526978 0.3399339 0.069630697 920324
0.66982055 0.33815643 0.067085959 3157269
0.67077291 0.33925563 0.067267619 2104591
0.67298579 0.34150296 0.067929626 1117955
0.6675241 0.33944035 0.065719277 2892804
0.66932154 0.34045994 0.064987071 1315078
0.67107999 0.34212416 0.06543757 1052162
0.66410851 0.33720726 0.064076647 394757
0.66564488 0.33970043 0.064013682 2038278
0.66813082 0.34301293 0.063217454 1183492
0.66546518 0.34170765 0.062654153 854528
0.66584665 0.34390727 0.06177789 1183236
0.6610409 0.34194601 0.058791205 459802
0.66243649 0.34484085 0.058646251 1314058
0.66408765 0.34454626 0.060127035 1511173
0.65827399 0.34227508 0.058431093 787986
0.66065383 0.34417081 0.058502275 1643271
0.65310758 0.34028447 0.055398189 2365696
0.65492594 0.34138775 0.056653332 1639436
0.65643024 0.34398413 0.056366548 1049612
0.65825063 0.3457959 0.055590697 3747337
0.65411109 0.3437489 0.053881366 2296845
0.65458697 0.34534866 0.054657068 2232331
0.65197647 0.34476346 0.051938567 4206848
0.62914044 0.39127281 0.010628045 6178828
0.63088554 0.39326632 0.010570266 6375963
0.63283825 0.39529386 0.009931392 6112019
0.63477874 0.39836159 0.010415353 5914380
0.63648289 0.3996605 0.010384793 4665088
0.62908423 0.39486203 0.0096869459 5718278
0.63058686 0.39641285 0.0092061255 5915661
0.63252962 0.39899135 0.010075771 5914113
0.63409477 0.40081832 0.01030893 5718275
0.62902057 0.39867058 0.0076897992 6178836
0.63031411 0.40069705 0.0066012731 6179337
0.63202775 0.4019697 0.0059543587 5851659
0.63054723 0.40459257 0.0058626542 6048269
0.7106809 0.34485811 0.094517045 263689
0.71305901 0.34702265 0.094254471 263686
0.71484965 0.34951308 0.094375424 263687
0.71683306 0.3518939 0.09424267 329225
0.70596588 0.34217799 0.093557037 329474
0.70832682 0.34354758 0.092867509 329478
0.71145242 0.34533173 0.092882194 329223
0.71295989 0.34918576 0.092512645 328966
0.71554703 0.35018182 0.092645861 263688
0.71684527 0.3524304 0.092486285 263688
0.71839511 0.35446891 0.092674427 329223
0.72023976 0.3572301 0.092298009 329224
0.7214123 0.35943148 0.091294758 329225
0.7002632 0.33926398 0.091382839 263941
0.70230573 0.34039468 0.091180742 197898
0.7050637 0.34278035 0.090761416 329220
0.70631528 0.34502938 0.090884246 328964
0.70826036 0.34758475 0.090722129 657926
0.71053791 0.34982967 0.090195104 789254
0.71268815 0.35177222 0.090986311 723205
0.71453273 0.35419071 0.090708539 723463
0.71639907 0.3567068 0.090106212 591878
0.7177816 0.35879314 0.090325423 592389
0.7206775 0.36116576 0.089950271 329222
0.72226155 0.36291638 0.090415902 263690
0.72326052 0.36528602 0.089974403 263433
0.69711316 0.33881095 0.088399626 329475
0.69894713 0.34000388 0.089089163 329220
0.70113742 0.34255454 0.088566065 591887
0.70274848 0.34446967 0.088447176 855043
0.7046116 0.34649462 0.088453017 1117962
0.70716232 0.3486121 0.088534199 1183751
0.70887327 0.3508333 0.088613376 1117959
0.711034 0.35304087 0.08862783 1118213
0.71293259 0.35504326 0.088925891 1052933
0.71449196 0.35803446 0.088630572 1118470
0.71650136 0.36020654 0.088299803 1118219
0.71799523 0.36260107 0.088273115 1315596
0.72056735 0.36452717 0.088395551 591879
0.72305775 0.36727285 0.088192746 328967
0.72486395 0.36912179 0.08804898 263429
0.72510016 0.37085646 0.087758712 263686
0.69279504 0.33749405 0.08683008 592137
0.69498372 0.33874542 0.087406591 723719
0.69767684 0.34085175 0.087707721 789250
0.69884574 0.34401932 0.086973831 1249285
0.70125926 0.34511721 0.087214895 1314821
0.70355672 0.34655955 0.086354785 1249031
0.713063 0.35731754 0.087242447 790786
0.71591127 0.36104095 0.086170621 1118472
0.71723729 0.36359248 0.085829996 1117964
0.71879518 0.36595351 0.086837858 1380625
0.72072178 0.3684606 0.086137004 2563863
0.72272509 0.37044388 0.085880332 657670
0.72479004 0.37275085 0.086424895 1051399
0.72500032 0.37473893 0.085695572 4994330
0.68984014 0.33678216 0.085396662 526344
0.69129664 0.33802843 0.085240118 460549
0.69357049 0.34094954 0.084998064 920836
0.69573903 0.34267032 0.084883541 1183492
0.69800657 0.34344557 0.084943369 1249540
0.71795386 0.36702979 0.083883442 723723
0.7200262 0.36894223 0.084036134 3943736
0.72149855 0.3708562 0.084467813 4338716
0.7237156 0.37377855 0.08451879 3549210
0.72533578 0.37638977 0.083988793 328968
0.72628123 0.37802204 0.084767729 1313032
0.727431 0.38159466 0.083764262 721679
0.68574631 0.33655465 0.082322434 329730
0.68770701 0.33728826 0.083531618 460551
0.69039166 0.33982179 0.083093993 986373
0.69134355 0.34154266 0.082923897 1117958
0.69384134 0.34237862 0.082863048 1183494
0.72479659 0.37653857 0.08201053 394244
0.726363 0.37962976 0.082320943 328967
0.72740978 0.38064495 0.082457565 393742
0.68400604 0.33678144 0.081616469 460805
0.68576866 0.33926615 0.081382275 985868
0.68799263 0.34074959 0.081628151 1117957
0.6806016 0.33659297 0.079615287 526339
0.6829356 0.33774397 0.079750776 788483
0.68454236 0.34002078 0.079165474 1183238
0.6871537 0.34055054 0.079234123 1183493
0.67869031 0.33722121 0.077637173 591367
0.68071955 0.34020099 0.076948479 1314820
0.68258429 0.34031579 0.077600069 1249285
0.67532128 0.33680889 0.075883389 854801
0.67662883 0.33895823 0.075176135 788485
0.67869866 0.34030935 0.075452313 1314820
0.67126417 0.33740968 0.073448606 5393937
0.67308074 0.3380231 0.073800974 1315337
0.67560261 0.34022951 0.073978812 1051909
0.67149073 0.33976579 0.071382672 854030
0.67342919 0.34106687 0.071472704 1183235
0.66820365 0.33988145 0.069740221 1709319
0.66996133 0.34086195 0.069740243 986118
0.66621214 0.3404783 0.068021767 2104583
0.66868895 0.34312344 0.067827225 1249028
0.66269964 0.33903006 0.066378973 395012
0.66400594 0.34058219 0.066124924 591621
0.66640854 0.34405652 0.065927684 1249029
0.6620006 0.34081042 0.063886814 461058
0.66398466 0.34334102 0.065118454 593155
0.66403019 0.34478906 0.06370917 1445637
0.65706259 0.34126243 0.061817072 787983
0.65924269 0.34219846 0.061806895 526345
0.66153884 0.34507835 0.061739258 2168581
0.65562183 0.34181929 0.060448281 722190
0.6572364 0.34529144 0.059313871 591885
0.65894961 0.34566578 0.059757903 4009989
0.6533944 0.34257963 0.058397289 2299143
0.6549347 0.34559727 0.057678692 1969159
0.65682805 0.34727532 0.058096372 6377743
0.65257591 0.34516314 0.056306783 3087365
0.64994651 0.34573236 0.056157533 5718275
0.64961213 0.34834078 0.053501505 6046210
0.6300621 0.40221789 0.0086554037 5915907
0.63120914 0.40402403 0.0092958026 5915653
0.70434916 0.3410314 0.096896484 263686
0.70678848 0.34289724 0.097352669 329219
0.70874971 0.34413758 0.096947201 329221
0.71093243 0.34573632 0.09686888 329225
0.71291876 0.34760946 0.096506268 263688
0.7146073 0.34982723 0.096743539 263686
0.71657455 0.35235411 0.09658134 329224
0.71780628 0.35490644 0.096862182 263942
0.71965551 0.35766008 0.096361116 329224
0.7211656 0.35979736 0.096466519 263688
0.70223987 0.3406913 0.094836161 263686
0.7054894 0.34202221 0.095193438 329218
0.70678186 0.34483856 0.095336825 329220
0.70880151 0.34824106 0.094851099 592131
0.71080965 0.34926182 0.094405547 394756
0.7126084 0.35152867 0.095079944 328964
0.71444142 0.3539539 0.094232291 592135
0.71671873 0.35571775 0.095063008 329223
0.71911335 0.35817266 0.094619654 329222
0.7213189 0.36031291 0.094415948 263688
0.72253108 0.36280158 0.094589621 263687
0.72350723 0.36558694 0.094045132 329224
0.69913888 0.33950621 0.093300536 395012
0.70072699 0.34180439 0.092899814 526598
0.70318317 0.34401023 0.093365967 526600
0.70508218 0.3462083 0.092973098 986633
0.70726186 0.34835976 0.092804551 986628
0.70890719 0.35108837 0.092319518 1183753
0.71094018 0.35337868 0.092466876 1183497
0.71336925 0.35553074 0.092942007 1249286
0.71499491 0.35819814 0.092758007 1117966
0.7173152 0.35993487 0.093025647 1052425
0.71935558 0.36218515 0.092081591 920583
0.7217527 0.36417279 0.093165331 329223
0.72212595 0.36660543 0.092049107 328967
0.72441411 0.36914474 0.091687031 263685
0.69343275 0.337708 0.090539292 394758
0.69561398 0.3391245 0.09177015 460549
0.69777989 0.34144771 0.091725931 723462
0.69999939 0.3432897 0.091137715 1183754
0.70162022 0.34523597 0.091507912 1183751
0.70384222 0.3472687 0.091157503 1117969
0.70625573 0.34878388 0.090581305 986383
0.7097525 0.353641 0.089731619 1053189
0.71289295 0.35556763 0.090530097 1249288
0.71377599 0.35879216 0.090857953 1052168
0.71592498 0.36113012 0.09118475 1183753
0.71691597 0.36365741 0.090285577 1249286
0.71918947 0.36580065 0.090584174 1315605
0.72132611 0.36839721 0.090728924 1183497
0.72262925 0.37188458 0.089883044 854531
0.72518289 0.37287128 0.089450844 263941
0.7252425 0.37479734 0.09043248 5914911
0.68998694 0.33754581 0.088650569 985868
0.69155437 0.33816424 0.08918798 460553
0.69418693 0.34041306 0.089693792 723469
0.69579321 0.34255841 0.089161113 1117702
0.69834942 0.34401831 0.089378081 1249286
0.71837187 0.36673796 0.088737987 1117959
0.72029328 0.36937225 0.088589579 3419421
0.72174478 0.3717657 0.088553667 3089689
0.72359037 0.37402612 0.088077225 3089432
0.72515661 0.37623435 0.088277265 1051401
0.72699696 0.37824479 0.088081576 2890004
0.68821239 0.33722791 0.08738289 592136
0.69039255 0.33930513 0.086694077 789255
0.69223619 0.34150758 0.087537982 1249542
0.72593963 0.38003957 0.085969932 328973
0.72642845 0.3814767 0.086101055 721931
0.68406963 0.33720976 0.085470378 395269
0.68580878 0.33844495 0.085217737 723209
0.68814445 0.34078988 0.08530692 1249286
0.72672695 0.38377428 0.084950261 2232856
0.68094546 0.3366029 0.084225066 526602
0.68347615 0.33760396 0.083594054 526600
0.68450755 0.34036332 0.083671287 1249286
0.68698025 0.34056121 0.083537936 1249286
0.67709261 0.33576012 0.081728019 592138
0.67942095 0.33705404 0.081879988 460807
0.6811257 0.33892801 0.081523217 854789
0.68329346 0.34068441 0.081924051 1249286
0.67477793 0.33634341 0.079724737 1644558
0.67719841 0.33932132 0.080136195 657923
0.67940503 0.34028026 0.079622984 1249285
0.67372823 0.33881831 0.077221438 526090
0.67567098 0.34012863 0.077907145 1051908
0.67016989 0.33854046 0.077110142 3288089
0.67168844 0.33913022 0.075522281 1314834
0.67293143 0.34121093 0.076080576 1249283
0.66868019 0.33881158 0.075877167 789516
0.66959417 0.3411195 0.074186467 1511687
0.67215133 0.34142059 0.073518537 1380356
0.66632944 0.34064212 0.072629131 1512458
0.66886079 0.34195569 0.072091125 1051910
0.66574705 0.34107739 0.070060618 2695948
0.66640353 0.34395134 0.069789991 1380614
0.66101009 0.34075615 0.068173222 394760
0.66274613 0.34213373 0.068152308 460813
0.66446447 0.34470597 0.067836642 1380100
0.6587714 0.34294549 0.066007219 591882
0.66163743 0.34471455 0.065919101 1643268
0.66362661 0.34513178 0.065628715 1445638
0.65618581 0.34143606 0.064261131 919063
0.65822399 0.34248486 0.064768262 591880
0.65947467 0.34600931 0.064533785 3418121
0.65449429 0.34285784 0.062229469 853270
0.65581936 0.34558386 0.061764702 919563
0.65715992 0.34691435 0.062541112 4799238
0.65225512 0.3436293 0.060197435 3155458
0.65375012 0.34656703 0.059177924 2496011
0.65455741 0.34793121 0.060300648 6049032
0.65068072 0.34476662 0.058768749 5259786
0.6515975 0.34694079 0.058279149 3219459
0.64917892 0.34643942 0.057370305 6112274
0.63358301 0.40359977 0.012848889 5915654
0.63074696 0.40591717 0.0094386321 5915654
0.63206381 0.40690142 0.012073019 6046481
0.62985325 0.40993321 0.00864207 5914895
0.62958133 0.41014752 0.0078173354 6178329
0.70838165 0.34431544 0.10114025 329221
0.71039408 0.346091 0.10087302 263685
0.71281266 0.34798673 0.10081033 263687
0.71452421 0.35022262 0.10061632 329223
0.7161029 0.35255471 0.10071745 329224
0.71829337 0.35495812 0.10112037 263690
0.71944737 0.35744238 0.10090803 329222
0.72107846 0.35947958 0.10121435 264200
0.70097303 0.33912274 0.098775089 394756
0.70293671 0.340197 0.098830931 329221
0.70532817 0.34237015 0.09926863 263430
0.70787007 0.3433961 0.099065542 329220
0.70874721 0.34693906 0.098742358 329221
0.71052152 0.349471 0.098653041 329219
0.71347123 0.35175985 0.098921485 329222
0.71569395 0.35374969 0.098640449 394761
0.71699798 0.35590839 0.098761253 394503
0.72020388 0.3577733 0.098489188 263686
0.72075349 0.36023507 0.099116892 329222
0.72252476 0.36293456 0.097839408 329224
0.69751376 0.33850875 0.096943378 329475
0.69950008 0.33912665 0.09722475 329220
0.7010746 0.342935 0.096695475 789506
0.7031585 0.34417698 0.097000018 591875
0.70496249 0.34634781 0.097037911 920836
0.70705813 0.34844863 0.096748956 1052166
0.70923758 0.35079303 0.096695557 1249295
0.71128058 0.35280338 0.096794538 1183755
0.71391636 0.35519502 0.097112231 1184009
0.71550858 0.35755819 0.096935704 1052681
0.71711797 0.35984853 0.097067483 986376
0.71891695 0.36221454 0.096351504 854792
0.7205261 0.36459875 0.096032642 460550
0.72315168 0.36641443 0.096714981 328967
0.72437525 0.3691721 0.097187631 329223
0.69393837 0.3379924 0.094981208 329478
0.69574684 0.33908603 0.095598347 526339
0.69779116 0.34109354 0.095892198 723460
0.69987452 0.3425903 0.095793888 526339
0.70149505 0.34523618 0.095223993 1249543
0.70404661 0.34784564 0.095370486 1249286
0.70643878 0.34951475 0.09495461 1118216
0.70771879 0.35127681 0.095034331 1183752
0.7103681 0.35446358 0.095424749 1249286
0.71201837 0.35566711 0.09506382 1183491
0.71376735 0.35803893 0.095183715 1183495
0.71563393 0.36106476 0.094666913 1249285
0.71720994 0.36351192 0.094831139 1315081
0.71975124 0.36523274 0.094512746 1446668
0.7211023 0.36838701 0.094320357 1117961
0.72341996 0.36990216 0.094672948 526087
0.724608 0.37213928 0.094219491 329222
0.7252425 0.375056 0.094767556 6243361
0.68991303 0.33695537 0.093565799 329225
0.69230348 0.33831781 0.093519196 395012
0.69365096 0.34064752 0.093514994 789253
0.69564557 0.34247166 0.093164302 1052168
0.69832277 0.34431994 0.093319319 1183750
0.70094413 0.34645456 0.094019569 1117959
0.70298016 0.34798974 0.093819551 1183494
0.71685421 0.36503169 0.093640611 1184267
0.71815836 0.36799842 0.092518672 1381391
0.72083092 0.36941737 0.092624195 789253
0.72193766 0.37181368 0.092756689 1643274
0.72375757 0.37418982 0.092108496 1774605
0.72486454 0.37589517 0.092818484 1774606
0.68903673 0.33705112 0.09104225 263942
0.69011927 0.33931103 0.091175005 657673
0.69206172 0.34112549 0.091359675 1052165
0.69428647 0.34237492 0.091590732 1249287
0.71909207 0.37089041 0.090928525 2760719
0.72034138 0.37286782 0.091401957 8088648
0.72274554 0.37472838 0.09060739 7100205
0.72474116 0.37774295 0.090693206 2103567
0.72578096 0.38011467 0.090641253 328972
0.72670037 0.38375846 0.090483956 1837063
0.68561161 0.33691144 0.089791194 723469
0.68671989 0.33826771 0.089987919 526342
0.6886363 0.34072912 0.089655668 1249286
0.69155347 0.34151089 0.089309216 1117705
0.72564 0.38104364 0.088625163 328971
0.72647363 0.3826288 0.088228442 852492
0.68060428 0.33736444 0.087962769 329991
0.68301356 0.33776626 0.08745046 526346
0.68541008 0.34040564 0.088077076 1183749
0.6872313 0.34060454 0.088025361 1315334
0.67919904 0.33732828 0.085555226 591624
0.68103844 0.33930445 0.085962944 920328
0.68330002 0.34035715 0.08612106 1314567
0.67554975 0.33662748 0.084159642 985868
0.67750078 0.33824763 0.084328979 460296
0.67956215 0.34060287 0.083831653 1249286
0.67309064 0.33608475 0.082897574 2367493
0.67375278 0.33649772 0.082746074 3486734
0.67582917 0.34041667 0.082302913 1051907
0.67799389 0.3405425 0.08208257 1249288
0.67120546 0.33952373 0.080402695 788999
0.67405933 0.3409006 0.080174908 1052163
0.66965687 0.33909428 0.078441575 985868
0.66990829 0.34021103 0.078697123 920071
0.67209661 0.34160966 0.078387193 1314820
0.66760045 0.3401255 0.077132128 2038282
0.66932601 0.34205881 0.076701351 1249285
0.6653986 0.34128925 0.074862167 2498059
0.66698587 0.34336802 0.074126817 1380614
0.66316783 0.34290349 0.072587997 2103561
0.66501451 0.34417704 0.072319396 1380357
0.65959895 0.3422772 0.070241109 723218
0.66143864 0.34383869 0.070363201 1051664
0.66310656 0.34512654 0.070382059 1445896
0.65800369 0.34365264 0.067219898 920085
0.6594848 0.34603891 0.068151347 3352327
0.65492487 0.34196365 0.067311533 1180951
0.65654498 0.34413394 0.067282625 854034
0.65730488 0.34664935 0.066943213 5193988
0.65300691 0.34422803 0.064579159 1246744
0.65425617 0.34682399 0.064370781 2233613
0.65714687 0.34763905 0.064221092 6312204
0.65075582 0.34501043 0.062566087 3418628
0.65199286 0.34742633 0.061742619 2496274
0.64966929 0.34978795 0.059290502 3810840
0.63124824 0.40765271 0.013361546 5915153
0.6290378 0.41068453 0.0099306228 6309912
0.62934154 0.41271478 0.011181924 6178066
0.62980539 0.41634992 0.0084324107 5522437
0.71145087 0.34822878 0.10563865 329229
0.71344 0.35086235 0.10523015 329478
0.71632934 0.3532491 0.10513968 263434
0.71773684 0.35521147 0.1052821 329478
0.70261544 0.34082344 0.10308879 263941
0.70553863 0.34209818 0.1035713 263939
0.70728904 0.34430963 0.10387143 329477
0.70959467 0.34635097 0.10404147 329222
0.71153742 0.34889495 0.10372175 329226
0.71409702 0.35081875 0.10369252 329227
0.71608299 0.35268319 0.10340062 329225
0.71818185 0.35556683 0.10346542 329221
0.71973729 0.35832366 0.10338128 329478
0.72111243 0.36077562 0.10338273 329479
0.72233963 0.36334571 0.1029906 329223
0.69737649 0.33836401 0.10155854 329223
0.7001313 0.33902246 0.10199486 329224
0.70241541 0.3414858 0.10156447 329222
0.70352471 0.34436077 0.1012499 329221
0.705441 0.34618947 0.10144056 591881
0.7075789 0.34867981 0.10134174 723461
0.71058679 0.35012925 0.10154282 394755
0.711348 0.35278091 0.10103448 1052168
0.71362048 0.35495138 0.10132404 657672
0.71528429 0.35796916 0.10113224 986633
0.71752131 0.35953853 0.10130319 460292
0.71975762 0.36205503 0.10125146 394759
0.7221784 0.36348483 0.1006306 329223
0.72343677 0.36645108 0.10108286 329224
0.69408303 0.33747926 0.099989846 329478
0.69623995 0.33888233 0.099798128 263685
0.69775498 0.34136885 0.099716261 394756
0.69990093 0.34335038 0.099430956 592390
0.70126271 0.34540379 0.098726138 1118217
0.70374691 0.34792086 0.099528216 1249288
0.70622224 0.34997886 0.099329546 1249294
0.7080152 0.35185674 0.098879479 1249545
0.70987791 0.35454819 0.099261969 1118215
0.71208274 0.35650378 0.09900821 1118470
0.71355736 0.3581644 0.099278763 1315080
0.71565145 0.36093158 0.098999582 1381388
0.71838236 0.36344701 0.099338286 1249546
0.7199744 0.36566859 0.098859228 855047
0.72083241 0.36834767 0.098570175 789255
0.72407568 0.36923078 0.099338628 329226
0.72475398 0.37249914 0.098807678 263686
0.69040161 0.33705616 0.098038301 263687
0.69227719 0.33812872 0.098125055 460552
0.69443959 0.33975291 0.097476251 657674
0.69728982 0.34189826 0.097965166 723720
0.69794005 0.34445852 0.097240165 1183748
0.70019114 0.34654146 0.097208619 1117955
0.70306981 0.34862098 0.097664207 1249286
0.71355939 0.36024246 0.097659342 1249287
0.7148096 0.36166143 0.097227551 1314826
0.71603328 0.36488345 0.097442523 1249801
0.71774179 0.36758667 0.096683815 1315080
0.719868 0.36909679 0.096819319 1249545
0.72201437 0.3710829 0.097377896 1249034
0.72345966 0.37380862 0.096952289 2037521
0.72498918 0.37607321 0.096982449 3220754
0.68888396 0.3370527 0.096419968 329481
0.69119424 0.33890972 0.095348202 460550
0.69269091 0.34122941 0.09560252 920838
0.69482476 0.34330121 0.096229017 1249288
0.6970185 0.34462619 0.095833503 1117956
0.71634465 0.36818707 0.095845304 1249282
0.71844697 0.37037215 0.094846413 1183763
0.72031003 0.3711156 0.094206855 1183498
0.72307348 0.37465316 0.094860829 3351830
0.72445494 0.37721419 0.094989471 1643788
0.72588563 0.3796303 0.094288275 656904
0.72671014 0.38226435 0.094263837 1116436
0.68535239 0.33698449 0.094422214 329732
0.68701679 0.33823305 0.094318889 460808
0.68914104 0.3405894 0.09395963 1051913
0.69135392 0.34169978 0.094383106 1249285
0.71868354 0.3738502 0.093561769 5986406
0.72271478 0.37787744 0.092841648 8020782
0.72679228 0.38293818 0.092471696 1707534
0.68058085 0.33725062 0.092499927 461316
0.68336689 0.33782142 0.092159115 591881
0.68560028 0.33957985 0.092274159 1117962
0.68764305 0.34077376 0.092541069 1249284
0.71890384 0.37941259 0.09032581 8417306
0.67910844 0.33813086 0.089867473 657929
0.68129581 0.33913898 0.090016469 723465
0.68323672 0.34027445 0.090142004 1183752
0.6774382 0.33812559 0.088311911 591880
0.67959672 0.34008911 0.088089064 986373
0.67432761 0.33776835 0.086612858 854280
0.6763832 0.33947012 0.086852655 920583
0.67718679 0.34105772 0.086944543 1183749
0.67224348 0.33890483 0.085048854 1249540
0.67429239 0.34085217 0.084625214 1117700
0.66893643 0.33883208 0.082030356 5787930
0.67000061 0.33998868 0.082986102 2762508
0.67223299 0.34153673 0.082276106 1249028
0.66890711 0.34170115 0.080371983 1446150
0.6662451 0.34115878 0.078728333 2103812
0.66735554 0.34315258 0.079005197 1315077
0.66390193 0.34232667 0.076687291 1841413
0.66513288 0.34420907 0.076993302 1380612
0.66218615 0.34403279 0.074790955 1183747
0.65585041 0.34201789 0.07419847 984604
0.6579901 0.34365392 0.072355933 853774
0.66018367 0.34486747 0.07292147 1774601
0.65626568 0.3451429 0.070726231 2826508
0.65832961 0.34646788 0.070996031 4075784
0.65314454 0.3439208 0.069595076 1442308
0.65490651 0.34598976 0.069381483 2234642
0.65151966 0.3455981 0.066928804 3415839
0.65270501 0.34771612 0.067257598 3680003
0.64925653 0.34639159 0.064934596 5520397
0.70530635 0.34375843 0.1075225 329734
0.70686287 0.34566078 0.10779423 395018
0.70928365 0.34701252 0.10715299 329478
0.71133399 0.34940428 0.10712218 329479
0.71333528 0.35186723 0.1069198 329225
0.71573901 0.35389373 0.10725968 329224
0.71735841 0.35626683 0.10732972 394761
0.7188856 0.35804716 0.10633465 329478
0.70018834 0.34003881 0.10552831 329481
0.70269305 0.34168714 0.10618546 329478
0.7051571 0.34311458 0.10602229 263939
0.70625955 0.3459999 0.10586229 329223
0.70692515 0.34953004 0.10557733 526090
0.70896047 0.35066032 0.10515122 460295
0.71165812 0.35287702 0.10487364 460294
0.7129789 0.35685793 0.10553233 526343
0.71420664 0.35776535 0.10512062 526088
0.71875268 0.36073929 0.10652789 460551
0.72003078 0.36165735 0.10495444 329478
0.72166544 0.36403033 0.10510024 263943
0.72268397 0.36695561 0.10492984 329480
0.69619805 0.33876103 0.10374772 329220
0.69744533 0.33971843 0.10450657 329223
0.70021617 0.34324798 0.10357575 394756
0.70210576 0.34509143 0.10423553 789512
0.70451444 0.34731686 0.10317843 855051
0.7064442 0.34983242 0.10377741 1052430
0.70782 0.35191578 0.10301118 1447177
0.71044135 0.35470769 0.10376158 1578506
0.7125985 0.356242 0.10336379 1184008
0.71465456 0.35830554 0.10334771 855304
0.716084 0.36077136 0.10386343 723719
0.71761966 0.36291 0.10287375 789512
0.7187767 0.36673597 0.10317838 526345
0.72307754 0.36669257 0.10315547 329479
0.72363305 0.37041351 0.10268964 329224
0.69047624 0.33672526 0.10263225 329733
0.69338119 0.33744219 0.10273365 263945
0.69379252 0.34070912 0.10174873 394758
0.69692945 0.34157404 0.10249098 394758
0.69845408 0.34457424 0.10201198 1118219
0.70058554 0.34628326 0.10174289 1249543
0.7028634 0.34819451 0.10193816 1315335
0.70513654 0.35100266 0.10236627 1380871
0.70721722 0.35295865 0.10198198 1380873
0.70862311 0.35558662 0.10164303 1380874
0.71054983 0.35818228 0.10193623 1380872
0.71209931 0.36063698 0.10110962 1315080
0.71453637 0.36261988 0.10141014 1381131
0.71738458 0.3644672 0.10210273 1512715
0.71926868 0.36701751 0.10137957 1052168
0.7202673 0.36883327 0.10131574 986632
0.72201085 0.371957 0.10122448 986376
0.72406262 0.37380624 0.10086231 1051914
0.72499692 0.37558171 0.10090207 329479
0.68707484 0.3360624 0.10086578 329730
0.68882781 0.33683673 0.10027048 329987
0.69143063 0.33918485 0.099823087 461062
0.6933887 0.34096849 0.10033903 723720
0.69488698 0.34338441 0.1004032 1315083
0.69714302 0.34440795 0.10031415 1183497
0.71400779 0.3626945 0.099481896 1380615
0.71497053 0.36586678 0.099648766 1315079
0.71716517 0.36806586 0.10039333 1315082
0.7189852 0.37004474 0.099797726 1052682
0.72135043 0.37215313 0.099504799 2826005
0.72316217 0.37494516 0.099663563 3287318
0.72464442 0.37778729 0.09908513 460038
0.72647119 0.38195506 0.099306397 721672
0.68581945 0.33667925 0.097996339 329987
0.68784887 0.33795118 0.097681642 329475
0.68905735 0.34071907 0.098195925 855303
0.69113791 0.34220469 0.098065332 1249541
0.69347566 0.34377679 0.097120643 1249287
0.71569031 0.36976826 0.09853296 1380613
0.71684992 0.37087891 0.098487414 1247773
0.71794039 0.3742134 0.097409278 4404288
0.72438854 0.37868264 0.097785398 329480
0.72537267 0.38082138 0.097337112 394503
0.72698539 0.38303027 0.096893974 1773083
0.68326092 0.33757633 0.096618824 526345
0.68560576 0.33949882 0.096443087 789000
0.6878044 0.34124854 0.096588306 1117961
0.71882319 0.37617192 0.095330968 6183188
0.67996848 0.33783448 0.094146773 526603
0.68190402 0.33909094 0.094287485 789000
0.68425196 0.340505 0.094588593 1249286
0.67801619 0.33845413 0.092338793 526598
0.6801756 0.34035951 0.093043104 1183749
0.673778 0.33797225 0.090807863 986368
0.67591864 0.33973134 0.09078519 789254
0.67846507 0.34054774 0.090755604 1249286
0.67277062 0.33933294 0.088980995 1051662
0.67502987 0.34136021 0.088041432 1314820
0.67059785 0.34087941 0.087033771 1446415
0.67288542 0.34157032 0.087089323 1249285
0.66836041 0.33973655 0.084370799 5919260
0.66920352 0.34180614 0.084921114 1577994
0.66484052 0.34183687 0.082633227 4602126
0.66758406 0.34253484 0.082940437 1249031
0.66455561 0.34206748 0.081218891 2235400
0.66508549 0.34414843 0.080351926 1315076
0.65738541 0.34049144 0.079358555 788233
0.66215372 0.34471163 0.078649342 1314819
0.65662158 0.34010771 0.077449605 984589
0.65825361 0.34210104 0.07626497 853769
0.66009831 0.34551099 0.076873474 2958342
0.66278148 0.34520024 0.076861903 1905922
0.65493101 0.34258386 0.075133644 1838109
0.65598035 0.34531331 0.074865863 3153931
0.65829462 0.34585866 0.075287186 3023626
0.65574986 0.34698826 0.072951749 5193735
0.6515162 0.3465938 0.071359538 1904643
0.65313172 0.34718931 0.071902938 3746061
0.6497578 0.34785521 0.068653502 4601867
0.64775729 0.34777269 0.067303255 6046215
0.7111308 0.34919435 0.11094198 395527
0.70260096 0.34246847 0.10972863 395025
0.70432985 0.34366211 0.1100214 395017
0.70631045 0.3454344 0.10929166 395017
0.70843136 0.34764385 0.1100715 395523
0.71084422 0.35008314 0.11002239 395271
0.71233243 0.35229295 0.10966491 395276
0.71446371 0.35451815 0.10978238 395272
0.71634781 0.3563872 0.11000614 460810
0.71680629 0.35938653 0.10885534 592141
0.69695795 0.33999559 0.10852224 460807
0.69870907 0.34089878 0.10771864 329480
0.70074701 0.34261128 0.10834 460552
0.70256793 0.34508824 0.10738841 525831
0.70510036 0.34738359 0.10712522 526087
0.70885074 0.35129505 0.10768023 526088
0.71040046 0.35452718 0.10776594 526088
0.71209919 0.35638958 0.10713965 526344
0.71365446 0.35881752 0.10640039 591881
0.71771842 0.36029476 0.10811146 460809
0.7185865 0.36330178 0.10736928 395274
0.7206372 0.36582112 0.10716525 329739
0.72259778 0.36810243 0.10673534 329736
0.69280612 0.33835694 0.10546447 328965
0.69513595 0.33917233 0.10649645 329478
0.69726694 0.34271365 0.10614334 460550
0.69916749 0.34402767 0.10666499 1117960
0.70087713 0.3469097 0.10586304 1446923
0.70267737 0.34818375 0.10512492 1381386
0.70462841 0.35120109 0.10558286 1316876
0.70693505 0.35312229 0.10597934 1579273
0.70821285 0.35558844 0.10582845 1710604
0.71079654 0.35740677 0.10594174 1776906
0.71291369 0.36001161 0.1057301 1184266
0.71483099 0.36210459 0.10628401 657931
0.7169708 0.3648259 0.10504011 526601
0.71793938 0.36738059 0.10471319 526346
0.72298515 0.3712 0.10605385 329737
0.72378206 0.37315699 0.10438357 263946
0.68896031 0.33670583 0.10387407 329734
0.69136637 0.33780575 0.10487463 329479
0.69301313 0.3413322 0.10428934 394758
0.69555247 0.34353891 0.10393045 1118217
0.69748163 0.3451148 0.10450537 1512712
0.6992802 0.34718871 0.10348894 1512201
0.70200813 0.34911945 0.10343021 1446663
0.70766717 0.35658413 0.103517 1382407
0.70940161 0.35922709 0.10368943 1447181
0.71102875 0.36166921 0.1037023 1512975
0.71225446 0.36359867 0.10294622 1512462
0.71513581 0.365592 0.10394858 1710609
0.71767282 0.36815703 0.1039599 1381390
0.71946609 0.37018797 0.10397672 1052682
0.72094512 0.37291256 0.10301631 1643532
0.72278935 0.3751846 0.10307884 2103311
0.72444373 0.37716255 0.10319249 1905932
0.68540496 0.33596995 0.1022815 329991
0.68967545 0.34027657 0.10236347 329221
0.6912089 0.34294081 0.10224231 1315333
0.69323725 0.34352449 0.10261413 1381127
0.70817667 0.36039907 0.1025386 1317634
0.71009487 0.36263013 0.10291372 1511941
0.71230769 0.36548811 0.10324148 1644049
0.71384615 0.36672434 0.10154195 1446413
0.71555954 0.36886328 0.1023423 1381386
0.71800625 0.37148219 0.10262777 1118473
0.72223997 0.37604234 0.10231881 7165737
0.72320765 0.37717998 0.10200404 460295
0.72493696 0.3811253 0.10116101 328968
0.72650725 0.38304767 0.10139684 1312525
0.68353659 0.33769292 0.1007098 395015
0.68550229 0.3394452 0.10014068 723467
0.68754995 0.34207356 0.10016815 1183751
0.69014806 0.34260276 0.10058049 1315334
0.71399999 0.37043548 0.10030634 1446148
0.71544635 0.37244365 0.10090858 1052160
0.71683729 0.37584102 0.09961015 2628366
0.71919054 0.37803531 0.09962225 8613697
0.68030685 0.33708698 0.099216603 395779
0.68215477 0.33902422 0.098795027 789002
0.68430471 0.34140736 0.098419957 1249541
0.68690062 0.34165299 0.098155215 1249541
0.67848033 0.33825058 0.096804827 657671
0.68069625 0.34026769 0.096882842 1052166
0.67535466 0.3379066 0.094878472 1248258
0.67633009 0.33953094 0.094768569 788745
0.67816055 0.34089786 0.0947785 1183748
0.67351115 0.33909708 0.092885517 1051407
0.67502606 0.34099218 0.092805356 986374
0.67105466 0.34027386 0.09101826 1709837
0.67312258 0.34151316 0.090747066 1117958
0.6678564 0.34080365 0.089146681 3947028
0.66971624 0.34190783 0.089394249 1183238
0.66596717 0.34180975 0.087056294 2826760
0.66814995 0.34292907 0.087257616 1315079
0.66419196 0.34247765 0.085147575 3221771
0.66581559 0.34393179 0.084601693 1315078
0.66255629 0.34452853 0.083575986 1906434
0.6637342 0.34481484 0.083165035 1314822
0.65439856 0.34004954 0.08168371 1639702
0.65669727 0.34028578 0.082209326 919821
0.66067189 0.34529942 0.081696123 1709572
0.65480739 0.34177217 0.080080405 1246999
0.65740967 0.34553608 0.078708209 3944974
0.65895468 0.3459703 0.079584651 2497542
0.65277582 0.34495437 0.078060269 4073011
0.6559065 0.34502676 0.077273183 2431496
0.69239193 0.3907851 0.07641235 1382923
0.65156823 0.34582618 0.076259837 2034460
0.653 0.34612423 0.074749611 3745814
0.65052545 0.34700987 0.073370419 3023876
0.65190065 0.34692386 0.073719189 1116193
0.68953353 0.39659661 0.071346276 1382923
0.6914528 0.39687595 0.070155375 1184274
0.64657921 0.350647 0.068971537 6375196
0.64804393 0.35006791 0.070302434 5195265
0.71245617 0.35255054 0.11312237 264205
0.69974613 0.34103799 0.11403307 985611
0.70144087 0.3421264 0.11104086 526609
0.70920759 0.35188973 0.11145144 395017
0.71245742 0.35323104 0.11140706 395530
0.71368164 0.35589907 0.11201141 197894
0.71550512 0.35825956 0.11093181 591882
0.69528294 0.3403464 0.11015989 591877
0.69775909 0.34127808 0.11045838 591879
0.69926447 0.34319329 0.10963476 592137
0.70952481 0.35321891 0.10955784 526087
0.70989889 0.35700485 0.10930215 328966
0.71237749 0.36090913 0.11017761 789770
0.71515632 0.36165372 0.10972136 855822
0.71617931 0.36343554 0.1080764 527888
0.71880621 0.36672524 0.10828272 395287
0.72090387 0.36910889 0.10863839 395284
0.72190696 0.37161201 0.10911115 395279
0.69182271 0.33924937 0.10808171 329476
0.6935665 0.34117281 0.10862464 591876
0.69598222 0.34309533 0.10803216 591880
0.70443523 0.35272032 0.10834215 2171916
0.70593065 0.3536711 0.10833845 1909259
0.70770752 0.35612121 0.10741877 1909003
0.71080446 0.35844892 0.10850548 460809
0.71185589 0.35963181 0.10768981 592138
0.71268117 0.36373618 0.10757809 1251853
0.71529126 0.36510488 0.10789327 726289
0.71680874 0.36754811 0.10845168 265246
0.71865898 0.36926815 0.10901571 395558
0.72240877 0.37112713 0.10753449 329740
0.72300416 0.37475473 0.10734643 329481
0.72409922 0.3770569 0.10633429 263943
0.68636322 0.33688349 0.10541175 395013
0.68791562 0.33815104 0.10659197 329477
0.68991023 0.33909735 0.10775132 329479
0.69160312 0.34257811 0.10622157 920579
0.69385207 0.34417844 0.10513975 1512711
0.70799512 0.3607958 0.10463331 1383180
0.7094748 0.36379018 0.10586867 855566
0.71125013 0.36534473 0.1048722 1645844
0.71359402 0.36802667 0.10584088 1251097
0.71519172 0.36964348 0.10569735 1316124
0.71775407 0.37225717 0.10553124 1184016
0.71942711 0.37401199 0.10554832 1315596
0.72133267 0.37623909 0.10514797 2103824
0.72361457 0.37868536 0.10568492 2760975
0.72462207 0.38047335 0.10546464 525830
0.72589552 0.38289365 0.10512339 919308
0.68407875 0.33671856 0.10524928 395015
0.68685716 0.34042999 0.10279899 329220
0.68824357 0.34190688 0.1048207 854532
0.6906482 0.34261966 0.10480127 1117956
0.70531356 0.35967404 0.10418359 1516032
0.70704889 0.36127788 0.10414898 1581568
0.70870537 0.36413431 0.10443342 1384206
0.71007752 0.3663511 0.10387752 1580312
0.71184176 0.36911365 0.10417478 1710114
0.71460533 0.37054417 0.10399067 1709844
0.71781033 0.37522191 0.10533664 1643530
0.7203356 0.37797296 0.10453929 5390118
0.72464579 0.38187504 0.10409079 722699
0.68116713 0.33648315 0.10321383 460808
0.68223816 0.3396371 0.10258036 854535
0.68407404 0.34100503 0.10279093 1117452
0.68667901 0.34296545 0.10234237 1446661
0.68799061 0.34398317 0.10368738 1644036
0.70611042 0.36611414 0.10277995 1122563
0.70879102 0.3685686 0.10330933 2701590
0.7107861 0.36981398 0.10257068 1316889
0.71294695 0.37160906 0.10212202 1906193
0.71439368 0.37361726 0.10272428 1709826
0.71571499 0.37748495 0.1017893 2892065
0.71775794 0.37962446 0.10201069 7495740
0.71957928 0.38121945 0.10196977 8481562
0.67651999 0.33759028 0.10081416 592142
0.67892843 0.3383342 0.1013771 789003
0.68034583 0.34035987 0.10094481 657668
0.68296033 0.34248564 0.10074984 1249796
0.68436515 0.34363994 0.1015927 1446660
0.70450777 0.36668441 0.10156488 1451528
0.67482162 0.3378748 0.098319821 658187
0.67714959 0.33874947 0.099052392 591881
0.67866379 0.34139392 0.098660231 1183749
0.68111128 0.34210739 0.099503174 1315332
0.70545161 0.3740125 0.098548926 925464
0.67326176 0.33952183 0.09656997 789000
0.67553568 0.34070966 0.096920915 854788
0.67740703 0.34164193 0.097693719 1315330
0.67137796 0.34006417 0.095080256 1249800
0.67346531 0.34190008 0.095333979 1249285
0.6679216 0.33975878 0.09252391 5722396
0.66968936 0.34101367 0.092889115 1577741
0.67175078 0.34234887 0.093437336 1314567
0.70057523 0.37803426 0.092325538 1781521
0.66658783 0.34175155 0.091177255 1775621
0.66839045 0.34257218 0.091377981 1117700
0.69878244 0.37979165 0.089638352 1517568
0.69959116 0.38129336 0.090198167 1716224
0.66436815 0.34283313 0.088976778 2893321
0.66564727 0.34426484 0.088720694 1446408
0.66321671 0.34444621 0.088065863 1183491
0.66337866 0.345018 0.086317785 1511685
0.6608454 0.34539914 0.085635409 2169607
0.68669623 0.37491676 0.086149931 657930
0.6950379 0.38381976 0.085710995 790029
0.69538748 0.38595486 0.085083097 1978126
0.65363097 0.34075674 0.082896456 1116182
0.65564656 0.34075719 0.084171966 855063
0.6587106 0.34622899 0.08342652 1972230
0.69172585 0.38584191 0.082963094 329478
0.65423 0.34313515 0.082152538 1707037
0.6561445 0.34607103 0.081883326 2825993
0.65698975 0.34733054 0.080925293 3088643
0.65226656 0.34492084 0.079868518 3942716
0.65435404 0.34669298 0.080222435 5982474
0.68862689 0.38835821 0.078478709 855811
0.65080059 0.34653339 0.077472538 2563628
0.64935976 0.34709039 0.076103792 4008985
0.68426216 0.39015627 0.075195268 131841
0.69651949 0.34163669 0.11520391 1772551
0.69373822 0.34150931 0.11241823 1640456
0.69661003 0.34189048 0.11293624 1378828
0.72015411 0.37051821 0.11015685 395809
0.69022107 0.34058148 0.11024905 722695
0.69255859 0.34100419 0.11135028 1115907
0.69311124 0.34378785 0.10941724 1248004
0.71429974 0.36761254 0.10827724 795400
0.71634907 0.37006858 0.10814226 264247
0.71791875 0.37175271 0.11046267 329529
0.72039509 0.37360609 0.11045475 395294
0.72144437 0.37629813 0.11004385 461584
0.72284019 0.37770036 0.10885646 395275
0.68644226 0.33948481 0.10902456 460552
0.6888327 0.3414557 0.11070759 984839
0.69124836 0.34386396 0.10852357 1313285
0.7145952 0.37148899 0.10762225 659750
0.71595848 0.37325218 0.10757785 987437
0.71800321 0.37595564 0.10742774 1052439
0.71953076 0.3782773 0.10769171 1249294
0.72255516 0.38012204 0.1077916 3286037
0.72415227 0.38200396 0.10777102 854280
0.72564167 0.38398218 0.10749441 1576215
0.6814388 0.33727729 0.10556151 460811
0.6828627 0.33843887 0.10723669 395270
0.68637508 0.34359172 0.10559769 854019
0.68844825 0.34520623 0.10695805 1575428
0.71130735 0.3695395 0.10578717 1452046
0.71227008 0.3727271 0.10615879 988969
0.71440721 0.37438855 0.10589807 1447456
0.71692103 0.37681788 0.10602004 1840907
0.71785706 0.37958854 0.10605246 4207140
0.71993583 0.38112697 0.10610843 4732711
0.72288877 0.38328058 0.10563327 1904651
0.67888117 0.33801138 0.1056255 461066
0.68054563 0.34119013 0.1050453 1051656
0.68296164 0.34208038 0.10446352 920326
0.68447679 0.34422144 0.10515034 1116934
0.70834875 0.3720313 0.10301561 1317926
0.71080917 0.3735258 0.10425238 1316394
0.71252793 0.37577042 0.10385007 1972757
0.71439284 0.37815785 0.10341859 1709068
0.71686107 0.3798824 0.10445905 5655102
0.6751352 0.33833608 0.10306499 656932
0.67766571 0.33884746 0.1031151 986635
0.67964733 0.34114966 0.1036537 723204
0.68102193 0.34400621 0.10269313 1577732
0.68257427 0.34502703 0.1045318 1709577
0.70722127 0.37348139 0.10156199 2308107
0.70821273 0.37504575 0.10292656 1846322
0.67330933 0.33821273 0.1009916 1446419
0.67606282 0.34037924 0.10124037 722953
0.67744553 0.34270346 0.1007556 1315076
0.68035769 0.34382075 0.10145745 1381381
0.70545161 0.37416199 0.099121265 2371598
0.70640361 0.37629974 0.1007204 1517845
0.66987616 0.33921611 0.098431423 4275206
0.67236012 0.33953738 0.099684328 1709330
0.67390043 0.34239781 0.099401839 1183748
0.70419186 0.37524065 0.098288871 1122072
0.70538723 0.37880722 0.099208713 2108725
0.66787189 0.34002039 0.097749166 5788696
0.66995496 0.34086794 0.097517952 788742
0.6711725 0.34263742 0.097388916 1315333
0.70212859 0.37846932 0.095385917 2770192
0.70230812 0.37947109 0.095619157 2111771
0.6673485 0.34093928 0.095298827 3420166
0.66886556 0.34277266 0.095216408 1314567
0.70241201 0.38088503 0.095564097 2504729
0.70401281 0.38290104 0.095753662 1186852
0.66481537 0.34229317 0.093785614 2037765
0.66639894 0.34393299 0.093770251 1380869
0.6981076 0.38092089 0.092158847 3427592
0.6994952 0.38287231 0.092628218 2375946
0.66296107 0.343952 0.091503881 2103308
0.66513264 0.34436783 0.091633171 1380613
0.69851631 0.38309121 0.090712264 2771217
0.66072732 0.34484345 0.089649357 2498056
0.66268808 0.34578592 0.089654855 1446153
0.69547713 0.38429424 0.087823294 2438932
0.69608915 0.38578689 0.089011423 3164949
0.65902549 0.34469324 0.08810541 1248536
0.65884608 0.34630781 0.087941058 3549967
0.68568271 0.37782967 0.087240346 730909
0.69290006 0.38580403 0.086543061 2898972
0.69433707 0.3869997 0.087107234 2901004
0.65533155 0.34664109 0.085027531 2296832
0.6574204 0.34755495 0.085618757 2300167
0.68515557 0.37756777 0.085212149 461828
0.68696165 0.3815566 0.084755078 333583
0.6896975 0.38672283 0.084200062 2171171
0.69320583 0.38724861 0.084465019 3029771
0.65411204 0.34784582 0.083640821 4995340
0.65667117 0.34755865 0.083757035 3549442
0.68679965 0.3836031 0.081678137 264464
0.68732619 0.38539964 0.083118737 67598
0.6891337 0.38774318 0.082500599 1974289
0.69162118 0.38893217 0.082458146 2963464
0.65259337 0.34783596 0.082069688 4469257
0.68779254 0.38903421 0.081184603 2499852
0.65008646 0.34983623 0.078129165 7363671
0.6856963 0.38849619 0.079577871 65543
0.68583286 0.39192575 0.078192294 3947560
0.69361651 0.34235859 0.11663958 2951699
0.6947794 0.34195316 0.1148414 2165260
0.71924764 0.37489542 0.11455081 526657
0.72021544 0.37588361 0.11366364 592932
0.69090974 0.34320694 0.11232049 2492680
0.71670473 0.37370121 0.11235104 263759
0.71960622 0.37472346 0.11256917 395307
0.72050995 0.37811929 0.11254649 921371
0.72191358 0.37997189 0.11153663 658448
0.72669709 0.38485971 0.11002561 4007972
0.68501079 0.34072727 0.11003262 591622
0.68700409 0.34213433 0.11100163 1378311
0.7134515 0.37343037 0.10909754 199468
0.71416503 0.3752009 0.10917643 264758
0.71624207 0.37741384 0.10975488 1644589
0.71821773 0.3790656 0.10991049 1907231
0.72037387 0.38107058 0.1105084 2760212
0.72273093 0.38347563 0.10988887 1576979
0.72491503 0.38530317 0.11048599 1312789
0.67913324 0.33919731 0.10905143 461324
0.68141353 0.33957222 0.10945163 461067
0.68317842 0.34134379 0.1103604 526343
0.68569589 0.34404573 0.10991656 1640965
0.68743116 0.34676823 0.10949349 3607567
0.68953502 0.34879366 0.10990777 2230035
0.71139216 0.37291726 0.10716978 1124362
0.71301115 0.37603524 0.10861925 1052742
0.71463877 0.37791216 0.10771951 2039078
0.71694589 0.38072583 0.10859467 4404008
0.71884364 0.38205686 0.10864588 4732463
0.67735982 0.33890706 0.10739449 395280
0.67879778 0.34120578 0.10630464 2302492
0.68114793 0.34306404 0.10609301 854277
0.68438315 0.34845209 0.10763776 3607820
0.70799184 0.37351286 0.10757264 990042
0.70996034 0.37503499 0.10671732 1579570
0.71143258 0.37681431 0.10696802 1512759
0.71346247 0.37922037 0.10586033 2498088
0.6740303 0.33869261 0.10492828 722725
0.67653042 0.34050107 0.10523637 1445656
0.6778121 0.34213629 0.10557788 591876
0.6794551 0.34555829 0.10548007 1970696
0.68120104 0.34821668 0.10430934 3880994
0.68377447 0.34965548 0.10325237 2165509
0.70833629 0.37648007 0.10454335 1253681
0.70774901 0.37867737 0.10414364 992025
0.71147567 0.3795251 0.10376543 2103323
0.6702143 0.3391861 0.10301676 5130009
0.67177105 0.33957532 0.10384119 1182987
0.67452496 0.34191179 0.10366113 1117450
0.67626125 0.34464553 0.10326489 1905669
0.6780048 0.34534651 0.10290439 1971204
0.68015301 0.34935382 0.10271916 1575430
0.68177664 0.34992382 0.10262287 2034181
0.70632625 0.3782351 0.103237 2375178
0.70783365 0.38002151 0.1026217 1053254
0.66921771 0.33896706 0.10205169 6247432
0.67122054 0.34184638 0.10135483 657418
0.67216825 0.34307724 0.10135792 1117957
0.67399287 0.34455591 0.10276094 1643781
0.68333107 0.35372323 0.10178724 2756102
0.7041589 0.37949553 0.10038257 2639368
0.70655543 0.37947741 0.1002829 856635
0.66760105 0.33940515 0.10044323 7298061
0.66842186 0.34287164 0.099375069 1051653
0.6705904 0.34364587 0.099697806 1381124
0.67832458 0.35420811 0.10031451 3542538
0.68021297 0.35558948 0.099516913 3476746
0.70362556 0.38412109 0.098623179 1518113
0.66522598 0.34243602 0.097733244 2300422
0.66668051 0.34416026 0.097961985 1446662
0.67909759 0.36061585 0.097067334 2952715
0.70074779 0.38258693 0.096376874 3232014
0.70264518 0.38353157 0.096829124 1979409
0.66305184 0.34304392 0.095800154 1643783
0.66415602 0.34521192 0.095844239 1446148
0.69814479 0.38417968 0.094108291 4152845
0.70122147 0.38683978 0.09459269 1978384
0.70283788 0.38865957 0.093828999 1253453
0.66165948 0.34491402 0.093865946 3154956
0.69730562 0.38540211 0.092600554 3692569
0.69848919 0.38725451 0.092885278 3232005
0.70018834 0.38979763 0.093203589 2109981
0.70233858 0.39175305 0.09375415 1319007
0.65808272 0.34469673 0.091860615 1248033
0.65957868 0.34608984 0.092226133 3089672
0.69328809 0.38629699 0.090811066 5006348
0.69486684 0.38696069 0.09076371 4217611
0.69691342 0.38901031 0.090962909 2771207
0.69843507 0.39064682 0.091334693 2044945
0.65689921 0.34569621 0.090594552 3944217
0.65853393 0.34764922 0.089633055 1904899
0.68543088 0.37943202 0.089048967 2649367
0.69215435 0.38629705 0.088675186 4346905
0.69400579 0.38847464 0.089005999 4153362
0.65441298 0.34655985 0.087501496 3020550
0.6559509 0.3480005 0.08871682 4403717
0.68647838 0.38360971 0.085956804 1327106
0.68713957 0.38583151 0.086267099 1652498
0.6896041 0.38705143 0.086983748 3359010
0.69211936 0.38897493 0.08675082 4282121
0.65369487 0.34893471 0.087205552 6968849
0.68637598 0.38632175 0.084706247 401933
0.68892127 0.39018244 0.083802387 6053899
0.68993318 0.3905974 0.085872032 4741645
0.65142518 0.3490434 0.084320463 5915914
0.68645912 0.39019218 0.083161712 4672795
0.71884567 0.37510404 0.11648352 1051987
0.72020251 0.3770847 0.11572581 1578544
0.72111744 0.37944192 0.11690928 1841442
0.71596771 0.37483653 0.11435609 395610
0.71603107 0.37548941 0.11586259 659034
0.71925879 0.38017523 0.11359007 3024401
0.72078478 0.38076043 0.11451179 1971990
0.72150034 0.38427722 0.11413427 1313570
0.71092749 0.3748042 0.11237195 3024973
0.71302032 0.37554908 0.11260279 1777730
0.7150228 0.37849951 0.11206183 3091023
0.71701002 0.37973619 0.11308253 2827580
0.71909434 0.38257888 0.11227284 3088923
0.72215724 0.38452145 0.11258258 2168607
0.72262323 0.38595814 0.11201783 525589
0.67742974 0.33989236 0.11139403 461066
0.67964017 0.3408865 0.1115538 460808
0.68133384 0.343362 0.11052264 723204
0.68319118 0.34584528 0.11011843 2231300
0.71133286 0.37799853 0.1098424 1054015
0.71296096 0.3796882 0.11010216 3551559
0.71566021 0.3811968 0.11047475 4077606
0.71761584 0.38300163 0.11103401 6968913
0.72064799 0.38524523 0.11032569 1509391
0.72219962 0.38817346 0.11144748 1050904
0.6759569 0.33968306 0.11014405 526863
0.68104678 0.3437328 0.11005877 854275
0.68198615 0.34738767 0.10858823 2624518
0.70692909 0.37469107 0.10924748 1777199
0.70849252 0.37660727 0.10867987 2499402
0.70980364 0.378472 0.10808711 2304054
0.67253804 0.339946 0.10768582 1248041
0.67578292 0.34252727 0.10670418 2561280
0.67619717 0.34393263 0.10731234 921098
0.679259 0.34673578 0.10922115 1051652
0.68231064 0.351697 0.1065447 4328719
0.68309087 0.35245472 0.10580513 3935254
0.70831287 0.38003069 0.1067018 2042164
0.70926309 0.38130531 0.10752773 2237516
0.66938418 0.33960456 0.10613933 5851945
0.67030346 0.34008241 0.10452955 3814189
0.67315698 0.34292904 0.10546749 1445380
0.67447281 0.34641051 0.10479794 3546889
0.67660421 0.34722251 0.10545382 3021064
0.67940855 0.35118133 0.10659157 3740167
0.68077648 0.35157454 0.10643668 4394251
0.68120909 0.35469285 0.10555173 4394780
0.70490044 0.38075739 0.10363446 3296772
0.70546317 0.3826963 0.10497089 3556888
0.66690981 0.33984295 0.10384041 7560985
0.67034054 0.34321871 0.10377967 657415
0.67066944 0.34493449 0.10345852 1511942
0.67263967 0.34613147 0.10402028 1906182
0.67421377 0.34978318 0.10326125 4007177
0.67554498 0.35112065 0.10246634 1642246
0.70619172 0.38395661 0.10166284 1382219
0.66402543 0.34168404 0.103184 8020767
0.66771239 0.34431589 0.10157069 1183492
0.66916651 0.34535363 0.10223139 1577991
0.67661268 0.35320103 0.10100543 3020810
0.70325178 0.38444957 0.10096573 2439698
0.66356117 0.34364372 0.10020825 3417871
0.66531473 0.34507903 0.10026139 1643527
0.67306417 0.35483643 0.10070848 2496782
0.6744892 0.35687831 0.099540189 4332551
0.67658001 0.35916194 0.099290162 4198170
