# .PCD v0.7 - Point Cloud Data file format
VERSION 0.7
FIELDS x y z rgba
SIZE 4 4 4 4
TYPE F F F U
COUNT 1 1 1 1
WIDTH 1127
HEIGHT 1
VIEWPOINT 0 0 0 1 0 0 0
POINTS 1127
DATA ascii
0.63754344 0.591959 0.040895402 1252884
0.63917291 0.59503007 0.04058373 1383457
0.64023268 0.59772712 0.041353285 1317406
0.64212382 0.6008541 0.040978909 1185813
0.64446086 0.60285312 0.040785968 1185301
0.64687037 0.60492313 0.039824367 1447962
0.6484369 0.60790938 0.039351821 1645847
0.6485424 0.6096167 0.038657486 2698794
0.61881471 0.57040393 0.043489277 921618
0.62113029 0.57257104 0.043871343 1579550
0.62194502 0.57511169 0.044275343 1645856
0.62415636 0.5763675 0.044365406 1909024
0.6306783 0.58723271 0.040133119 5919837
0.63272458 0.59012079 0.040193558 2698287
0.63413507 0.59237111 0.04080528 1317405
0.63547796 0.5947777 0.040397286 1383453
0.63662595 0.59748483 0.040123999 1645854
0.63886756 0.5994249 0.038303196 1580573
0.63973093 0.60242623 0.039375007 1646361
0.64215863 0.60470974 0.037670076 1448479
0.64298093 0.60679722 0.039331675 3092528
0.64585793 0.6097793 0.038938522 4211257
0.61307621 0.56721318 0.043005168 1711888
0.61562985 0.569022 0.043050706 1579294
0.61812377 0.57286829 0.044133067 2039326
0.62409294 0.58267123 0.039303958 1842968
0.62628949 0.58590537 0.039874554 1644053
0.62834048 0.58855104 0.039206266 2235929
0.63010162 0.59083509 0.039424777 4210486
0.63211149 0.59328544 0.039075017 3354674
0.63287395 0.59537297 0.038591087 2039326
0.63471371 0.59799802 0.037660778 1645844
0.63712096 0.60068041 0.038725019 1580316
0.63847607 0.60311741 0.038368702 1251867
0.64838469 0.61963278 0.034281135 8223598
0.60990745 0.56540668 0.041386247 1843227
0.61143649 0.56692076 0.042598188 1712147
0.62026536 0.58073658 0.038400352 1645840
0.62105328 0.58300632 0.038397968 1842965
0.62250495 0.58462518 0.038671255 1973789
0.62385201 0.58734715 0.038535535 2039326
0.6259436 0.58952045 0.037918866 1775893
0.62796688 0.59214413 0.038540065 2894368
0.6297245 0.59354335 0.037794113 3617085
0.63182402 0.59937143 0.037775457 1448220
0.63896275 0.61031348 0.035867751 2434856
0.64180344 0.61286193 0.034900606 988180
0.60550708 0.56469762 0.039362371 1909550
0.60728967 0.56591189 0.041046083 1844006
0.61353797 0.57708526 0.037825406 1448215
0.61549813 0.57882661 0.037849605 921865
0.61688286 0.58092391 0.038412631 1053194
0.61923707 0.5838356 0.037962973 1776916
0.62040526 0.58610302 0.037214875 2105630
0.62260103 0.58770591 0.03724885 2171423
0.62424535 0.59063768 0.037902832 1644820
0.63877517 0.61358428 0.034174621 1053976
0.6012584 0.56310666 0.0388152 1909548
0.60336256 0.56460339 0.039949596 1909806
0.60449499 0.56632149 0.040626824 2040878
0.60955405 0.57561201 0.037105858 4473403
0.61140144 0.5775255 0.037345231 2894129
0.61363286 0.57953972 0.036547542 1776152
0.61494321 0.58190203 0.03604418 1316106
0.61650515 0.58412731 0.036255836 1513228
0.61867601 0.58697933 0.037122726 2170907
0.64742386 0.62846404 0.029004216 8486767
0.64870924 0.63035178 0.027972579 8553060
0.59774399 0.56227499 0.038129687 2106158
0.60642391 0.57374561 0.036162317 3223076
0.6071052 0.57599998 0.035488486 3289124
0.60994673 0.57775551 0.035598159 4539463
0.61115915 0.58093089 0.036004841 1842199
0.61275721 0.58389139 0.036136806 789255
0.64272922 0.62619483 0.029180646 7500902
0.59310955 0.55823696 0.036288142 2237739
0.594136 0.55999595 0.036772728 2237739
0.59526283 0.56150901 0.037669063 2237743
0.60119641 0.57040513 0.035391748 2370342
0.60229242 0.572842 0.034697592 2369567
0.60417318 0.57507759 0.034299552 2171420
0.60523921 0.57761151 0.0350914 3289383
0.58892 0.55670804 0.035617709 2172705
0.58980227 0.55924177 0.036138594 2172198
0.5917775 0.56047344 0.036976159 2041129
0.59692276 0.56655258 0.033572912 2371626
0.59707844 0.56910294 0.034159184 2305321
0.59744841 0.5707804 0.033637702 2370085
0.59982628 0.57332432 0.033339202 2566692
0.60059553 0.57610285 0.033766568 2500390
0.58466196 0.55566949 0.034673929 2303787
0.58625156 0.55608493 0.034875095 2172457
0.59144497 0.56510019 0.03248471 2306088
0.59307104 0.56712615 0.033371389 2502951
0.5945363 0.56952518 0.03229779 2501666
0.59585655 0.57208622 0.032677233 2501156
0.59824765 0.57313615 0.032323897 2500903
0.57878774 0.55160642 0.032366276 2304040
0.58061421 0.55353177 0.033095598 2172972
0.58254772 0.55517137 0.034016788 2303787
0.58518946 0.56131804 0.03106904 2568998
0.5878318 0.56318611 0.031856954 2437668
0.58817428 0.56536984 0.032470345 2437670
0.59069562 0.56895596 0.030840337 2632994
0.59259599 0.57077068 0.031396568 2566946
0.59390414 0.57266581 0.032274485 2566946
0.56889248 0.5418365 0.033701897 1579286
0.57534099 0.55077547 0.031591773 2303788
0.57672119 0.55279326 0.03252542 2434855
0.57901108 0.55450356 0.033118904 2238253
0.58130854 0.56044239 0.030834973 2569260
0.5837968 0.56245285 0.031478524 2503460
0.58542418 0.56565338 0.029058635 2764070
0.58701783 0.56748271 0.029722512 2632740
0.5883494 0.56941968 0.030328155 2566952
0.57012033 0.54568559 0.032106578 2434340
0.5718708 0.5486325 0.032420039 2369057
0.57315439 0.55086535 0.032007754 2434858
0.57399184 0.55313462 0.032211661 2566447
0.5786975 0.55859524 0.029930651 2569513
0.58277577 0.5658257 0.028603852 2698280
0.58437175 0.56844932 0.029729366 2698535
0.5705322 0.55370331 0.02795279 2963253
0.57171273 0.55603451 0.028474391 3028800
0.57442236 0.55733317 0.028663278 2700598
0.5755651 0.56068945 0.027814507 2700325
0.57821083 0.56294346 0.027099609 2830372
0.57928538 0.56487244 0.027706265 2830117
0.58085001 0.56612366 0.02819407 2961444
0.56586426 0.54939687 0.026954889 3028256
0.56650072 0.5522579 0.026953816 3028258
0.56850094 0.5537743 0.028149545 2897446
0.56941277 0.55635029 0.028299928 3160120
0.57215011 0.5584498 0.027138531 2961966
0.57339156 0.56120938 0.025779963 2895909
0.57521594 0.56341416 0.0268206 2764837
0.57729721 0.56602603 0.027737498 2698794
0.56331134 0.55078721 0.026576757 2369562
0.5644452 0.5532288 0.026576579 3026979
0.56602883 0.55486894 0.026781857 2961954
0.56873989 0.55740517 0.025191367 2961444
0.5696373 0.56074601 0.025332212 3092775
0.57142502 0.56264192 0.025867105 3093032
0.56082046 0.55031252 0.026494861 1777676
0.56180823 0.55427992 0.025757313 1447443
0.56430054 0.55652291 0.024073243 3093023
0.56615686 0.55878663 0.024378002 3224095
0.56734711 0.56080031 0.025242031 3027242
0.55975133 0.55224925 0.023652911 1381901
0.56082594 0.55498606 0.023722112 2434583
0.54006314 0.58404279 -0.00055611134 788999
0.52951044 0.57139838 -0.0012868047 1117456
0.53501529 0.57979476 -0.001280725 921098
0.53735721 0.58131677 -0.0012578368 723206
0.53871334 0.58291656 -0.0015070438 657926
0.54078376 0.58694905 -0.0018135309 526340
0.54194105 0.58901924 -0.0026321411 526596
0.54376507 0.59143454 -0.0019011497 526343
0.51636386 0.55632567 -1.8537045e-05 2433304
0.52230805 0.56640148 -0.00098699331 1906706
0.52483338 0.56757689 -0.00082707405 1578001
0.52710068 0.56987566 -0.0012208223 1249556
0.5274303 0.57379746 -0.0014853477 1250061
0.52921999 0.57582152 -0.0018135905 856074
0.53105778 0.57821435 -0.0014798641 921352
0.51007438 0.55370486 -0.00080549717 2433304
0.51264352 0.5550437 -0.00058293343 2499094
0.51523143 0.5586741 -0.0019596815 1318162
0.51948678 0.56493866 -0.0011494756 2104340
0.5236389 0.57234144 -0.0030510426 1053456
0.52504849 0.57489288 -0.0029717088 659463
0.50459695 0.54751629 -0.0017585754 2368022
0.50838959 0.55351645 -0.0018924475 2237719
0.50942254 0.55668747 -0.0024605989 2303251
0.51175916 0.55831754 -0.0021694899 2106132
0.51494563 0.56372881 -0.0025346875 1645836
0.51625639 0.56580532 -0.0025901794 2040082
0.51820385 0.56800193 -0.0034528375 1250831
0.52012235 0.57051814 -0.0042229295 987913
0.52196264 0.57385617 -0.0027424097 989450
0.5280543 0.58488035 -0.0062894225 592648
0.50262707 0.54718179 -0.0023046732 2236693
0.50527525 0.55462819 -0.0032149553 1644812
0.50923115 0.56143034 -0.004876852 2237198
0.51091045 0.56241977 -0.0052778125 1644808
0.51135147 0.56435651 -0.0038887262 1842959
0.51561892 0.56787044 -0.004578054 1317387
0.52130002 0.5784409 -0.0073729157 460804
0.52286828 0.57985878 -0.0078553557 1052166
0.52354956 0.58214641 -0.007250309 920837
0.52620685 0.58390737 -0.0080114603 1052420
0.5276804 0.58708817 -0.0077947378 855045
0.52990454 0.58946973 -0.0086141825 1117701
0.53179997 0.59082711 -0.0088479519 1182980
0.53335881 0.59392542 -0.0092881322 920327
0.53327399 0.59728688 -0.0094786286 592133
0.53501928 0.59827578 -0.0096045136 1185039
0.48566291 0.529131 -0.0011811852 1972752
0.48806626 0.53335291 -0.0026941299 2301460
0.49983069 0.54843932 -0.0040304661 1973781
0.50277847 0.55509186 -0.0051962137 1907985
0.50550437 0.55875874 -0.0050063729 2368790
0.5062753 0.56119597 -0.0063131452 2566159
0.50882113 0.56457436 -0.0056442618 2236688
0.51074511 0.56589526 -0.0071212053 2499598
0.51175547 0.56765485 -0.0068266988 1645067
0.51428181 0.57091421 -0.0072319508 1907726
0.51597285 0.57353699 -0.0076685548 1447431
0.51780033 0.57574707 -0.0078187585 1315591
0.51925248 0.57779723 -0.0071374178 1315337
0.52085936 0.57941967 -0.0077013969 1775369
0.52508855 0.589086 -0.010877073 1052164
0.52780604 0.59318268 -0.01108402 986886
0.47522262 0.51707542 -0.00081056356 2367253
0.4817532 0.52776682 -0.0019183159 1841676
0.48293495 0.52989799 -0.0026336908 1907219
0.48616368 0.5327729 -0.0029659867 1973004
0.49471718 0.54682863 -0.0060791373 2631705
0.49660164 0.5503906 -0.0063055754 1973523
0.4997611 0.55657017 -0.006105125 1709578
0.50168818 0.55756164 -0.0067109466 3157785
0.50310588 0.55971271 -0.0069373846 2763278
0.50487101 0.5630495 -0.0071720481 3157522
0.50650287 0.56449836 -0.0066879392 2762768
0.50819194 0.56600851 -0.0081080794 2959895
0.50998288 0.57019281 -0.0073896646 2894352
0.5121035 0.57233369 -0.0076150894 2170639
0.51561344 0.57712793 -0.007719934 2368012
0.51750439 0.5801025 -0.0092944503 1644300
0.51795179 0.58317256 -0.011067748 1184260
0.5195002 0.58461058 -0.011508942 986115
0.52126968 0.58635277 -0.011020899 1117958
0.52285385 0.58821654 -0.010560751 920579
0.52609044 0.59154379 -0.01183939 1118473
0.45774847 0.49754339 0.0029773116 724290
0.45886323 0.49918273 0.0027133226 658497
0.46631926 0.51078433 -0.00057804585 1906446
0.4680976 0.51177293 -0.00056642294 2300439
0.47021705 0.51392806 -0.00096130371 2300951
0.47169086 0.51621735 -0.0017343163 1249542
0.47430253 0.52124137 -0.0026895404 1184262
0.47580713 0.52391618 -0.002705574 1776651
0.47788092 0.52687478 -0.003354311 1907725
0.47974485 0.52722776 -0.0023828149 1907210
0.48611909 0.5371896 -0.0052727461 2697242
0.49310747 0.54845542 -0.0065619946 1644818
0.49484605 0.54948431 -0.0064679384 1776144
0.49628827 0.55204678 -0.0075720549 2894866
0.49745321 0.55689234 -0.0081683993 2433548
0.49769759 0.55791599 -0.0087338686 2631963
0.50075608 0.5611124 -0.0077884793 2895119
0.50291157 0.56373453 -0.0074032545 2829070
0.45502234 0.49598849 -7.6889992e-06 5460795
0.45573875 0.49803156 0.00055193901 2500113
0.45780921 0.50008708 -0.00066763163 1515302
0.46251658 0.50913435 -0.0011233687 1184521
0.46456483 0.50963306 -0.00074124336 1578507
0.46556059 0.5133605 -0.0029355288 329475
0.46691304 0.51564997 -0.0019462109 921092
0.47056997 0.52110142 -0.0030302405 1578766
0.47220534 0.52461946 -0.0026879311 1250054
0.47319588 0.52671236 -0.0044481754 1577994
0.47827825 0.53206718 -0.005038321 2236942
0.48094705 0.53332758 -0.0056396127 2170641
0.4822681 0.53729451 -0.0057300329 2302990
0.48719046 0.5429557 -0.0066082478 2829329
0.48793694 0.54498583 -0.0082737207 2960404
0.49010977 0.54971224 -0.008384943 1578769
0.49240214 0.55362535 -0.0092539191 2961170
0.49523026 0.55667883 -0.0086534619 2367500
0.49767926 0.55828363 -0.0088014007 3421206
0.45261413 0.49688008 -0.0016092658 6904883
0.45293212 0.49932662 -0.00022596121 4539442
0.46002942 0.50966042 -0.003434062 855569
0.46162099 0.51182008 -0.0038841367 855560
0.46758646 0.52211088 -0.0040572882 1709323
0.46956754 0.52453095 -0.0045275092 1906704
0.47033933 0.52743804 -0.0059426427 1841167
0.47414196 0.52908814 -0.0053973198 1972752
0.47477859 0.53121173 -0.0046728849 1908233
0.47834435 0.53744018 -0.0062423944 1645065
0.4830659 0.54469883 -0.0090324283 3026194
0.48435318 0.54785013 -0.0094072223 1709062
0.48684385 0.54874325 -0.0091013312 1973261
0.48817813 0.55103445 -0.0098456144 2763284
0.49058652 0.55353934 -0.01063633 3157264
0.49333379 0.55913788 -0.01022917 2565137
0.49567822 0.56367028 -0.011072874 2829582
0.44846734 0.4958415 -0.0023373961 7891512
0.44982737 0.49815509 -0.0024285316 7299384
0.4505637 0.50017792 -0.0019100308 6772783
0.45752126 0.51037347 -0.0046728849 1907731
0.45966485 0.51292408 -0.0032668114 527110
0.46279946 0.51757431 -0.0066087246 1578756
0.46472895 0.52038968 -0.0063566566 2236424
0.46573192 0.52292621 -0.0064464808 2630661
0.46724698 0.52510184 -0.0077507496 2433038
0.46919939 0.52629626 -0.0079985857 1973001
0.47124431 0.53018916 -0.0092808604 3025169
0.47489876 0.5364542 -0.0094898939 3420181
0.47838685 0.53965902 -0.010465503 3354380
0.48056549 0.5456143 -0.0097392797 2302222
0.48290938 0.54752141 -0.010915756 2828304
0.48447037 0.55157053 -0.010808945 2631437
0.48747632 0.55500382 -0.011644125 2763536
0.49024153 0.5578438 -0.010362446 2102535
0.49063972 0.5598309 -0.011871696 2697229
0.44237143 0.49206206 -0.0043246746 8154676
0.44404352 0.4945212 -0.0047206283 8351547
0.44499853 0.49724513 -0.0039744377 8089141
0.45448464 0.50945967 -0.0065033436 7824954
0.45443887 0.51134288 -0.0061126351 3551252
0.45884365 0.51637477 -0.0067709684 1512971
0.46214551 0.52090687 -0.0060992241 2565130
0.46433929 0.52375984 -0.0075284839 2104327
0.46648782 0.52571094 -0.0079307556 2894092
0.46738374 0.52820975 -0.0090857744 3090966
0.46911764 0.52952605 -0.009499073 2827793
0.47044715 0.5341689 -0.010280728 2827279
0.47269219 0.53665411 -0.011505067 3024659
0.47588754 0.54089141 -0.010335684 2564361
0.47749168 0.54353619 -0.011381567 2959376
0.47840273 0.5475229 -0.011943042 2695431
0.48378417 0.55553561 -0.013326287 2368270
0.48689637 0.5599187 -0.013118446 2499343
0.48740441 0.56204593 -0.013672054 2498827
0.43823534 0.49041256 -0.0055171251 8417587
0.43911064 0.49367869 -0.0042657852 8351542
0.44078273 0.49613783 -0.0046617389 8351548
0.44189748 0.49777731 -0.0049257278 8220983
0.45101535 0.50787663 -0.0082556605 9797952
0.45195881 0.51138955 -0.0074564815 5523485
0.4549354 0.51534694 -0.0083804131 2038791
0.45672771 0.51667976 -0.0074986815 1185285
0.46633273 0.53243303 -0.010024309 2169864
0.47035053 0.53942215 -0.012536883 3091476
0.47375435 0.54295021 -0.012618959 3222542
0.47604308 0.54757565 -0.012867332 2762505
0.435532 0.49284899 -0.00559026 8417335
0.44562468 0.50413656 -0.0087879896 9797441
0.44789287 0.50927329 -0.0093576312 9468471
0.44937295 0.51121646 -0.008339107 8350776
0.45175329 0.51566517 -0.010561109 4865570
0.46551657 0.53694797 -0.012327492 2696717
0.46784133 0.53932995 -0.013098359 3288856
0.47115514 0.54302132 -0.013303936 2893328
0.47332287 0.54744285 -0.013814628 2696709
0.47821015 0.55620843 -0.015259445 1973510
0.4796344 0.55805516 -0.015960813 2236684
0.43234318 0.4913083 -0.0074099302 9732156
0.43453941 0.49362651 -0.0076046586 9731904
0.4370538 0.49502948 -0.0083505511 9797694
0.437471 0.49852598 -0.0094975829 9731122
0.43949065 0.50025672 -0.0092876554 9665851
0.44021347 0.5033766 -0.009272635 9665849
0.4423981 0.50553805 -0.0094165206 9665593
0.4440808 0.50830936 -0.0095961094 9600319
0.44605994 0.51032585 -0.0094243884 9665852
0.4474403 0.5137524 -0.012620687 9402682
0.44849163 0.51651084 -0.011885285 7035962
0.45060399 0.51767755 -0.009735465 3223053
0.4683648 0.54300916 -0.01379782 2827792
0.42939377 0.49246353 -0.0092810988 9665076
0.43181247 0.49451724 -0.0094207525 9730618
0.43412036 0.49628454 -0.0095344782 9731126
0.43494147 0.50004542 -0.0097961426 9797177
0.43632787 0.50229657 -0.0094695687 9862449
0.43781489 0.50344777 -0.009678483 9796656
0.44051498 0.5084942 -0.013151586 9928243
0.44318479 0.51222396 -0.013566136 9862696
0.445292 0.51313072 -0.013051748 9797423
0.44579399 0.51643795 -0.012365282 8548151
0.42670065 0.49044979 -0.0092935562 9467954
0.42990115 0.49647895 -0.012884617 9928497
0.43104297 0.49929792 -0.011770904 9994040
0.43322772 0.49955294 -0.011567533 9928501
0.43521371 0.50266904 -0.012619197 9862700
0.43633682 0.50550556 -0.012737095 9862705
0.43823135 0.50784898 -0.012786746 9862704
0.43939263 0.50975412 -0.013097644 9928491
0.4417024 0.51300472 -0.013208747 9796911
0.44332132 0.51597917 -0.013154447 9797422
0.42356962 0.49232143 -0.012028575 9665832
0.4258472 0.49456012 -0.012752116 9796914
0.42739889 0.4963018 -0.012429893 9862707
0.42884657 0.49961606 -0.012503505 9928497
0.4316988 0.50159127 -0.01294142 9994541
0.43277448 0.50441074 -0.012102723 9928505
0.43464348 0.50715792 -0.012908876 9928494
0.43703014 0.51337957 -0.014195442 9796919
0.43951333 0.51343191 -0.013991296 9731128
0.41934699 0.49077031 -0.012218416 9599788
0.42137536 0.49296495 -0.012373269 9665333
0.42363164 0.49416161 -0.012839377 9796918
0.42492092 0.49823007 -0.012812793 9862699
0.7035653 0.62843424 0.05981648 3882292
0.70636559 0.6311456 0.058932066 3684395
0.69861245 0.62484425 0.059033871 2632486
0.70008886 0.62792981 0.059049845 2961189
0.70186174 0.62947702 0.058845818 3092260
0.70365655 0.63137758 0.058782816 3091745
0.70710218 0.63585007 0.057165623 5394457
0.67639303 0.59640509 0.062850535 2436926
0.6897499 0.6154542 0.059007466 1975586
0.69153011 0.61807489 0.059313118 2172705
0.69317716 0.62072015 0.059147775 2172449
0.6956827 0.62242424 0.058907568 2172193
0.69635665 0.62503076 0.059757531 2501157
0.69849569 0.62788057 0.059213936 2434584
0.69983995 0.63059002 0.056715608 3487525
0.70170605 0.63277662 0.056708753 3487521
0.70399404 0.63497734 0.05718255 4079642
0.7031517 0.63738555 0.056080878 4144425
0.67135596 0.59332669 0.0603441 1712452
0.67249024 0.59430861 0.061382949 1647922
0.68054211 0.60762668 0.058388531 1910053
0.68270767 0.61043245 0.058820248 1844266
0.68435985 0.61201251 0.058814943 1909802
0.68631947 0.61414433 0.059052289 1778467
0.68784463 0.61672288 0.059346199 1909285
0.68968076 0.61876684 0.058200955 2238495
0.68986368 0.62188309 0.057491243 2764316
0.69249851 0.623981 0.056645215 2698274
0.69428754 0.62667465 0.056494415 2764067
0.69675767 0.62882972 0.056633413 2961440
0.69774616 0.63152051 0.056177735 2961188
0.69941187 0.63336444 0.056606174 3355936
0.70092708 0.63717073 0.05595988 3881511
0.66855085 0.5932709 0.060653508 1777713
0.67050791 0.59450161 0.061786354 1778752
0.67554265 0.60490793 0.058273554 2106919
0.67692602 0.60630244 0.058380902 1975582
0.67854643 0.60816848 0.058250546 2238503
0.68044925 0.60968703 0.058669806 2041132
0.682311 0.6135577 0.057613254 2041380
0.68365538 0.61586869 0.056301773 2435621
0.68580705 0.61783481 0.056510746 2369827
0.68808758 0.62043464 0.056653798 2369824
0.68921781 0.62361842 0.056450009 2369568
0.66367543 0.59055722 0.05919987 3751477
0.66565949 0.59268862 0.059600949 1580594
0.67301297 0.60461211 0.057498395 1909287
0.67487371 0.60666519 0.056765318 2237992
0.67676973 0.60924798 0.056315899 2632746
0.67753941 0.61232859 0.055968106 2698791
0.68013203 0.6140703 0.055761814 2501416
0.68156731 0.61574137 0.056669354 2370085
0.68345654 0.61866969 0.056694925 2106915
0.65869045 0.58872706 0.057847083 7041348
0.66134441 0.59015977 0.058631301 4410172
0.66965705 0.60364109 0.05604738 1448729
0.67100519 0.60564882 0.055837274 1776933
0.67283261 0.6084128 0.056095421 2566437
0.67465734 0.61086267 0.054644763 2566439
0.67603403 0.61316866 0.054828405 2501415
0.67780751 0.61509198 0.056079507 2369829
0.65594232 0.5884006 0.057851434 7436374
0.65703714 0.58810562 0.056097329 8225867
0.66317964 0.60081625 0.054905236 1515019
0.66617 0.60181147 0.054771423 1448468
0.66730553 0.6047976 0.054626584 1382685
0.66855228 0.60758311 0.053703129 1908252
0.67051214 0.60860372 0.053544044 1908251
0.67232394 0.61017323 0.053894341 2237223
0.65344727 0.58882064 0.056742311 7765580
0.66152215 0.60011744 0.053919733 3356174
0.6641323 0.60388935 0.053010583 1448471
0.66520858 0.60581589 0.052283883 2039823
0.66730833 0.60809171 0.052366614 1382175
0.66825593 0.6094178 0.053996384 2105635
0.6508919 0.58870888 0.055864573 8422992
0.65869379 0.60045218 0.053399444 4276762
0.65984404 0.60231113 0.051618516 5460778
0.66179699 0.6044364 0.052001536 3223829
0.66357321 0.60661364 0.051405489 2303510
0.65384197 0.59865916 0.05132401 6972464
0.65632284 0.60016251 0.051059067 6972980
0.65727073 0.60364926 0.049566567 5723435
0.65924788 0.60471094 0.050366938 4803106
0.65157717 0.59922218 0.050559759 6972470
0.65382159 0.60217589 0.049591243 5592363
0.65550184 0.6041342 0.048392296 6249263
0.64925915 0.59921324 0.049807131 6841132
0.65106195 0.6040054 0.047784984 5591587
0.652978 0.6052202 0.047509611 6380581
0.64768064 0.60338634 0.044813812 4473654
0.64907533 0.60479951 0.04546386 5722410
0.65115917 0.60616022 0.044530332 5460532
0.63514417 0.58948153 0.045683563 1580592
0.63790995 0.59182328 0.04538846 1646117
0.63919878 0.59366858 0.044865012 1777191
0.64568698 0.6032145 0.044419289 4276788
0.64673746 0.60583419 0.04391104 4538406
0.64959943 0.60674798 0.043487966 5329196
0.6261512 0.5802933 0.045349479 1778738
0.62851799 0.58116162 0.045583308 1581617
0.62858516 0.58493745 0.045829892 1384996
0.63145792 0.58699328 0.045726597 1515815
0.63348174 0.5891068 0.045427203 1580590
0.63498765 0.59176737 0.045580685 1580330
0.63590932 0.59403706 0.045764327 1646114
0.63732433 0.59811187 0.044088244 1974563
0.63945115 0.5981276 0.042559743 1775908
0.64091414 0.60182071 0.042125762 1842468
0.64280677 0.60403627 0.042664051 1974302
0.64588869 0.6058743 0.042849481 4670503
0.64487022 0.60950518 0.042156398 5722933
0.64626825 0.61131191 0.041097641 5920049
0.62014139 0.5768764 0.044966459 2828333
0.62221777 0.57837701 0.04487139 1973798
0.62379372 0.58089465 0.045189381 1778218
0.62549192 0.58373964 0.045406103 1581356
0.63519633 0.5977838 0.041398585 1120536
0.6375832 0.6009388 0.041523397 1448734
0.63883251 0.60303849 0.042161226 1711643
0.64146817 0.60597831 0.041874528 3488549
0.64241815 0.60855776 0.041070342 4735540
0.61362833 0.57039738 0.043897629 1052690
0.6158846 0.57157147 0.044049561 1118479
0.61627454 0.57483709 0.044762969 5392965
0.61836863 0.57609272 0.04473573 5459279
0.62147355 0.58194542 0.044948578 1777701
0.62751037 0.59007323 0.040608644 2303522
0.62840396 0.59301674 0.040691316 1777707
0.62997627 0.59427714 0.040510654 2040365
0.63223243 0.59681547 0.040900648 1317411
0.63386434 0.60070598 0.040536761 1317402
0.63565642 0.60162932 0.039696634 1317658
0.63722205 0.60520458 0.041110277 1710363
0.63955975 0.60679507 0.039013505 1447953
0.63903904 0.61014038 0.038903236 1579033
0.64259452 0.61240739 0.037691295 2894369
0.64613515 0.61495459 0.038155973 7962722
0.61027038 0.56964803 0.043247521 1317905
0.61123264 0.57138634 0.043711185 1250838
0.61305213 0.57372034 0.044297636 1578772
0.62066674 0.58567405 0.039696336 1908757
0.62409723 0.58781236 0.040186644 1710879
0.62427247 0.59112889 0.040006399 1580315
0.62633747 0.59372354 0.039952636 1908507
0.62819493 0.59568465 0.040214002 1711651
0.62935209 0.59918082 0.039222777 1842725
0.63179928 0.60030389 0.039674103 1645600
0.63305223 0.6020695 0.03850466 1383704
0.63491005 0.60566914 0.039157271 1645848
0.63660896 0.60807556 0.038294196 988183
0.63872266 0.61001831 0.038324475 5001778
0.63944197 0.61353827 0.036705017 2499363
0.64130586 0.61391383 0.037058413 6778436
0.60744941 0.56951493 0.042251766 1843746
0.60861832 0.57249731 0.04335928 1711388
0.61787844 0.58457977 0.039308727 1186059
0.61910832 0.58762521 0.039929152 1776920
0.62144619 0.58925271 0.038947403 2302500
0.62258542 0.59338081 0.039216161 1974054
0.62409312 0.59380484 0.038746178 1711130
0.62574542 0.59782958 0.038140178 2040351
0.62762177 0.59836996 0.038054585 2171439
0.6297676 0.60184944 0.038419843 1448478
0.63273764 0.60762328 0.037574053 1120280
0.64178658 0.61998898 0.034011066 7699034
0.60123628 0.56650966 0.040536702 1909807
0.60399413 0.56874526 0.04144311 1975339
0.61015958 0.57861567 0.03912431 725267
0.61296403 0.58067793 0.039025307 790024
0.61409068 0.58359313 0.038779438 1711123
0.61593413 0.58566308 0.038432419 1776660
0.61639804 0.58798534 0.038107872 1776149
0.61977327 0.59012604 0.037811577 2302253
0.62073851 0.59325147 0.038568318 2237222
0.62341946 0.59736842 0.038333833 1645591
0.59818816 0.56532741 0.039641619 1909297
0.59985745 0.56719583 0.040869057 1844268
0.60531712 0.57576382 0.038341105 2501151
0.60704315 0.57699656 0.038511276 2107425
0.60886669 0.57925558 0.037133157 2170651
0.61001509 0.58229506 0.037373185 1117971
0.61164385 0.58395076 0.03710711 1118480
0.612975 0.58720946 0.03720665 1907477
0.61494136 0.59026742 0.0372262 1447952
0.6170817 0.59085023 0.037004709 2105378
0.59497029 0.5635249 0.038725376 2040877
0.59547424 0.56609595 0.039773464 1975086
0.60072452 0.57497072 0.036750972 2436388
0.60286593 0.57563239 0.037401974 2173217
0.60440236 0.57919616 0.03609556 2040340
0.60630369 0.58086705 0.036318064 2237211
0.6078006 0.58337587 0.03650105 986899
0.60907942 0.58701646 0.036226332 1446931
0.58969104 0.56233948 0.03748095 2106665
0.59265661 0.56428945 0.038627803 2040874
0.59899414 0.57478899 0.035638809 2305063
0.60117084 0.57805496 0.034808338 2500643
0.6022312 0.58004504 0.035418749 2303773
0.60423291 0.58274674 0.036216676 1646101
0.58598518 0.55850923 0.035925984 2107426
0.58634919 0.56099772 0.037007511 2238501
0.59396994 0.5716368 0.03487432 2371114
0.59539694 0.5742169 0.034573853 2370342
0.59666657 0.57579798 0.033654451 2500904
0.59849209 0.57790709 0.03438437 2632488
0.60010809 0.58150709 0.034586012 2698286
0.58075655 0.55707836 0.034887075 2304042
0.58293748 0.55978072 0.035751164 2238502
0.58836699 0.56777751 0.033083737 2503209
0.58951914 0.57019007 0.03361237 2502699
0.59100306 0.57209897 0.032666564 2567206
0.59246993 0.57442749 0.033218741 2500901
0.59425139 0.57786876 0.033474922 2632488
0.57709348 0.55659425 0.033838093 2500905
0.57913315 0.55947745 0.035354555 2369323
0.58249408 0.56342447 0.03201139 2437929
0.58464533 0.56580186 0.032372832 2372387
0.58505654 0.56808746 0.033151746 2569256
0.58693761 0.57133448 0.031863749 2567462
0.58854604 0.5735274 0.032235205 2698280
0.56890273 0.54781979 0.033021569 2105885
0.56947088 0.55041152 0.034090638 2171934
0.57354265 0.55578309 0.033125043 2566183
0.57877797 0.56165373 0.031081438 2701095
0.58048004 0.56510073 0.032401383 2569262
0.58244973 0.56843698 0.030626953 2830375
0.58315408 0.57090402 0.030487418 2698792
0.5851754 0.57151133 0.030924737 2632999
0.57102698 0.5543012 0.032998383 2500644
0.57381988 0.56130886 0.029216349 2832433
0.57657361 0.5636645 0.030851185 2701352
0.57836652 0.56745583 0.02901119 2764073
0.57989925 0.56869572 0.029242218 2764328
0.58102167 0.5707584 0.030174792 2764583
0.56888753 0.55834454 0.029375553 3225648
0.57098699 0.5600692 0.02950573 3094324
0.57286322 0.56375194 0.029742062 2898225
0.57562965 0.56732321 0.02799505 2895909
0.5777359 0.56810641 0.028872967 3093288
0.56270099 0.55431807 0.027870178 2370069
0.56643927 0.55629355 0.028649807 3159080
0.56650388 0.55895108 0.027621984 3159589
0.57075429 0.56426334 0.026286125 2961449
0.57229102 0.56588095 0.027062476 3027239
0.57330453 0.56804687 0.027972817 2896166
0.56069028 0.55190074 0.027474821 1842953
0.56382167 0.55687004 0.027364373 2566686
0.56442201 0.56061947 0.02616173 2829857
0.56641966 0.56240928 0.026166201 3289636
0.56826103 0.56427109 0.026411891 3224359
0.56965154 0.56654161 0.0270648 3026984
0.55851364 0.5547123 0.025894403 2039816
0.55972612 0.55664074 0.024807751 2105617
0.56074524 0.55880803 0.02527082 2566168
0.56255591 0.56046224 0.025639713 3158299
0.56426477 0.56302774 0.02605927 3158567
0.54532504 0.59413087 -0.00016087294 789517
0.53410465 0.58055913 0.00075733662 1578257
0.53568649 0.58387381 0.00074839592 1446416
0.53721452 0.58508581 0.00071161985 1314827
0.53869295 0.58829778 0.00076371431 1249545
0.54075944 0.59047341 0.00027245283 789510
0.54282534 0.59277153 -0.00021839142 526600
0.53095871 0.58034277 -0.00023335218 1775632
0.53302526 0.58447284 0.00080668926 1906711
0.5239737 0.57647479 -0.0014742017 1448461
0.52575928 0.57836181 -0.0015349984 1186312
0.52803534 0.57986194 -0.0011690855 1840911
0.52834398 0.58295077 -0.0026544333 1316358
0.53077412 0.58495557 -0.00039726496 1840916
0.51894331 0.57104319 -0.0022783875 1907473
0.52052939 0.57352316 -0.0029081702 2104594
0.52087623 0.57650292 -0.0022577643 1383943
0.52480239 0.57991129 -0.0023928285 1775372
0.52571201 0.58226234 -0.0021333098 1513991
0.52657342 0.5864135 -0.0030219555 1449224
0.50788212 0.55970061 -0.0023752451 2107170
0.51445973 0.57055789 -0.0041486025 2040340
0.51663291 0.57178777 -0.0024858713 2040341
0.51769871 0.57532716 -0.0032794476 1580300
0.52067924 0.58039355 -0.0062016845 987911
0.52356964 0.58420372 -0.0059418082 723976
0.52491951 0.58572102 -0.0059715509 1315595
0.52599239 0.58848315 -0.0062594414 1513227
0.52807087 0.59046209 -0.0069115162 1315593
0.53066242 0.5931043 -0.0078428984 986885
0.53302574 0.59801406 -0.0075268149 723718
0.53465247 0.59961629 -0.0081319213 921096
0.50851536 0.56526321 -0.0045513511 2304788
0.51396316 0.57554352 -0.0063456297 1906962
0.51551402 0.57649159 -0.006788373 1512969
0.51877445 0.57956612 -0.0057463646 1579530
0.51898807 0.58283705 -0.0068813562 2038542
0.52145177 0.58313328 -0.0063810945 1578506
0.52178675 0.58750159 -0.0058703423 1579534
0.5237484 0.58816606 -0.0063396096 1185039
0.52674347 0.59218019 -0.0058862567 1119237
0.5271228 0.59500349 -0.0072073936 2105099
0.52993929 0.59675372 -0.0075523257 1184008
0.53310508 0.60266954 -0.0078266263 1512710
0.53446203 0.60476166 -0.0088023543 1776400
0.50436515 0.5651685 -0.0067551136 1709834
0.50680166 0.56865287 -0.0074051023 2302989
0.50696158 0.57032359 -0.0062036514 1909782
0.51019913 0.57242227 -0.0063943267 2106128
0.5122478 0.57688749 -0.007894516 2368012
0.51377708 0.57787693 -0.0085501075 2565647
0.51608419 0.58004546 -0.0065540671 2105359
0.51617634 0.58417344 -0.0078034997 1578507
0.51900518 0.58550739 -0.0077765584 1842188
0.52110279 0.58762521 -0.0072330236 2434063
0.52465701 0.59220421 -0.010003209 1052931
0.52434373 0.59544611 -0.0093755722 1645063
0.52698034 0.5975228 -0.0099675059 1249798
0.45695168 0.49835041 0.0046246648 1117977
0.45806643 0.49998981 0.0043606758 1117977
0.50199133 0.56507766 -0.0074946284 1644043
0.50304401 0.56855214 -0.0072307587 1778960
0.50753391 0.57086307 -0.0080123544 2697234
0.50730544 0.57359201 -0.0064245462 1449234
0.50943875 0.57699656 -0.0080926418 2302739
0.51056719 0.57857847 -0.0094144344 2170386
0.51326483 0.58193547 -0.0082367063 2368270
0.51506138 0.58392698 -0.0089908242 2301967
0.51699984 0.5853281 -0.01003468 2170635
0.51745057 0.58900309 -0.009553194 2367503
0.52009058 0.59105968 -0.010255098 1841673
0.52190161 0.59510839 -0.0096628666 2039304
0.45458338 0.49920174 0.0029405951 1973008
0.4626874 0.51264429 -0.00057506561 1513222
0.46440884 0.51379591 -0.00054943562 1775884
0.46544492 0.51600832 -0.0013749599 2038291
0.49764779 0.5646522 -0.0087800622 3221022
0.49961883 0.56604898 -0.0084502697 2237458
0.50046504 0.56993258 -0.0087903142 2236936
0.50290531 0.57029164 -0.0087570548 2303245
0.50486451 0.571446 -0.0092248321 2828305
0.50649291 0.57537258 -0.0090254545 2169866
0.50769484 0.57843339 -0.0099436045 1841418
0.51076645 0.58368272 -0.0094513297 2103827
0.5143618 0.58993083 -0.010773242 2302224
0.45217514 0.50009334 0.0013390183 3881005
0.46079594 0.51313639 4.9650669e-05 1447430
0.46317863 0.51583266 -0.0010496378 1381640
0.46579555 0.51928174 -0.003051877 2038548
0.46623632 0.52165449 -0.0038797259 1644549
0.46994203 0.5242002 -0.0027274489 1447179
0.46956396 0.52852744 -0.0032091737 855299
0.47211847 0.52989006 -0.0040373206 1710859
0.49544239 0.56456226 -0.009559989 4141089
0.49834245 0.56678152 -0.0096694827 2236172
0.49945322 0.57017177 -0.008547008 1185552
0.50053233 0.5721972 -0.01035291 3025171
0.50189024 0.57446098 -0.0097529292 2564624
0.50334513 0.57792926 -0.01111263 2039563
0.50502551 0.57935107 -0.010591686 1908234
0.50827342 0.58639461 -0.012228549 2368523
0.50966734 0.58701432 -0.012343585 2434314
0.44753736 0.49770615 0.00026524067 7627586
0.44865209 0.49934551 1.2516975e-06 6904351
0.44976687 0.50098497 -0.00026273727 5259527
0.45795411 0.51225996 -0.0024940968 790280
0.45760104 0.5148499 -0.0022947192 593157
0.46074176 0.5154987 -0.0024289489 1118985
0.46196222 0.52002376 -0.0027605891 1644296
0.46389899 0.52152085 -0.0039735436 1447170
0.46608379 0.52581984 -0.0044158697 1447691
0.46719366 0.52839398 -0.0034404397 1117699
0.47509694 0.53975904 -0.0085849762 1840643
0.48201048 0.55012572 -0.0097127557 1184521
0.48632616 0.55627477 -0.010880649 3221018
0.48809186 0.55783594 -0.011155546 2365964
0.49031135 0.56045997 -0.011246145 2171151
0.49125022 0.56426042 -0.010954261 6112555
0.49276227 0.56477326 -0.011485815 3354390
0.49506709 0.56775224 -0.011789978 2237450
0.49654758 0.57188135 -0.011336446 4208163
0.49856207 0.57250291 -0.011091411 3747869
0.50048268 0.57917243 -0.012701452 1973511
0.50712335 0.58524537 -0.012100458 2170630
0.44467938 0.49941415 -0.0019539595 8088137
0.4542256 0.51299441 -0.0038277507 1446924
0.45783752 0.51835257 -0.0055556297 1841673
0.46035022 0.51967233 -0.0058164597 2564874
0.46301541 0.52527529 -0.0048441291 1381127
0.4628866 0.52801567 -0.0065525174 1248771
0.47241291 0.53823131 -0.0074350834 1053703
0.47366652 0.53987443 -0.0086050034 1184774
0.47752947 0.54540777 -0.0094473362 1842956
0.48251086 0.5551973 -0.011712551 4930090
0.48485216 0.5558809 -0.011218488 3156501
0.48662901 0.5620631 -0.011789262 5390885
0.48992735 0.56364381 -0.011656225 4668443
0.49175432 0.56790477 -0.013467073 2104582
0.49256709 0.56912959 -0.012277782 1580034
0.49571407 0.57314491 -0.011933625 1646086
0.49848542 0.57938927 -0.013348818 1841930
0.44165802 0.49940407 -0.0034104586 8220732
0.45125297 0.51252568 -0.0064119697 6050610
0.45094192 0.5139482 -0.0049526095 3683869
0.45575544 0.51826322 -0.0063165426 1514249
0.45724958 0.52192861 -0.0055280328 2368007
0.45858821 0.52474952 -0.0067279339 2170120
0.46061367 0.5268417 -0.0067731738 1447171
0.46289337 0.52802056 -0.0080085397 2169095
0.46419346 0.52988452 -0.007989347 1906440
0.46536955 0.53383285 -0.008808434 2168837
0.46777165 0.53625524 -0.0093797445 2169607
0.46902394 0.53844452 -0.0090574026 1447171
0.47213334 0.54077059 -0.010271192 1840898
0.47245744 0.54534394 -0.01004833 1380101
0.4740293 0.54637307 -0.010277808 4075795
0.4747507 0.54841971 -0.010810137 6902305
0.47696412 0.55128002 -0.011353254 3945237
0.4803355 0.55321354 -0.011752307 4667932
0.48139688 0.55713302 -0.012349904 1841927
0.48180124 0.55869204 -0.011946797 6706485
0.48425269 0.56048834 -0.012410045 3814172
0.48675182 0.56542969 -0.01321727 1710086
0.48889276 0.56825823 -0.013506711 2040071
0.48974633 0.56993502 -0.013126194 1053957
0.49285394 0.57465047 -0.01466167 1776132
0.43310285 0.49115649 -0.0036293268 8680519
0.43477499 0.49361566 -0.0040253401 8417597
0.43644705 0.49607477 -0.0044212937 8352055
0.43814707 0.49857485 -0.0048238635 8154940
0.44702113 0.51157182 -0.0082343817 8810801
0.44772312 0.51381731 -0.0072345138 7102000
0.45013285 0.51398796 -0.0058490634 3287057
0.45204738 0.51788318 -0.0080453753 1644808
0.45270872 0.51935309 -0.0071101785 1249798
0.45825768 0.52652806 -0.0080627203 2960391
0.46176761 0.53271949 -0.010855138 2499078
0.46320903 0.53444338 -0.01148814 2564879
0.46485835 0.53677535 -0.010497332 2104326
0.46769765 0.54030603 -0.01218915 2564876
0.46938258 0.54145539 -0.011573076 2103555
0.47100419 0.5454371 -0.011565745 5061397
0.47094899 0.54730701 -0.013317943 1841669
0.47717637 0.5541985 -0.013924897 1971971
0.47808403 0.55724072 -0.012790918 1380611
0.48164403 0.56156594 -0.012945116 922884
0.48315832 0.56415069 -0.014490724 2629641
0.48730573 0.5687049 -0.015161037 2236420
0.49012491 0.57492512 -0.015387893 2564621
0.44237372 0.50946838 -0.0087234378 9599799
0.44484866 0.51148164 -0.0088768005 9468464
0.44482625 0.5143373 -0.0082833767 8679992
0.44793415 0.51799178 -0.0099667311 3946270
0.44931448 0.51995373 -0.0086212754 1513480
0.45805395 0.53041387 -0.010550618 2565899
0.45907971 0.53270894 -0.011664391 2170630
0.46126992 0.5379051 -0.01181531 1578242
0.46648178 0.5440948 -0.011598289 6442268
0.46813321 0.5451107 -0.013846755 2367493
0.46789446 0.54798955 -0.014401376 1906692
0.47204888 0.54931641 -0.014377534 2104583
0.47361964 0.55355102 -0.014781654 2366720
0.47529897 0.55488658 -0.014927208 2300676
0.4758355 0.55891699 -0.014780641 4206863
0.47777274 0.56118864 -0.015725493 2760194
0.48057216 0.56306142 -0.016138792 2234627
0.48265266 0.56807238 -0.016009212 3812625
0.42699614 0.49207672 -0.0070339441 9731638
0.4292835 0.49233335 -0.0071460009 9797438
0.43062028 0.49715981 -0.0078926682 9731909
0.43281072 0.49761987 -0.0079084039 9863236
0.43291926 0.4997482 -0.0093842745 9731119
0.43647349 0.50290757 -0.0088487267 9797696
0.43620616 0.50621414 -0.0091410279 9730866
0.43903995 0.50765735 -0.0092362165 9665849
0.44114587 0.51101547 -0.0092253685 9666114
0.44211963 0.51363271 -0.0091261268 9534521
0.4463335 0.51815003 -0.010818481 6049834
0.44622993 0.52002424 -0.0098443031 4406041
0.45904768 0.53720045 -0.011937916 2038023
0.46011549 0.53965753 -0.012625158 2495492
0.46221879 0.5424276 -0.013814747 2234882
0.46434027 0.54515398 -0.014063537 2169860
0.46572226 0.54716206 -0.014318168 1841411
0.46602297 0.55051339 -0.014964759 3681543
0.46891177 0.55234545 -0.01525414 3287043
0.47074741 0.55543917 -0.015942574 2562053
0.42343274 0.48979345 -0.0070926547 9534785
0.42434597 0.49177843 -0.0071983933 9731899
0.4267754 0.49532533 -0.0082466006 9665847
0.42891607 0.49654135 -0.0085758567 9665591
0.43136066 0.49839279 -0.0092312098 9665078
0.43109375 0.50206429 -0.0087714195 9731641
0.43368468 0.50390178 -0.0091468692 9796916
0.43488252 0.50712711 -0.0094394684 9797440
0.4389129 0.51180053 -0.0092331171 9665849
0.4426257 0.51707774 -0.013057828 9140282
0.44453701 0.51851243 -0.011986434 7956529
0.46826565 0.55514175 -0.016147494 2758659
0.42059481 0.49076644 -0.0092455149 9402161
0.42310068 0.49255443 -0.0091522336 9402161
0.42495075 0.49374729 -0.0090845823 9533490
0.42633182 0.49893835 -0.0088958144 9599023
0.42768908 0.50029314 -0.0091458559 9599538
0.42990786 0.5027386 -0.010727584 9796918
0.43132991 0.50608093 -0.013134062 9929001
0.43571591 0.51289499 -0.013662994 9862701
0.43891668 0.51452965 -0.013482153 9797160
0.4394334 0.5178802 -0.013598979 9599796
0.44132322 0.51935637 -0.012740314 8811572
0.41914159 0.49291158 -0.011909902 9599535
0.42051673 0.49495974 -0.011944711 9665573
0.42223123 0.49651989 -0.012061834 9731375
0.4242053 0.49767295 -0.012096882 9862710
0.42583677 0.50266302 -0.012477636 9796914
0.42794698 0.50332612 -0.012328088 9928499
0.4295845 0.50509208 -0.013008237 9928747
0.42987198 0.50954407 -0.013188779 9928500
0.43244463 0.51127267 -0.013560176 9928495
0.43298057 0.51556337 -0.013946056 9862455
0.43547341 0.51697779 -0.014080763 9731121
0.43748942 0.5189926 -0.013384521 9665844
0.41712642 0.49204382 -0.011791825 9599538
0.41836441 0.49613401 -0.012225509 9599544
0.41983938 0.49973458 -0.012426257 9665320
0.42150152 0.50119287 -0.012640238 9862448
0.42353824 0.50201917 -0.012545466 9862447
0.42695537 0.50854999 -0.013242364 9928495
0.67434454 0.59655362 0.064215064 2961739
0.69345784 0.62421978 0.059906006 2369569
0.69506294 0.62618721 0.059961379 2566947
0.69603407 0.62847888 0.059733272 2829605
0.69852763 0.63123614 0.059922516 3421476
0.70003778 0.63527948 0.058641613 4540442
0.70224851 0.63631165 0.058476925 5526058
0.70436943 0.63750696 0.058188677 7499080
0.671229 0.59575057 0.063749075 2829370
0.68431276 0.61537659 0.059936464 1843749
0.68632722 0.61769223 0.060221493 1975333
0.68766141 0.6206885 0.060471356 1909791
0.69040173 0.62249935 0.06018126 2106911
0.69133514 0.62541378 0.059872687 2698274
0.69308197 0.62743151 0.059324384 2764066
0.69474566 0.63074881 0.058665752 3092509
0.69657189 0.63279349 0.058304548 3553059
0.69849592 0.63503027 0.057653725 3684898
0.66752696 0.59458494 0.062974632 2369593
0.67826033 0.60989803 0.05945009 1975594
0.67936516 0.61229795 0.059699118 1909799
0.68120873 0.61436141 0.059843004 1843748
0.68215114 0.61542749 0.059837162 1449502
0.68400031 0.61882603 0.059582591 1909536
0.68598354 0.62051624 0.057619512 2567201
0.6877979 0.62454486 0.058101773 2698525
0.68900073 0.62677962 0.056981683 2369313
0.69074845 0.62860191 0.057875097 2895396
0.69345248 0.63074046 0.057194471 2829605
0.69380337 0.63320917 0.058097243 3026724
0.66270435 0.59185076 0.061617255 1712183
0.66392738 0.59295934 0.061544299 1646909
0.66474617 0.59500384 0.061788559 1712702
0.67350876 0.60835063 0.059447765 1844009
0.67537636 0.61029238 0.059379578 2107436
0.67714095 0.61311865 0.059192419 2041381
0.67929387 0.6150136 0.057322383 2436130
0.68008828 0.6181888 0.057162821 2172707
0.68191785 0.61927104 0.057719946 2566944
0.68346864 0.62287223 0.05746454 2238498
0.68613279 0.62484622 0.057108164 2172704
0.68809295 0.62934458 0.057714105 2697503
0.65787965 0.59089106 0.060664296 2106413
0.66028595 0.59159595 0.060997248 1646380
0.66783029 0.60550165 0.058562219 2040870
0.67017186 0.60702115 0.058112621 2304042
0.6717276 0.60932642 0.057986736 2632748
0.67317057 0.61182588 0.057379186 2698535
0.67509151 0.61404198 0.056777477 2435620
0.67635727 0.61683595 0.057376683 2106917
0.67818344 0.61782283 0.057958603 2370340
0.67995751 0.62171316 0.057032168 2040868
0.655191 0.58937216 0.059197366 4409372
0.65692067 0.58950132 0.059727907 3094305
0.66308707 0.60211682 0.056529999 988945
0.66421789 0.60337216 0.057230949 1448476
0.66641116 0.6054799 0.056854486 1908773
0.66830724 0.60896009 0.056673706 2960680
0.66938853 0.61069643 0.055860341 2632231
0.6717211 0.6127966 0.055899024 2435114
0.65023625 0.58898473 0.057840466 6843709
0.65252686 0.58991367 0.058129013 5791274
0.66019261 0.60210198 0.056715608 988693
0.6624639 0.60531068 0.055246651 1579546
0.66389012 0.60743552 0.054312766 2170907
0.66565853 0.60894459 0.054938674 2237216
0.64746815 0.58713299 0.058137178 6516012
0.64883935 0.58767033 0.058172882 6844214
0.65699363 0.60110646 0.054223359 2829592
0.65908629 0.60317957 0.054317057 1842713
0.66006982 0.60566205 0.054062188 1776919
0.66121709 0.60794139 0.053743303 1711133
0.64488769 0.58949566 0.05585283 5593644
0.6529789 0.60050535 0.053462148 3552541
0.65471041 0.60104913 0.0541749 3290140
0.65592134 0.60552347 0.052730501 2303251
0.65796316 0.60628599 0.053587377 1711382
0.64902914 0.59957278 0.051826537 7170108
0.6508804 0.60052067 0.051893294 6906938
0.65162218 0.60477024 0.051869869 3618825
0.65405768 0.60514301 0.050831735 4144919
0.64706409 0.5989508 0.051787734 7104810
0.64996779 0.60499114 0.049285948 4539421
0.64450061 0.59964216 0.04879272 6843450
0.64573324 0.60357964 0.048208535 3223069
0.64829969 0.60566509 0.04794246 6117922
0.63766646 0.59556949 0.047927439 2368800
0.63822544 0.59871364 0.048599958 2829097
0.63965106 0.5995779 0.048623323 3619125
0.64116484 0.60234463 0.047575116 1184520
0.64349496 0.60596997 0.047351003 3025438
0.64628017 0.60602343 0.047700763 5788707
0.63158035 0.59114856 0.046542525 1383975
0.63388729 0.59351075 0.047593772 1645858
0.63590378 0.59544063 0.04725939 2040606
0.6382286 0.59949839 0.045910299 2894379
0.64050871 0.60457617 0.044646919 3552053
0.64306259 0.60567021 0.044799864 1447185
0.62591481 0.58865827 0.046296895 1383715
0.62819427 0.58966917 0.046479285 1383716
0.63012516 0.59132922 0.047328353 1383453
0.63625664 0.60265911 0.043954253 856843
0.63824761 0.60426581 0.043778062 2105370
0.64153445 0.60687125 0.043533027 5130805
0.64201277 0.60969353 0.042624474 4867113
0.61707962 0.5789836 0.045124114 5656417
0.61946505 0.58007663 0.045317471 2302761
0.62029153 0.58455044 0.045528769 1515817
0.62266052 0.58564365 0.045653403 1515817
0.62473696 0.58714432 0.045558274 1450024
0.63240045 0.60117459 0.042694926 791317
0.63384145 0.6032846 0.042564631 1382675
0.63753504 0.60899943 0.042134166 1776141
0.63968879 0.61021709 0.041365325 2104345
0.64133519 0.61120683 0.040826917 4208949
0.61324978 0.5768016 0.044947624 3684146
0.61487567 0.57956475 0.045108855 5328731
0.6164403 0.58204126 0.045502186 2566465
0.61879432 0.58348185 0.045449436 1580588
0.62813711 0.59891516 0.040586352 1317407
0.63048917 0.6013931 0.041663408 1054237
0.6328662 0.6075747 0.040088236 1711125
0.63536167 0.60899818 0.040525079 1579537
0.63809502 0.61205596 0.038479507 2696729
0.63759965 0.61335522 0.039910078 2894100
0.60693997 0.57200015 0.043033838 1974050
0.60736471 0.574898 0.043883502 1909024
0.60990155 0.57574606 0.044330895 1711896
0.6127733 0.57965511 0.04550451 2896929
0.61988866 0.5907498 0.04065764 1711903
0.62184 0.59347385 0.040813267 1383714
0.62406623 0.59603536 0.041120827 1252632
0.62493843 0.59822017 0.040189028 1514778
0.62644446 0.60140234 0.040248871 1317405
0.62807202 0.6034295 0.039557338 1382941
0.63001323 0.60545427 0.039241254 1382936
0.63159895 0.60810107 0.039520919 1316883
0.6369338 0.61384857 0.037889421 6054203
0.60215878 0.56989664 0.042358756 2041129
0.60457367 0.57190669 0.043068171 1975074
0.60590047 0.57382923 0.043941736 1974823
0.61112899 0.5831365 0.039725542 4145719
0.61370921 0.5872308 0.040060461 1843742
0.61597091 0.58992767 0.040221632 1382930
0.61803412 0.59216255 0.039705873 1974302
0.61888266 0.59385514 0.039633095 1842981
0.62105203 0.59680843 0.039506793 1711651
0.62249684 0.60048932 0.039676964 1448987
0.62431455 0.60098308 0.039181232 1580572
0.62511528 0.60435611 0.038887262 1251097
0.62980229 0.60952461 0.038500786 1185042
0.59889078 0.56898421 0.041832089 1975345
0.59992588 0.57068175 0.042351007 1975344
0.60168046 0.57311773 0.042916834 1975333
0.60469055 0.57824892 0.039005816 1910817
0.60756999 0.580957 0.039193273 987925
0.60817188 0.5838691 0.040121675 3683889
0.61110091 0.58564794 0.039483249 4276025
0.61191756 0.58840811 0.039426446 4144959
0.61368525 0.59028685 0.038673043 2302753
0.6149801 0.59372234 0.038769662 1645335
0.61713934 0.59617209 0.038856685 1974564
0.61916596 0.5967347 0.038407922 1843243
0.6203599 0.59967804 0.039000332 1448993
0.59519255 0.56827545 0.040754735 1909548
0.59703362 0.56856859 0.041258812 1975598
0.60047483 0.57668006 0.037978113 2305064
0.60264909 0.58005565 0.038954318 2041891
0.60514235 0.58202505 0.039741814 1514523
0.60668206 0.58472735 0.037645102 1250062
0.60802782 0.58725101 0.037788153 3222824
0.61008215 0.5893625 0.038172305 4670273
0.61158359 0.59277976 0.037892103 2105639
0.58959132 0.5644173 0.038600087 2106158
0.59129131 0.56524169 0.038775742 1974823
0.59256154 0.56810182 0.039931417 2041137
0.5987196 0.57836556 0.038003087 2305322
0.6009798 0.58146417 0.036485553 2172703
0.60278636 0.58357066 0.036740184 2106392
0.604357 0.58610642 0.036897063 1513239
0.60654247 0.58846927 0.03756547 3485225
0.58592606 0.56370836 0.037660241 2172459
0.58703977 0.56520158 0.038377881 2106666
0.58908641 0.56735247 0.039163947 2105899
0.59559608 0.57719266 0.036217034 2370595
0.59734988 0.58063364 0.035318792 2369831
0.59837592 0.58199584 0.035420954 2501158
0.6001054 0.58448184 0.036192954 2435109
0.58338231 0.56368238 0.037616134 2107684
0.58470678 0.56586391 0.038321197 2303787
0.58921385 0.57475543 0.035295308 2371374
0.59195721 0.57611579 0.035439849 2370598
0.59323722 0.57813966 0.034409761 2435364
0.59512281 0.5805701 0.034738183 2501159
0.5961504 0.58446717 0.034742355 2698026
0.57966483 0.56208944 0.036396146 2303785
0.58418989 0.57036728 0.03380096 2700326
0.5867098 0.57262248 0.034582675 2502695
0.587394 0.57443953 0.033477128 2435882
0.58979726 0.5772686 0.033415437 2632231
0.59133792 0.57974219 0.034170866 2632484
0.5927068 0.58102447 0.033670664 2895146
0.57448733 0.55905104 0.033923447 2500905
0.5759266 0.56136906 0.034698009 2434608
0.58065367 0.56826997 0.03311801 2700329
0.58205271 0.57047921 0.033805013 2831908
0.58439499 0.57321548 0.032909453 2699048
