# .PCD v0.7 - Point Cloud Data file format
VERSION 0.7
FIELDS x y z rgba
SIZE 4 4 4 4
TYPE F F F U
COUNT 1 1 1 1
WIDTH 1149
HEIGHT 1
VIEWPOINT 0 0 0 1 0 0 0
POINTS 1149
DATA ascii
0.67561197 0.60271102 0.084473699 2764087
0.6816138 0.61655694 0.080018789 4407625
0.64933866 0.57020336 0.09298113 7567218
0.65405339 0.57551605 0.089670986 7697254
0.65658021 0.58199286 0.089284271 2960938
0.65859836 0.58198184 0.088579208 3553590
0.66614592 0.59523553 0.085210711 2632756
0.66748375 0.59700471 0.084310442 2830394
0.67015404 0.60050696 0.085480541 3027259
0.67801744 0.61618388 0.079531521 3289650
0.67939478 0.61719793 0.079344481 3487029
0.65496445 0.58163494 0.087459356 5526597
0.66190857 0.59425235 0.084047288 1909552
0.66392648 0.59631872 0.084124058 3027522
0.66830635 0.60412049 0.080936998 1778740
0.67011124 0.60702872 0.081246704 1910825
0.67194909 0.60913455 0.080462903 2240042
0.67355239 0.61170369 0.079678744 2305579
0.67523521 0.61395442 0.079999357 3027233
0.67666507 0.61505091 0.079791337 3093026
0.65028095 0.58085245 0.086122125 6710104
0.65205234 0.58144009 0.086204916 6776153
0.65829432 0.5927484 0.083420545 1580076
0.66259974 0.6011616 0.080243677 1449768
0.66428626 0.60287023 0.080146044 1910324
0.64613944 0.58070898 0.085645109 6775890
0.64798659 0.58109951 0.084416121 6249295
0.65258336 0.5896219 0.082471341 3751222
0.65462267 0.59075373 0.082664579 2566945
0.65608567 0.59505862 0.080671638 1779491
0.65654117 0.59656012 0.081365615 1842499
0.65917885 0.59841514 0.080771118 1383733
0.66123486 0.60008818 0.080467016 1384734
0.64091736 0.57470763 0.083734661 1315898
0.64405859 0.58026665 0.085355014 6644049
0.64523202 0.58292961 0.082289547 5460822
0.64690226 0.58620447 0.082189649 5921104
0.64936554 0.58754539 0.081719786 5921617
0.65054697 0.58922756 0.081280857 3027760
0.65269738 0.59232372 0.081206828 1713698
0.65470839 0.59404457 0.080858618 1779491
0.63536835 0.57229137 0.083668441 1448238
0.63631237 0.57404482 0.082910746 1513264
0.63777018 0.57534254 0.082609385 1512757
0.63988978 0.57933086 0.08262828 3815471
0.64236414 0.58013272 0.082133561 3223351
0.64508897 0.58699822 0.080823869 5131079
0.64666629 0.58836478 0.080296069 3619124
0.64710885 0.59115833 0.080147892 1975338
0.64917868 0.59340125 0.080174536 1778990
0.63200128 0.57119411 0.083295614 1186356
0.63310331 0.57319486 0.082475454 1382704
0.63695288 0.57687962 0.083749324 2368058
0.63759583 0.57913554 0.081093639 2500399
0.6432029 0.5869444 0.080081552 3947061
0.64507926 0.58999568 0.0808191 1910576
0.62910265 0.57094842 0.082434997 1383732
0.63481909 0.58021313 0.080979079 3157304
0.63826317 0.58691406 0.078031033 3288645
0.64065158 0.58761102 0.078041106 2697270
0.62418228 0.56741846 0.080746338 2104118
0.62611592 0.56932378 0.081414446 1645615
0.63187724 0.58099228 0.078780323 1842730
0.63811421 0.58836418 0.077631205 1250849
0.61998397 0.56612229 0.08012484 3222084
0.62185073 0.56799209 0.080963954 2696788
0.62335825 0.57053965 0.081175312 1580089
0.62577826 0.57476014 0.07734184 2171955
0.62853086 0.57855856 0.078211173 1711664
0.62979496 0.58024204 0.077505261 1777200
0.63292468 0.58319217 0.076446205 1579304
0.63322717 0.58656037 0.075656563 1118481
0.63472909 0.58827537 0.075838834 1711156
0.63599199 0.58881146 0.07523039 856105
0.63696253 0.59209287 0.073383063 3092271
0.63836277 0.59475791 0.073547751 3684946
0.64076775 0.59812862 0.071358174 3684430
0.61557406 0.56538117 0.079243764 1776688
0.61722964 0.56572855 0.079523668 1644588
0.61942762 0.56879628 0.08090125 1974083
0.62273049 0.57433039 0.077056929 2171441
0.62343246 0.5773105 0.077905819 1908784
0.62605906 0.57886273 0.077485189 1777715
0.6278984 0.5852862 0.074423179 1183785
0.62996578 0.58696729 0.074059457 657942
0.63267964 0.58914798 0.07250306 1251873
0.63905942 0.59769881 0.071099252 2829396
0.63957006 0.60048753 0.071906775 6776917
0.6074965 0.5564754 0.079268619 921111
0.60996717 0.55749822 0.079480693 1447714
0.61056751 0.56197304 0.079504535 2105909
0.61201799 0.56351537 0.079192922 2171957
0.61354661 0.56413674 0.079275414 1974841
0.61528236 0.56892049 0.076183185 2171938
0.61721164 0.56975555 0.076203391 2763816
0.61871123 0.57328522 0.076922581 2368822
0.62750852 0.58722806 0.071674392 1053467
0.62900174 0.59130561 0.071983486 1382181
0.63111556 0.59228134 0.071345359 1513514
0.63304383 0.5941487 0.071608931 3221281
0.60420048 0.55470181 0.079279825 723987
0.60505968 0.55688417 0.079527721 1841697
0.6055063 0.56025183 0.079100952 2433059
0.60802275 0.56101185 0.079349443 1447712
0.61142677 0.56757075 0.075976297 2829617
0.61309606 0.56831336 0.075934574 2500654
0.61475718 0.57211566 0.076700196 2172198
0.62438405 0.5860371 0.072442278 1512485
0.62547481 0.59009594 0.071481153 1187101
0.62805229 0.59094751 0.070964023 1121566
0.62972379 0.59546793 0.070353597 2892316
0.6337055 0.60069805 0.070392638 4868196
0.60138273 0.55444491 0.078579888 855843
0.60257649 0.55785054 0.079475328 2696748
0.60607421 0.56196648 0.075792298 1973268
0.60641176 0.56558675 0.076091394 2105117
0.60920537 0.56700695 0.075810656 2697523
0.61149687 0.57134348 0.076202676 2434869
0.62127519 0.58478051 0.071032569 1777971
0.6208033 0.58731985 0.069564089 1710096
0.62391865 0.58883047 0.070698962 1779238
0.59721148 0.55423474 0.077522263 1514027
0.60195643 0.56095415 0.075538799 2170656
0.60359329 0.56428552 0.076299354 4078125
0.60971481 0.57453763 0.071846053 1844514
0.6115495 0.57498813 0.07154505 1909307
0.61254448 0.57859385 0.071045622 2106707
0.61454999 0.58071935 0.070604131 1711446
0.61644298 0.58277714 0.070089921 1975607
0.61871463 0.58592993 0.069585487 1908511
0.61915338 0.5883503 0.069952473 1844011
0.62062007 0.58956301 0.06861423 2041637
0.59234273 0.55003732 0.075963661 2500668
0.59324771 0.55210441 0.076351508 2238006
0.59439218 0.55381781 0.076905534 2237744
0.59796524 0.55996293 0.075207338 1644057
0.60589129 0.57282388 0.07075803 1778721
0.60778546 0.57370245 0.071343526 1975324
0.6097886 0.57804048 0.071491823 1909814
0.61125892 0.58091229 0.068804905 5262157
0.61242193 0.5817194 0.069659993 3290669
0.61330062 0.5855267 0.068222091 2304051
0.6159569 0.58714586 0.069105193 1974827
0.62380177 0.60031366 0.066390261 2565147
0.58876097 0.54917496 0.075497493 2697538
0.5896889 0.55125809 0.075766131 2566462
0.59069085 0.55298489 0.076252565 2435390
0.59408277 0.5586161 0.073661134 2631720
0.60404247 0.57583708 0.070808575 1844267
0.60697097 0.57842577 0.068446442 2829351
0.60937881 0.58013487 0.069137022 3025195
0.60954022 0.58397162 0.068886384 2960685
0.61142045 0.58474904 0.068554267 2501687
0.61392707 0.58855486 0.066903815 1644324
0.61535674 0.58965129 0.066695854 1710373
0.58584136 0.54877859 0.074947998 2501185
0.58716178 0.55220491 0.075765654 2435645
0.59061933 0.55781406 0.072610721 2961202
0.59185833 0.55991226 0.073968157 2895408
0.60014975 0.57302952 0.068092987 1580297
0.60116029 0.57442176 0.068396434 2170655
0.60297304 0.576446 0.068589196 2827569
0.60410094 0.58071291 0.06816195 2763306
0.61023957 0.58782172 0.064757571 1644324
0.61135423 0.58946884 0.06521295 1644324
0.58180004 0.54861426 0.073921427 2501181
0.58583272 0.55584282 0.071429476 3158585
0.58861572 0.55733556 0.072372362 3092534
0.59060681 0.56336582 0.068615839 2433336
0.59632617 0.57131577 0.067004964 1184769
0.59731644 0.57251263 0.068487152 1186305
0.60716146 0.58776784 0.064202771 1512738
0.57581198 0.54407221 0.072248861 2698050
0.57682234 0.54808635 0.07268773 2763592
0.57866061 0.54856229 0.072977886 2566469
0.5807476 0.55350274 0.070435151 3158584
0.58245313 0.5549525 0.071124002 3158584
0.58425349 0.55649173 0.071926877 3158585
0.58967191 0.56657898 0.068406984 1515057
0.59215856 0.57009268 0.067111775 1448483
0.59462494 0.57093632 0.066963658 1184260
0.59451407 0.57459289 0.066510841 1905175
0.60103542 0.58579659 0.062995657 1315610
0.60352188 0.58693194 0.062010154 1054496
0.57282513 0.54422969 0.071320817 2698559
0.5747726 0.5481655 0.072138116 2829636
0.57626587 0.54912382 0.069617912 3290171
0.5776931 0.55272782 0.070207164 3158840
0.58482313 0.56356436 0.06581597 3549964
0.58623272 0.56555545 0.066940114 2960938
0.58872861 0.56774986 0.066650555 2566187
0.59004277 0.57028961 0.066020355 1710629
0.59427887 0.577797 0.062263057 1186347
0.59780079 0.58238596 0.062924609 1381408
0.59961802 0.58464062 0.063239917 1315866
0.60204625 0.58936805 0.062641427 1054496
0.56953263 0.54411572 0.070465252 2698816
0.57194322 0.54723084 0.071848258 2763841
0.57374126 0.54934561 0.06891261 3421496
0.57451177 0.55222648 0.069782421 3224889
0.5834676 0.56374609 0.065748498 3158317
0.58289695 0.56661397 0.065814599 2500891
0.59208149 0.57606977 0.062595651 1186612
0.59126806 0.58090091 0.062375709 1315376
0.59275049 0.58207989 0.062146947 1446945
0.59418035 0.58317637 0.061939046 1381408
0.56627226 0.54363805 0.069692954 2764861
0.57141358 0.54950172 0.068445966 3355704
0.57232124 0.55247915 0.069564447 3421751
0.57723832 0.55761623 0.065829143 3028541
0.57721746 0.56102943 0.065360889 3289650
0.57907695 0.56136113 0.065132603 3289650
0.57977086 0.56532276 0.06480144 3289652
0.58411175 0.57180262 0.06108366 2302755
0.58991551 0.57976812 0.062635407 1446961
0.55856216 0.53634143 0.068851158 3158079
0.56019408 0.53933924 0.068035766 3092290
0.56176651 0.54205787 0.069330737 3027006
0.56445861 0.54304343 0.069475517 2830396
0.56614333 0.54597551 0.067089066 3487286
0.56621671 0.55006832 0.067149445 3553084
0.56862175 0.54987586 0.067668065 3421245
0.57341868 0.55919683 0.064345524 3028541
0.5751673 0.56140333 0.064536259 3224395
0.57702667 0.56366444 0.06402199 3289663
0.58004218 0.570099 0.06326209 3355192
0.58275938 0.57066983 0.061343476 6513507
0.58189327 0.57541853 0.061144158 1581917
0.58365238 0.57606512 0.060226187 1775910
0.58544326 0.57827842 0.060551867 1710117
0.58756334 0.580042 0.060167357 1775910
0.5551973 0.53496236 0.069772169 2302763
0.55675024 0.53768969 0.070089683 3027255
0.55860251 0.54004794 0.069461271 3092794
0.56101358 0.54613537 0.065792903 3552827
0.56347126 0.5460254 0.066290602 3487289
0.56404787 0.54958701 0.066963002 3552827
0.56770378 0.55365574 0.063974664 3684408
0.56892228 0.55768365 0.063952133 3094071
0.57096231 0.55879664 0.063150629 3028022
0.5750047 0.5676558 0.061738774 2698805
0.57688898 0.56965065 0.060711369 1319197
0.57972389 0.57196236 0.060222968 6972804
0.58049864 0.57427865 0.061269209 4345223
0.55633545 0.54123253 0.065286919 3618870
0.55690497 0.54474372 0.065741643 3553334
0.55910176 0.54542619 0.065834686 3683901
0.56165028 0.54953486 0.066454932 3553339
0.56382763 0.55185968 0.062907502 3226430
0.56518757 0.55611557 0.062705025 3618615
0.5699721 0.56376398 0.061699137 3486529
0.57273877 0.56929618 0.059135363 1845541
0.57670593 0.57338071 0.059164509 2235708
0.55381465 0.54118514 0.065929875 3223857
0.55493724 0.54363215 0.065970287 3553588
0.56190145 0.55490911 0.062906012 3815744
0.56405604 0.55558413 0.061900012 3684657
0.5644803 0.56042278 0.060995571 3159853
0.57134771 0.56818151 0.059369192 1911334
0.55995464 0.55751151 0.060115449 3750201
0.56646168 0.56549239 0.056772821 2631720
0.56866634 0.56890535 0.057611331 1911334
0.55629039 0.55486536 0.059100561 3684157
0.5582056 0.55559951 0.058685295 3750201
0.56559557 0.57024121 0.056573562 2042920
0.54763293 0.54564285 0.059768312 1909777
0.55387843 0.55857182 0.058549158 3488061
0.55575854 0.55934942 0.058216982 3750201
0.56212181 0.57045317 0.054867737 2501680
0.54843438 0.55468512 0.057005875 3685944
0.55092525 0.55590367 0.056842856 3553848
0.55759656 0.56888121 0.05280482 2304552
0.55872536 0.57062876 0.053213708 2042920
0.54247272 0.54825461 0.05560898 3225406
0.54289454 0.55188936 0.057142012 1777427
0.5457148 0.5530557 0.056643777 3028034
0.5532968 0.56536871 0.053480498 3092271
0.55543792 0.56713587 0.053163342 2960668
0.55052036 0.56615072 0.051712148 3158064
0.51712376 0.58031416 0.03048956 1774087
0.51830631 0.58259869 0.029555138 1511174
0.50932312 0.57399839 0.030181348 2299911
0.51070464 0.57593471 0.029573798 2891529
0.51280427 0.57750231 0.028921422 4140042
0.51438272 0.5801639 0.028882202 2957579
0.51908737 0.58555406 0.028340574 1314574
0.51869905 0.58721066 0.028153118 2499624
0.50051618 0.56488651 0.031149864 1116935
0.50177264 0.56710964 0.030640662 1248002
0.50396818 0.56897157 0.0301162 1773829
0.50638545 0.57064903 0.029902875 2496519
0.50796944 0.57226259 0.029248774 3482376
0.51004392 0.57919204 0.026383579 4008970
0.51131773 0.58168858 0.026522398 3352579
0.51310217 0.58340943 0.027283844 1971976
0.51452029 0.58560979 0.026131745 2629640
0.49212259 0.5554862 0.031299174 985863
0.49350056 0.55818886 0.032037675 919816
0.4957127 0.5597747 0.030941188 1117187
0.4977755 0.56147152 0.031109929 1379590
0.49891794 0.56346726 0.03157562 854284
0.50612909 0.57741469 0.026736975 2168836
0.50868279 0.57977867 0.02718699 2103044
0.46998441 0.52426398 0.039744027 920842
0.48323315 0.54637372 0.033740222 1249042
0.48520112 0.54897237 0.032914698 1117449
0.48757708 0.55154008 0.032037258 920577
0.48895752 0.55287403 0.03168422 920322
0.49040794 0.55441636 0.031372368 1051655
0.49560401 0.56542611 0.029023707 1446154
0.49752274 0.5682621 0.027570784 1445636
0.49992681 0.57073653 0.027839303 1971212
0.50151789 0.57225287 0.027299285 2299909
0.50316328 0.57594132 0.026851773 1511431
0.46719864 0.52379054 0.037784405 724995
0.47788361 0.54301894 0.032621928 1314830
0.47962627 0.54429001 0.032455452 1183241
0.48090568 0.54623479 0.03306628 1314834
0.48587823 0.55464226 0.029291395 1774855
0.48745146 0.55776191 0.029452447 1775627
0.48982769 0.55825281 0.0297218 1249284
0.49142456 0.56223625 0.028396074 1446153
0.49371213 0.56411749 0.027940869 1708808
0.46357828 0.52294606 0.036810108 1051904
0.46463135 0.52459484 0.036394484 854528
0.47202218 0.53835076 0.03221447 985867
0.47536519 0.54061145 0.032089002 919819
0.47510123 0.54271936 0.033285625 2169889
0.48214307 0.55366397 0.02813739 1577477
0.48385024 0.55527437 0.030189876 2367770
0.49048334 0.56713563 0.02667946 1315330
0.49217561 0.56952858 0.025060713 920064
0.501306 0.58394086 0.021155119 3750958
0.45890468 0.52045298 0.036251254 921102
0.45995778 0.5221017 0.03583575 1117698
0.46101087 0.52375042 0.035420187 1051904
0.46402168 0.5297035 0.032016285 920068
0.46781281 0.53563976 0.032449074 1314832
0.46983385 0.53624421 0.032749422 1117454
0.47169274 0.54251105 0.029837914 1972754
0.47433281 0.54460627 0.029199127 1512202
0.47594166 0.54610091 0.028617922 1511431
0.47866535 0.55058271 0.02923787 1709580
0.47984108 0.55281675 0.028085832 1446408
0.48819318 0.5684517 0.02272797 2101783
0.49146286 0.57567823 0.023108363 591616
0.4934966 0.57592773 0.021791399 2232586
0.4992286 0.58352393 0.021456063 3815708
0.44886896 0.51139623 0.036970861 920842
0.45052594 0.51383293 0.036399432 592137
0.45205292 0.51622355 0.035796888 659201
0.45363265 0.51869667 0.035173543 396833
0.45521232 0.52116972 0.034550317 461588
0.45687792 0.52381647 0.033149131 1051653
0.45869988 0.52669859 0.033319004 1709326
0.46056437 0.52736259 0.032255895 1051397
0.46162754 0.53076679 0.032413252 1577741
0.46419764 0.53305149 0.032750972 1380889
0.46509382 0.53520209 0.030800529 1314828
0.46784145 0.5404492 0.030186184 2499357
0.47343618 0.54824394 0.029327217 2367520
0.47542292 0.55157042 0.027827326 2038805
0.48067895 0.56241709 0.023539666 396577
0.48327133 0.56654501 0.023625974 1117194
0.48620051 0.56775397 0.02309138 1379328
0.49162933 0.57450044 0.021263242 1380099
0.44461647 0.50956261 0.036245771 263680
0.44566965 0.51121134 0.035830326 328448
0.45445579 0.52195364 0.033336706 1117191
0.45642695 0.5266552 0.033884175 2038804
0.45884621 0.52983218 0.032887228 1972504
0.46151942 0.53394753 0.029758878 1775374
0.46106476 0.53690851 0.030488618 3157286
0.46339184 0.54090565 0.028661855 2959908
0.47864953 0.56145477 0.02300084 988180
0.47984156 0.56410557 0.022180382 1248778
0.48154438 0.56538665 0.022594634 854787
0.48483509 0.57083386 0.021503333 1841152
0.44094357 0.50863576 0.035292402 197888
0.44199672 0.51028442 0.034876898 263680
0.44585878 0.51554269 0.03183604 788225
0.44691479 0.51780725 0.03339047 1249287
0.44874215 0.52057916 0.032414503 1248775
0.45154095 0.52203715 0.032538243 1183240
0.45162719 0.52547991 0.03077377 1709846
0.45705941 0.53418112 0.028768428 2301466
0.46114895 0.54063314 0.027671523 2039315
0.4662292 0.54798543 0.024956532 1445907
0.46785665 0.54991359 0.024940081 1708311
0.469405 0.55394202 0.023429401 1578498
0.47169682 0.55523634 0.023182575 1118727
0.47285441 0.55830556 0.023012582 987151
0.47406071 0.56026626 0.022137109 856064
0.47663087 0.56205511 0.022191707 1577742
0.4797762 0.56868267 0.02060217 986115
0.4817763 0.56913579 0.02024937 1050368
0.44242489 0.51445937 0.032151118 920066
0.44410348 0.51640868 0.033230312 920579
0.44765034 0.52414674 0.030567002 1249792
0.4501169 0.52669847 0.02925409 1512461
0.45248038 0.52850825 0.028828096 1381635
0.45345154 0.53134787 0.028116532 2038287
0.45464927 0.53364301 0.027102716 1708302
0.45827645 0.53894067 0.025468834 1181990
0.45908538 0.54046398 0.027064987 2433840
0.46047705 0.54455209 0.024190791 1053440
0.46302664 0.54629278 0.024884708 1512982
0.4646492 0.54937094 0.024043448 1575976
0.46745709 0.55332965 0.022320218 1643276
0.46870795 0.55664146 0.022987433 1249027
0.47061381 0.55819702 0.021716543 1445650
0.47445247 0.56239504 0.020667378 987911
0.43614537 0.50762135 0.034027651 459008
0.43718499 0.51050866 0.032476142 788482
0.4392153 0.51236773 0.031521276 1182465
0.43860975 0.51498443 0.032427385 723717
0.44667774 0.52292836 0.029043209 1053184
0.4463371 0.52611655 0.028315853 1775116
0.44949636 0.53024554 0.027315866 2169096
0.45116153 0.53246838 0.026598644 1186057
0.45180908 0.53535312 0.026369046 1577737
0.4540689 0.53802454 0.025850244 1381390
0.45675325 0.54340822 0.023931988 1053198
0.46165058 0.54885125 0.02448947 1315613
0.43194574 0.50587016 0.033281878 2634287
0.43268323 0.50851107 0.031911865 1117964
0.43462071 0.50999856 0.031413391 1708047
0.44062236 0.52235776 0.028037678 1314820
0.44212142 0.52358264 0.027912568 1185544
0.44337285 0.52658504 0.026993584 920584
0.44649306 0.52842772 0.026811313 1315848
0.44866383 0.53397274 0.025434684 2497300
0.45271435 0.53732055 0.023955651 1577488
0.45376775 0.54223883 0.023517795 1381658
0.4557718 0.54212689 0.02237726 1250067
0.45962927 0.55046964 0.020252772 1116936
0.42762157 0.50559759 0.031830266 6312002
0.42867461 0.50724638 0.031414703 3943453
0.43001232 0.50916302 0.030376926 3548958
0.43433782 0.5186522 0.027489614 658178
0.43640012 0.52044284 0.02682538 986114
0.43768415 0.52219743 0.026814174 1117699
0.44003516 0.52406675 0.026191067 1051910
0.45593926 0.54937261 0.020265408 1315346
0.42068383 0.49955982 0.032164887 9007684
0.42178953 0.50129098 0.031728521 9073477
0.42336926 0.50376409 0.031105176 8547379
0.42494893 0.50623709 0.030481949 7560730
0.4269371 0.50794142 0.028806463 7231289
0.43237993 0.51840186 0.026186775 1643781
0.43503982 0.52113551 0.025805246 1973252
0.41321939 0.49269769 0.03270705 9204039
0.41479903 0.49517071 0.032083824 9137752
0.41585222 0.49681944 0.03166832 9072713
0.41748455 0.49937493 0.031024173 9073224
0.42101124 0.50444227 0.027579263 9663788
0.4227747 0.5076465 0.027676299 9269556
0.42438662 0.5096094 0.028479055 7626053
0.42765737 0.51565462 0.025137261 3747098
0.42908376 0.51781589 0.025295153 3353630
0.43043464 0.51933366 0.02511479 3749414
0.4334991 0.52433747 0.02289344 2168072
0.40936914 0.49316695 0.031068582 9204277
0.41544011 0.50127256 0.027596369 9597993
0.41791323 0.50335252 0.027196184 9663273
0.41941273 0.50851691 0.027421787 9466673
0.42467731 0.51600999 0.024048164 6576698
0.42640206 0.51745027 0.024026826 6973254
0.40902069 0.49718857 0.027852196 9663265
0.41151848 0.49914968 0.027524669 9597485
0.42210963 0.51547503 0.023841098 6838089
0.42479092 0.52024436 0.023569241 1709581
0.42648327 0.52263719 0.021950558 1511943
0.42800611 0.52559245 0.021171466 1313540
0.41624209 0.51150578 0.022100881 9927756
0.4175179 0.51372015 0.022327974 9599311
0.41898751 0.51554877 0.022959664 8349519
0.41290119 0.51237917 0.020949438 9993547
0.40831864 0.50668114 0.020900149 9928009
0.40867037 0.51010722 0.021427412 9861705
0.41061661 0.51165766 0.020960052 9861961
0.69858176 0.60340244 0.098503441 3289408
0.70045209 0.60529667 0.098004848 3420739
0.70163876 0.60701644 0.097247094 3684159
0.68810737 0.59177792 0.09923473 2106689
0.68992126 0.59385973 0.098855168 2041400
0.6922009 0.59652656 0.098769218 2304061
0.69423205 0.59878749 0.098528892 2435387
0.69545746 0.60227162 0.098130673 2829628
0.6812318 0.58678311 0.1000146 1844287
0.68331003 0.5882448 0.099770278 1844289
0.68617213 0.58986056 0.099717706 2041151
0.68686724 0.59442496 0.099855572 2106943
0.68806809 0.5959506 0.099326044 2172729
0.68938529 0.59712684 0.099149197 2369594
0.69971162 0.6128782 0.092277318 4078399
0.69947201 0.61516213 0.093271822 4933702
0.70419455 0.62157047 0.090717942 3882549
0.70600867 0.62157512 0.090520829 3817783
0.67663777 0.5821889 0.099021345 2238534
0.67792368 0.58432722 0.099694282 1975617
0.67988986 0.58572572 0.10011879 1909824
0.69208151 0.60823816 0.093274921 3354933
0.69374704 0.60925061 0.092849284 3420472
0.69601661 0.61179495 0.093174785 3946813
0.69793278 0.61446542 0.093344659 4670274
0.70228422 0.62102109 0.090194494 3289906
0.67212564 0.57996839 0.098991185 2303562
0.67419738 0.58252358 0.099619001 2237770
0.68436003 0.60026419 0.093807369 2698035
0.68691492 0.6030829 0.093578011 2829364
0.68861097 0.60510844 0.093559712 3026228
0.69043386 0.60705662 0.09355548 3092274
0.69893795 0.62200379 0.088260084 3553071
0.66894329 0.57871741 0.098716944 1975101
0.67610025 0.59227502 0.09436062 2435640
0.67886931 0.5938139 0.094007462 2435634
0.67999166 0.59655601 0.094255 2435380
0.6819126 0.59881526 0.094129473 2566708
0.69514191 0.62078667 0.088009149 3421236
0.69759947 0.62453496 0.086247295 4209730
0.66552901 0.57737881 0.097827524 1449028
0.67151326 0.58773118 0.093585044 2895419
0.67163062 0.58991432 0.094844013 2501432
0.67435688 0.59188855 0.094184607 2501178
0.67687422 0.59547603 0.095064312 2435382
0.68829322 0.61489421 0.087461382 2566959
0.69026268 0.61661243 0.087076992 2566961
0.69162542 0.61920565 0.087182969 2699060
0.69298202 0.62214977 0.086258739 3946290
0.69571918 0.62375736 0.086579531 4406071
0.66076958 0.57639527 0.096462578 988210
0.66306257 0.57747471 0.096690208 1119558
0.66737258 0.58670294 0.093450695 2829884
0.66887897 0.5886482 0.093916446 2698557
0.68304956 0.61175752 0.086273879 3092271
0.68439275 0.61334425 0.087068945 2172970
0.68745071 0.61941701 0.086425751 3158064
0.69024473 0.62054205 0.085937947 3354673
0.6575377 0.5753817 0.09604314 1316665
0.66323137 0.58626443 0.092766494 2566965
0.66554856 0.58603281 0.093388826 2763827
0.67296219 0.60025138 0.089016587 2173226
0.67431319 0.6024124 0.088901669 2238767
0.67634577 0.6046589 0.08768484 2370098
0.67747027 0.60778815 0.087188154 2107185
0.67887354 0.6097815 0.086941928 2435629
0.68112791 0.61157125 0.086439937 2501419
0.68117511 0.61577433 0.085909039 2961968
0.68394274 0.61685812 0.085431606 3158064
0.6507194 0.57124364 0.095313936 6381407
0.6528306 0.57294428 0.094898313 5000784
0.65524113 0.57442421 0.094845802 3224119
0.65951669 0.58474064 0.091745704 1974320
0.6615538 0.58501595 0.091984183 2106416
0.66854411 0.59855843 0.088348597 2370353
0.67020655 0.60073823 0.088456422 2435885
0.67272145 0.60326725 0.087537616 2632250
0.67576414 0.60885859 0.087592095 2502705
0.64866585 0.57159239 0.094380528 7302511
0.65603417 0.58310795 0.090880662 1251109
0.65779132 0.58388984 0.090735167 1580078
0.66475141 0.59727508 0.087458462 2567229
0.66649902 0.5991168 0.08610329 2960713
0.66832656 0.59981185 0.085791916 3027259
0.64625531 0.57144749 0.092991143 7434602
0.65238744 0.58266872 0.089522451 2501162
0.66101199 0.595613 0.086531848 2501177
0.66291666 0.59706223 0.085959107 3355454
0.64927334 0.58190811 0.088558406 4276798
0.65556222 0.59292185 0.085546225 1514260
0.65733397 0.5939585 0.086087495 2566958
0.65925676 0.59504414 0.085762948 2961471
0.66296446 0.60393894 0.081839293 1976372
0.66498256 0.60556293 0.081605107 1910333
0.64134222 0.57524788 0.090324253 7500119
0.64513063 0.58056778 0.087822825 6315857
0.65131789 0.59092373 0.085031301 1711917
0.65418422 0.59205067 0.084934741 1646110
0.65545881 0.59782004 0.083060473 1776694
0.65815324 0.6000104 0.082696527 1514806
0.66093576 0.60223973 0.082228869 1515819
0.6414938 0.57970434 0.086730927 6709833
0.6466704 0.58780217 0.084812313 3356206
0.64800173 0.58907872 0.083785146 2633269
0.6498509 0.59022844 0.084531218 1843757
0.6520071 0.59343928 0.082440227 1647905
0.65370667 0.59558856 0.082760841 2104874
0.63754147 0.57547879 0.086902171 4804164
0.63842881 0.5777145 0.085988671 5329992
0.63992846 0.57931381 0.085065097 6446656
0.64363545 0.58865219 0.083380908 4342834
0.64582372 0.58897692 0.083717853 3947319
0.646451 0.59275466 0.081766576 1778490
0.64815927 0.59496677 0.082118124 1516069
0.64992917 0.59717667 0.082376331 2039583
0.63407552 0.57842034 0.084495157 4408133
0.63805312 0.58065063 0.084172696 6052424
0.64014775 0.58683437 0.082972139 4340288
0.64220881 0.58772767 0.082193941 4539192
0.64373136 0.58998656 0.08185938 2172473
0.63239139 0.57846051 0.081830114 1776436
0.63469195 0.58078313 0.082917839 4670018
0.63870865 0.58972985 0.080625504 3551806
0.63027787 0.57897139 0.080907017 1382192
0.63158381 0.58095765 0.082471877 3157567
0.63236278 0.58241248 0.079630047 2104885
0.63643688 0.59038609 0.07875523 6316635
0.62487149 0.57802856 0.079828963 1251893
0.62732095 0.57904786 0.079973683 1186093
0.62809616 0.58262962 0.080026612 1776167
0.63289523 0.58931708 0.077891678 1251619
0.63487816 0.59156865 0.077667922 3420989
0.61691135 0.56759399 0.080824122 1711157
0.6188457 0.574108 0.080287144 1513801
0.62096417 0.57571155 0.079985663 1382972
0.62320948 0.57704115 0.079881355 1383479
0.62428713 0.58050036 0.078770205 1645356
0.62684709 0.58186948 0.078417048 1645356
0.62885886 0.58824795 0.075773284 1381657
0.63111979 0.58978915 0.076147646 2105395
0.63285941 0.59222823 0.077478915 4735810
0.63694978 0.60150546 0.072673589 7369809
0.61312908 0.56691968 0.080114111 2040129
0.614986 0.57168823 0.080397114 1580347
0.61731368 0.57316673 0.080370411 1579843
0.62014711 0.57724679 0.077268109 1909298
0.62025732 0.57952726 0.078412816 1645612
0.62691057 0.58693063 0.076278552 1512988
0.62728322 0.59243655 0.074762151 725785
0.63006538 0.59303111 0.074305564 3287862
0.6089083 0.56516516 0.079783008 2105655
0.6108346 0.5673151 0.080440566 1909051
0.61248893 0.57077175 0.080298945 1711431
0.61698258 0.57741249 0.077285334 1909039
0.62368983 0.58792621 0.075033769 1054496
0.62524182 0.59109086 0.073393866 1054750
0.62718922 0.59146148 0.073061869 922908
0.62955028 0.59659547 0.071981162 6312794
0.63256443 0.59901029 0.070911855 3815763
0.6006887 0.5576123 0.079039916 1710373
0.60237199 0.56202048 0.079618618 6643805
0.60461682 0.56379235 0.079343006 3288885
0.60704529 0.56480813 0.079420313 1776179
0.60801089 0.56968594 0.076193139 2500399
0.60987699 0.57036304 0.076389834 2566195
0.61022466 0.57435375 0.076740608 2172210
0.61280763 0.57559168 0.076646611 2040620
0.62028921 0.58629036 0.073562011 1120289
0.62007123 0.58813477 0.073348626 988707
0.62242496 0.58994913 0.073036715 1055002
0.625709 0.59861487 0.070258841 6113085
0.59841734 0.55787569 0.078179166 1052446
0.59870178 0.56170863 0.07870625 3617591
0.60061109 0.56150818 0.079380319 5656141
0.60152978 0.56396908 0.076071247 5328202
0.60410643 0.56798398 0.076390907 2368293
0.60558891 0.56916296 0.076162204 2236451
0.60739064 0.57293916 0.076699719 2106669
0.61523557 0.58610654 0.072779164 2038833
0.61709321 0.58756459 0.072121665 1514033
0.59396064 0.55650026 0.077790901 2105906
0.59593922 0.55902737 0.078152582 1579304
0.59682828 0.56127614 0.078499004 2039331
0.59860915 0.56311774 0.075879857 4078651
0.60009277 0.56668174 0.07645379 5197141
0.60194159 0.56723303 0.076588318 4078403
0.60729575 0.57819468 0.073005721 1910307
0.60988313 0.58198947 0.071998104 1909810
0.61177397 0.58284271 0.072474822 1450812
0.61278528 0.58620989 0.071166679 1514550
0.62182558 0.60062742 0.068401739 3744281
0.59094423 0.55629653 0.077039167 2369859
0.59304643 0.5601595 0.077960297 2303033
0.59545606 0.56237555 0.075532839 2367777
0.59593779 0.56584775 0.076091215 3223085
0.59795183 0.56640172 0.076173827 4670536
0.60219955 0.57651687 0.072685048 1976100
0.60505915 0.57707512 0.072280332 1976100
0.60787022 0.58218461 0.070318207 2369581
0.60849518 0.58475858 0.070804462 2370602
0.60975373 0.58848143 0.069993779 1776411
0.61229122 0.58939129 0.068002507 2040361
0.61642963 0.59619516 0.066018686 1777959
0.61852407 0.60089183 0.065415248 1317408
0.62035155 0.60158694 0.065103695 2499354
0.58513349 0.55184513 0.075454697 2435903
0.58560884 0.55467731 0.07634519 2435901
0.5881744 0.55564207 0.076567695 2435652
0.58981955 0.55947709 0.073812827 2961207
0.5907523 0.56204057 0.074796841 3026741
0.59280843 0.56260175 0.075014219 2828589
0.59830683 0.57370925 0.06996946 1514253
0.60120916 0.57532012 0.07120274 1515302
0.60218561 0.5799787 0.068577215 2762808
0.60579729 0.58254248 0.069612905 2238510
0.60836279 0.58825922 0.068635508 1778209
0.60888392 0.58993417 0.067297146 1907496
0.61075389 0.59390587 0.067098245 1186078
0.61360937 0.59502882 0.066516981 1580580
0.58208376 0.55224258 0.075077817 2370364
0.58374256 0.55400014 0.076148555 2370365
0.58747441 0.55950737 0.073283896 3092792
0.58734185 0.56211603 0.074153766 2961719
0.59651065 0.57680488 0.069999143 1120544
0.59939164 0.57885361 0.069065019 2236197
0.60186112 0.58447254 0.067776546 2238510
0.60636216 0.58849305 0.066257343 1448728
0.60855985 0.59056807 0.065139934 1644324
0.60892642 0.59321082 0.067409679 1514796
0.61455274 0.60286534 0.063661739 1449250
0.57825422 0.5506835 0.074107155 2435650
0.57953769 0.55399346 0.075090751 2435901
0.58308029 0.5590269 0.072755381 3224120
0.5853616 0.55942845 0.072910652 3158328
0.59256524 0.57391495 0.067304417 2108416
0.59358191 0.57515275 0.068776414 2829135
0.59473079 0.5776403 0.066877529 3285047
0.6000337 0.58377743 0.068087921 2501687
0.61123246 0.60418445 0.062406458 1514539
0.57523406 0.5506022 0.073350176 2632517
0.57763517 0.55453849 0.072912917 2895675
0.57910389 0.55710351 0.071651742 3224376
0.58079505 0.55889493 0.072216138 3224121
0.58711737 0.56866431 0.068281636 2501936
0.58874762 0.57150239 0.068031356 1515805
0.59087652 0.57382476 0.067961141 2829358
0.59349787 0.5800426 0.067508981 3814213
0.59713173 0.58350521 0.06422554 1183773
0.60133839 0.59050548 0.063916251 923166
0.57220042 0.55027264 0.072536394 2763585
0.57521844 0.55583417 0.070485815 3290423
0.57560217 0.55889702 0.071096167 3289911
0.58493835 0.56795979 0.067182764 2894388
0.58388233 0.56925988 0.06677781 3093310
0.58692348 0.57276213 0.068165585 1250824
0.58726561 0.57522631 0.06533359 2693158
0.58992499 0.57746053 0.066499218 4140099
0.59199011 0.58313477 0.063442633 1183773
0.5934726 0.58431381 0.063214049 1183773
0.59564197 0.58776981 0.064135358 1183773
0.59770942 0.58945096 0.06377165 1052688
0.56663501 0.54654998 0.070614561 2698814
0.56840587 0.54891604 0.071494803 2764093
0.57043403 0.55521578 0.069863841 3355957
0.57294756 0.5555082 0.070174858 3290422
0.57725513 0.56546104 0.066675767 3487029
0.57916743 0.56587517 0.06642662 3420989
0.5810917 0.5700894 0.066606268 2632500
0.58230621 0.57201087 0.066719458 2896443
0.58439428 0.57413775 0.065769598 2631969
0.58920783 0.58090544 0.06391035 1054753
0.59063762 0.58200192 0.063702449 1054753
0.56259221 0.54622585 0.06967102 2830401
0.56398314 0.54748851 0.070505187 2830141
0.56510997 0.5492236 0.071100697 2764856
0.5669378 0.55318689 0.067873821 3487293
0.56863493 0.55427885 0.068806693 3356215
0.57529128 0.56407905 0.065359458 3027492
0.57727647 0.56888139 0.066342399 3551820
0.57866663 0.56924558 0.064812645 3289149
0.5798161 0.57114387 0.064910337 3159103
0.58473539 0.57941604 0.061826751 1055267
0.55485743 0.53890157 0.071063861 2171184
0.55636311 0.54173094 0.070222721 2895412
0.55874163 0.54342657 0.069983348 3093056
0.56033653 0.54645562 0.06991975 3027007
0.56156021 0.54799789 0.070717379 3026754
0.565063 0.5540818 0.068117186 3552828
0.56958026 0.56183237 0.064593181 2372927
0.57149243 0.56224638 0.064344034 2962748
0.57249212 0.56647986 0.064181373 3421246
0.57432425 0.56780273 0.064206704 3354943
0.57584494 0.57311743 0.063157007 3290181
0.57963252 0.57902735 0.061069891 1580361
0.5810377 0.58024263 0.060789511 1318696
0.58495218 0.58424485 0.06083934 1382435
0.55765098 0.54774344 0.066538736 3749691
0.55965775 0.54854196 0.066610977 3684410
0.56141227 0.55197871 0.067366347 3618362
0.56386542 0.55629122 0.064222381 3881537
0.56570411 0.56003612 0.06352596 3029045
0.56763285 0.56146157 0.064925179 2701892
0.56862783 0.56506723 0.064425692 2897227
0.57401264 0.57179427 0.062649474 3289915
0.57529551 0.57391042 0.060579702 1186863
0.57781529 0.57677275 0.060754642 2962520
0.55497694 0.54614651 0.066902384 3684400
0.55719578 0.55114698 0.067097113 3684153
0.56195331 0.55587715 0.064471349 3749951
0.56380928 0.55974782 0.063837096 3226424
0.56547797 0.56286228 0.062855646 3160122
0.56668854 0.56713009 0.061438315 3486778
0.56852067 0.56845307 0.061945841 3487032
0.57086903 0.57408828 0.059693083 1713456
0.57513213 0.57926673 0.060240254 2235708
0.5514937 0.54525161 0.067037567 2960171
0.55990171 0.56128955 0.062457256 3292217
0.56234074 0.56470716 0.061021201 3356983
0.564731 0.56638885 0.061718695 3356983
0.56828421 0.57120293 0.059502587 2172459
0.55750751 0.56126148 0.059647076 3488569
0.55930454 0.56248039 0.060133807 3422772
0.56488776 0.57137865 0.057848506 2763306
0.56566256 0.57369488 0.058894806 2433840
0.54773849 0.55264288 0.062300436 2958926
0.55201554 0.55792028 0.058943503 3553854
0.55280709 0.55931759 0.060477607 3488061
0.55562729 0.56048393 0.059979253 3422776
0.55573612 0.56423831 0.059749357 3749950
0.56147367 0.57157594 0.056235962 2370885
0.54825515 0.55636525 0.059607737 3881787
0.55013531 0.55714273 0.05927562 3815994
0.55661225 0.57055098 0.054769032 2042419
0.55802101 0.57288158 0.055393629 2239043
0.54464352 0.55380148 0.058572046 1712423
0.546471 0.55449659 0.058260612 3225662
0.54946572 0.56775969 0.053738646 2896190
0.55131799 0.57011843 0.054074518 2371642
0.55346435 0.57192326 0.053679578 2306092
0.51471531 0.5804826 0.032272935 525841
0.51720589 0.58254081 0.031831205 525839
0.5191673 0.58479488 0.032509446 657416
0.52026933 0.58664834 0.032067895 789767
0.50963759 0.57775092 0.032149732 722962
0.51254994 0.57839191 0.032688737 526092
0.51801163 0.58908886 0.029531356 1973024
0.50117612 0.56771302 0.033689022 1249041
0.50313026 0.57021099 0.032910168 920331
0.50522786 0.57329804 0.031944394 920079
0.50711173 0.57395345 0.032099664 788748
0.50799716 0.57632458 0.032440841 854800
0.51229161 0.58529216 0.028848704 985864
0.51534009 0.58676636 0.028225895 789001
0.51573002 0.58898228 0.029583331 1250064
0.49132726 0.55629003 0.033434987 1117460
0.49332362 0.56057757 0.033847928 2169879
0.49582788 0.56303155 0.033566713 1841431
0.49888599 0.56546617 0.032927811 1183763
0.50500911 0.57944268 0.028094411 1512713
0.50676352 0.58109701 0.028757274 1381129
0.50898969 0.58407056 0.028869987 1183505
0.46894601 0.52554387 0.042190678 1644058
0.48338434 0.54984051 0.034402311 2235679
0.48561895 0.55257785 0.034401059 2301211
0.48812452 0.55499077 0.033961117 1972511
0.48887861 0.55795068 0.034300148 2761769
0.49139023 0.56030732 0.033650875 2301476
0.49723515 0.56916207 0.029690742 1709587
0.49750757 0.57290679 0.030077934 2236452
0.49997887 0.574974 0.029382408 1841940
0.50273687 0.57687986 0.029013336 1644301
0.46412414 0.52183372 0.040999837 1773830
0.46517733 0.5234825 0.040584333 1774086
0.4661777 0.52504873 0.040189452 1315614
0.47786409 0.54688811 0.034206755 2762277
0.48088628 0.54817414 0.034454949 2498851
0.482923 0.55423832 0.034317315 3025186
0.48645434 0.55978549 0.03062332 2696738
0.48870057 0.56023055 0.030861501 2236189
0.49020723 0.56188017 0.030155603 1906968
0.49351919 0.56896544 0.028638422 1512725
0.49314496 0.57057577 0.029747248 3158058
0.47180194 0.54062569 0.033463009 2367773
0.47333705 0.54188704 0.033213444 2302238
0.47357303 0.54507291 0.033937939 3091497
0.47567773 0.54628104 0.033958025 3025957
0.48392349 0.55936718 0.030250136 3156774
0.48652777 0.5655126 0.029707972 3157540
0.4892984 0.56721151 0.029271726 3026212
0.49077046 0.56831479 0.028716508 1973283
0.50033128 0.58478844 0.02301085 658699
0.50410903 0.59196323 0.021825552 527616
0.45784861 0.52175462 0.038739331 1314087
0.45890179 0.52340329 0.038323767 1838869
0.45995483 0.52505213 0.037908204 2036248
0.46782675 0.53752333 0.033941336 2827813
0.47014707 0.53939366 0.033525713 2630691
0.47141469 0.54466707 0.033595867 3025700
0.48083651 0.55583322 0.029100601 2565152
0.48175141 0.55856591 0.030229751 3288871
0.4826321 0.56402028 0.028111819 3618094
0.48598018 0.57002997 0.026750568 2630939
0.49133158 0.57681292 0.024870694 1775887
0.49334189 0.57763654 0.024569631 1249286
0.49822107 0.58903635 0.022002995 1643788
0.50122786 0.59020877 0.021520436 855040
0.44790784 0.51263988 0.039469309 1051661
0.44948748 0.51511294 0.038846023 1117209
0.45104086 0.51754475 0.038233109 1184516
0.45259419 0.51997662 0.037620075 1907997
0.45417386 0.52244967 0.036996908 1380638
0.46166614 0.53500575 0.033367045 2893354
0.46441522 0.53699625 0.033070453 3025187
0.46705693 0.54266858 0.032590874 3025953
0.46911538 0.54458135 0.031760581 3025955
0.47080475 0.54621172 0.02999676 2828070
0.47126195 0.54980266 0.030482717 3354919
0.47248697 0.55179918 0.029475871 3552042
0.47513208 0.55407947 0.028863017 3354661
0.47784445 0.55595303 0.02825034 2894370
0.47773093 0.56048203 0.0281238 3486505
0.48074728 0.56261462 0.027625207 2564391
0.48175058 0.5631606 0.025836233 921887
0.48222113 0.56729436 0.025621716 2828578
0.48512387 0.56846201 0.025097433 1973761
0.48589382 0.57207894 0.023110095 1118208
0.49204305 0.58089894 0.021467507 722691
0.49496454 0.58643281 0.020505846 1118209
0.49838755 0.5878585 0.020157754 788994
0.44369063 0.51091027 0.03876508 855057
0.44474372 0.51255888 0.038349576 854529
0.45314962 0.52546221 0.033599503 2038292
0.45882121 0.53381056 0.033206828 2893599
0.46493673 0.54283357 0.0305999 3354920
0.47882542 0.5630216 0.025571767 857385
0.47868145 0.56643921 0.025290135 791335
0.48185199 0.57072276 0.02288777 1512455
0.48394647 0.5717082 0.023442034 1709578
0.48487642 0.5752908 0.022927109 1379353
0.48776731 0.57973748 0.020863239 985611
0.49208483 0.58526868 0.020380855 854536
0.44031674 0.50946724 0.037002817 591901
0.44136992 0.51111597 0.036587313 723220
0.45071661 0.52381885 0.03366781 2103832
0.45076987 0.52687579 0.033417411 1972787
0.45240912 0.52948087 0.031062376 1055765
0.45404026 0.53321701 0.03221155 2959641
0.45640606 0.53363258 0.03263665 2894115
0.45829427 0.53684402 0.029949374 3354401
0.46221915 0.54285133 0.030039914 3289124
0.46540165 0.54925108 0.027399667 3353646
0.46675965 0.55195796 0.027142771 2365746
0.4693512 0.55504018 0.025243647 2300966
0.4701688 0.55662632 0.026870854 3420206
0.47363845 0.56134313 0.024537567 1908756
0.47459322 0.56400514 0.023321155 1777169
0.47671667 0.56594253 0.025560085 1317936
0.47781023 0.56936681 0.022665445 1315613
0.47986597 0.57037026 0.02319378 1776164
0.48512578 0.57901847 0.021022562 1248782
0.48847288 0.58442605 0.020397905 591644
0.43569329 0.50971097 0.036359921 592128
0.43679908 0.51144212 0.035923615 723482
0.43802676 0.51434904 0.036129609 986644
0.44357914 0.52064854 0.033321686 1906190
0.4455592 0.52348256 0.032257505 1840659
0.44842398 0.52521813 0.032927163 2104332
0.4481661 0.52890325 0.031975098 2630940
0.45046169 0.52911019 0.03139431 1512236
0.45141029 0.53342092 0.030687284 2631706
0.45495808 0.53834456 0.028170355 3091752
0.45717001 0.53972989 0.027480133 2960184
0.45895591 0.54339319 0.028733201 3157536
0.46034592 0.54568654 0.025953062 1776411
0.46217224 0.54756218 0.027435012 3749431
0.4627271 0.55007458 0.026054747 2302508
0.46520349 0.55287218 0.025863357 2564900
0.46710131 0.55471754 0.025000043 1971244
0.47019312 0.55969584 0.024069734 2040606
0.47231767 0.564834 0.023730282 2828835
0.47404778 0.56631148 0.022666816 2300966
0.43491477 0.50766474 0.035894051 66560
0.43678755 0.51418006 0.033521667 723460
0.43878222 0.51667297 0.034028724 1512203
0.44141874 0.5185957 0.033659652 1643278
0.44450802 0.52689719 0.030627917 1644035
0.44647825 0.52921367 0.030372929 2499095
0.44857144 0.53137845 0.030309629 2564120
0.44979903 0.53265053 0.030044626 2959646
0.45212886 0.53644556 0.028746732 2501391
0.45215741 0.53880346 0.027464993 2696993
0.45482275 0.54083371 0.028157063 2434330
0.45578048 0.54409212 0.027019806 2762781
0.45841303 0.54482663 0.026305981 2302755
0.45770553 0.54923254 0.025629885 3289632
0.46569672 0.55825865 0.024179228 3551025
0.47004464 0.56479025 0.023331054 2827813
0.43124166 0.50673795 0.034940496 658785
0.43229473 0.50838673 0.034524873 82
0.4340449 0.51275587 0.033434346 657672
0.4414756 0.52524024 0.029363703 1315860
0.4425337 0.52722216 0.030041944 1907997
0.44417378 0.52909023 0.028615307 2433808
0.44440013 0.53295034 0.028862309 2630682
0.4464511 0.53540272 0.027907323 2696729
0.44948778 0.53634661 0.027315747 2892579
0.45074558 0.54065901 0.025955331 3487029
0.45389974 0.54378593 0.026140459 3881787
0.45565262 0.54706162 0.024568029 2038812
0.45670182 0.55090898 0.022518285 1710371
0.45677114 0.55200273 0.024145849 2763059
0.42797059 0.5081141 0.033073381 2760794
0.4307549 0.51199085 0.032890216 789523
0.43588626 0.52089989 0.029261958 1709837
0.43727231 0.52353758 0.028319608 1185548
0.43910748 0.52647114 0.028630923 2038549
0.4410685 0.52795064 0.028978657 2894115
0.45007318 0.54502171 0.025196206 2631720
0.45471227 0.55053121 0.022715457 2629420
0.42535058 0.50883615 0.031704202 3879274
0.42837155 0.51159632 0.031060115 1051405
0.43067992 0.52021152 0.028256372 1117959
0.43295735 0.52199501 0.028229665 1316617
0.4359453 0.5251869 0.029094052 2300949
0.43545815 0.5270232 0.027444314 989462
0.44426858 0.54150587 0.024451267 3287073
0.44620153 0.54236579 0.024098467 3287073
0.41409507 0.49603838 0.033742502 9269058
0.41514817 0.49768713 0.033326998 9072959
0.41678056 0.50024271 0.032682911 9073218
0.41891304 0.50358135 0.031841472 8810558
0.42051911 0.50609565 0.031207815 8350257
0.42209885 0.5085687 0.030584469 7561238
0.42536515 0.5119105 0.029981449 2760210
0.42738554 0.51941508 0.027696684 856587
0.42953327 0.52071005 0.02781029 200705
0.4327158 0.52597147 0.026428711 1251089
0.40977094 0.49576592 0.03229101 9336100
0.41082409 0.49741459 0.031875566 9334852
0.42241153 0.51230693 0.02888222 5456935
0.42407104 0.517582 0.02538009 4012073
0.42653671 0.5182724 0.026427045 856832
0.41317815 0.5060609 0.026904479 9531950
0.4159807 0.50739658 0.027033523 9466155
0.41665661 0.51182252 0.027295843 9269551
0.41935581 0.51285851 0.027658418 7692336
0.42172167 0.51847231 0.025846317 2630425
0.42491582 0.52559924 0.023473516 329728
0.42783979 0.52677035 0.023016766 855808
0.40799975 0.50201005 0.027549107 9597739
0.41065034 0.50418085 0.027237136 9531945
0.41234732 0.51076615 0.02662237 9466156
0.41450554 0.51117206 0.026964262 9466156
0.41772312 0.51772493 0.024057761 6706496
0.41941482 0.5207088 0.024782375 2897191
0.42077813 0.52147406 0.023091689 1712137
0.42198128 0.52435273 0.024085835 1251079
0.41027361 0.51007938 0.026342589 9531688
0.41413298 0.51472193 0.022296444 9664845
0.41418537 0.51866388 0.022667959 8416339
0.41831398 0.52109104 0.022065237 4339014
0.41122204 0.5145359 0.021881655 9795914
0.40827224 0.51466268 0.021166164 9795913
0.4092645 0.51735908 0.022347111 9730378
0.41044393 0.51917547 0.020028491 9467988
0.41269454 0.52232522 0.020421222 7693409
0.69255519 0.60214925 0.099675745 3093053
0.69626373 0.60630119 0.098595411 3552838
0.68414795 0.59235358 0.10014686 2041402
0.68557471 0.59312987 0.10010508 2106942
0.68696195 0.59807885 0.10015461 2435124
0.68812782 0.59964794 0.099707991 2632759
0.69046116 0.60072166 0.099774927 2829882
0.69268173 0.60395241 0.099690467 3224383
0.69362724 0.6060133 0.098953217 3290434
0.6932056 0.60921282 0.098065108 3619394
0.6785475 0.58852774 0.10061523 1909570
0.68004781 0.59062749 0.10055551 1909819
0.6820839 0.59277457 0.10043702 1975611
0.6836037 0.59526277 0.10068473 2172728
0.68553215 0.59698236 0.10036251 2238266
0.69465077 0.61279356 0.095720023 4867651
0.70262206 0.62241769 0.092501074 4013871
0.67183501 0.58233005 0.099923342 2238028
0.6745258 0.5864253 0.10061094 2040387
0.67715275 0.58931768 0.10093632 1909311
0.67997015 0.59343344 0.10058191 1975862
0.68862104 0.60914183 0.094347745 3354677
0.68998533 0.61135054 0.09485653 3946811
0.69225025 0.61376035 0.093713075 4341307
0.66799396 0.58049083 0.099737495 2172483
0.6691556 0.58262509 0.10040012 2172483
0.67145109 0.58476198 0.10065845 1975108
0.68077457 0.60130703 0.094875067 2632499
0.68221486 0.60247886 0.094511539 2698291
0.6826753 0.6049068 0.09488371 2829108
0.68542004 0.60731047 0.094851524 3223350
0.69187909 0.61925322 0.0905011 4210232
0.66355759 0.57985646 0.099934846 2171973
0.66540921 0.58117026 0.10021415 2172230
0.67313093 0.59434128 0.095033735 2435382
0.67449546 0.5958575 0.095603377 2369589
0.67651784 0.59855157 0.095534652 2435636
0.67918271 0.60052782 0.094968706 2501427
0.6796931 0.60331672 0.09577617 2763317
0.68953019 0.61895949 0.090522021 3486522
0.69141376 0.62050331 0.089468807 3157556
0.65986967 0.57807881 0.0986965 1711672
0.66223317 0.57877678 0.099033087 1908799
0.66768092 0.59130263 0.095636576 2501688
0.6704818 0.59247804 0.095366329 2369843
0.67223227 0.59647948 0.095945209 2435379
0.68256533 0.61421108 0.089487165 2238767
0.68470848 0.617625 0.088008076 2370101
0.68707305 0.61929429 0.088831693 2895417
0.65559012 0.57694149 0.098017782 1382724
0.65718907 0.57777113 0.098141819 1514804
0.66374713 0.58849746 0.094911903 2567478
0.66598618 0.58963346 0.095066994 2501943
0.67398548 0.6049521 0.089724869 2239028
0.67973006 0.61315864 0.089075595 2172962
0.68343627 0.61761552 0.087874979 2632500
0.68456078 0.61938304 0.088593096 3420984
0.65191841 0.57468742 0.097095937 1776965
0.65437663 0.57576966 0.097271711 1381959
0.65966743 0.58701611 0.094176322 2632759
0.66188473 0.58992708 0.095222384 2501688
0.66671747 0.59861362 0.089473695 2436146
0.66841793 0.60329539 0.090700299 2304048
0.67121047 0.6041128 0.090191871 2172977
0.6719225 0.6076104 0.089749485 2107430
0.67448705 0.60886329 0.089067191 2370863
0.6758526 0.61181337 0.087796003 2238759
0.67838126 0.61464918 0.086397022 2764332
0.68084306 0.61981678 0.08634606 3158069
0.64836234 0.5736388 0.09655717 2435644
0.65621299 0.58536333 0.093303591 2369074
0.66527623 0.60080063 0.089044124 2566452
0.66796452 0.60205597 0.08880499 2238764
0.67684513 0.61783701 0.086488813 2764336
0.64394218 0.57349145 0.094275981 5987160
0.64610517 0.572743 0.095344335 5263964
0.65247589 0.5846923 0.092480332 2039855
0.66009253 0.59631395 0.088106006 2698046
0.66130561 0.59961224 0.088864893 2632248
0.66318351 0.60091799 0.088938564 2370100
0.64173037 0.57388771 0.093612105 6382153
0.64811069 0.58313465 0.090960115 1908774
0.65630949 0.59459496 0.087821633 2959648
0.65748161 0.5982914 0.087410241 2763341
0.65939307 0.59959114 0.088747352 2172477
0.63987041 0.57385063 0.093083233 6513476
0.64461493 0.58212471 0.090406686 2566701
0.64972478 0.5922901 0.087257534 1778473
0.65254515 0.59330934 0.087619931 2433840
0.65306407 0.59645522 0.086737007 2960433
0.65571392 0.59772879 0.086954266 2829362
0.63601363 0.57397497 0.091984123 4473399
0.63754892 0.57508838 0.090666622 6185287
0.64080077 0.58070123 0.089170784 4276784
0.64734894 0.59031576 0.08607623 1579804
0.6477648 0.59272003 0.086562485 2172207
0.65100425 0.5948773 0.086005002 2698044
0.63395655 0.57429874 0.091423839 2827835
0.63548815 0.57553375 0.088654667 5527893
0.63736719 0.57927322 0.088279635 5131579
0.64276534 0.58916509 0.085616976 3156790
0.64431524 0.59087956 0.08575967 2040100
