# .PCD v0.7 - Point Cloud Data file format
VERSION 0.7
FIELDS x y z rgba
SIZE 4 4 4 4
TYPE F F F U
COUNT 1 1 1 1
WIDTH 1135
HEIGHT 1
VIEWPOINT 0 0 0 1 0 0 0
POINTS 1135
DATA ascii
0.53030413 0.54198456 0.039580822 2302002
0.53538191 0.54993165 0.036221087 2568016
0.53702712 0.55176127 0.037133813 2501965
0.53934354 0.55461764 0.035948396 2762815
0.54055154 0.55675817 0.035636783 4604772
0.54294109 0.55856448 0.035937309 5985130
0.54404092 0.56171894 0.036576986 2630714
0.52412999 0.53676254 0.037507355 986146
0.52563381 0.53807223 0.037452102 591634
0.52819306 0.54205787 0.035438538 922925
0.52987128 0.54557443 0.035727084 1254201
0.53218448 0.54769313 0.03549093 1976646
0.53263623 0.54961634 0.03509438 2830922
0.53567487 0.55340552 0.033867121 2041418
0.53663868 0.55517507 0.034946024 2303302
0.53849161 0.55866098 0.035295248 3879499
0.52140784 0.53593057 0.036902785 1644339
0.52323771 0.5397324 0.034931779 265520
0.52477711 0.54142475 0.035924256 922662
0.5271678 0.5443669 0.035835385 2966082
0.52797663 0.54713249 0.03444612 1384514
0.52971911 0.54936612 0.033011794 2961224
0.53073198 0.55178034 0.033692122 2961748
0.53321815 0.55385387 0.034003735 2633568
0.53468603 0.5554989 0.034310758 3026770
0.51529616 0.5333066 0.035673857 2960715
0.51771176 0.53503746 0.035850704 2565953
0.51966381 0.53820843 0.03383404 2437201
0.52031213 0.53964782 0.035009027 1187139
0.52271378 0.54394305 0.032513916 198700
0.52469528 0.54490393 0.033025682 2041138
0.52549148 0.54813784 0.033015311 2171454
0.5278495 0.55028856 0.033040404 1712204
0.52949446 0.55264527 0.033406675 2436699
0.51262426 0.53105903 0.034010768 3027021
0.51352942 0.53327048 0.03396523 2830934
0.51532847 0.53619862 0.03297931 2765916
0.51667726 0.53807771 0.033782303 2503515
0.51957488 0.54125881 0.031857193 792406
0.52046013 0.54363304 0.032321572 790069
0.52246183 0.54630798 0.03287369 2040120
0.5063265 0.52777189 0.032631993 3224142
0.50859201 0.52988422 0.033234477 3093070
0.50993782 0.53205132 0.032825053 2765910
0.51162803 0.53509068 0.033078074 2701153
0.51338595 0.53834069 0.033501506 2701146
0.51473403 0.53997284 0.030873418 2306147
0.51680213 0.54220903 0.031163335 2172495
0.51703787 0.54427963 0.031513691 1513283
0.50272024 0.52646106 0.03189975 3158605
0.50428367 0.52855062 0.032945693 3158607
0.50644863 0.53078783 0.032207847 2701146
0.50797534 0.53356236 0.031902909 2569827
0.50983363 0.53606367 0.030163288 1913459
0.51133609 0.53890115 0.030202568 2371948
0.51260072 0.54098958 0.030253768 2830943
0.51410025 0.54352254 0.030887425 2895436
0.4992004 0.52543581 0.031063318 3158859
0.50119936 0.52717638 0.032073081 3158605
0.50583839 0.53472841 0.028945565 2241643
0.50717717 0.53764373 0.029150844 2896739
0.50944948 0.53952289 0.02930367 3355738
0.5110749 0.54267782 0.030140221 3553358
0.49591219 0.52385616 0.030625403 3158862
0.49751842 0.5247637 0.030703962 3158606
0.49873739 0.52803862 0.028028369 2044530
0.50089306 0.53083062 0.028452992 1979248
0.50153047 0.533921 0.028468907 2503784
0.50345904 0.53586912 0.028392911 2962273
0.50489306 0.53784215 0.028784871 3421275
0.48988137 0.51976877 0.02804029 3618121
0.49141663 0.52238691 0.029537261 3289936
0.49363738 0.52461123 0.028506339 2568801
0.49388084 0.52708751 0.028398275 1848179
0.49669272 0.52960217 0.028030396 2372458
0.49778226 0.5320136 0.026838183 3421530
0.49904776 0.53429979 0.027544796 3421530
0.50200665 0.53798044 0.027969718 3618642
0.48598641 0.51816344 0.027317107 3552070
0.48783737 0.52029198 0.028484404 3552330
0.48940757 0.52329618 0.025997639 2110324
0.49078482 0.52580792 0.026735425 1913460
0.49283937 0.52913445 0.025854707 3552859
0.49479699 0.5304693 0.025989056 3421275
0.49523231 0.53277141 0.027066588 3618901
0.48171061 0.51784402 0.026973844 3748420
0.48403233 0.51914644 0.027528763 3617608
0.48487929 0.52327806 0.025743604 2176629
0.48688123 0.52427244 0.026340365 2044789
0.48828316 0.52653319 0.025133491 3356762
0.48995823 0.52891886 0.02530539 3421275
0.49219078 0.53131014 0.026198447 3355234
0.47763628 0.5132466 0.027636349 5717271
0.47874063 0.51510704 0.027224779 4204582
0.48002619 0.51688802 0.026697576 3878208
0.48272723 0.52255642 0.024810553 2241905
0.48473865 0.52563775 0.023973107 3815767
0.48576775 0.52792102 0.024963737 3355743
0.47897351 0.519633 0.022747636 1715565
0.479718 0.52160519 0.023880601 2241650
0.48106602 0.52449584 0.022753537 3815508
0.48286003 0.52573609 0.023612559 3618143
0.47593185 0.52052748 0.022510946 3618373
0.47697562 0.52337921 0.021929026 4011082
0.47879988 0.52444869 0.021704614 3881040
0.47376987 0.52126253 0.020662129 5587492
0.47471219 0.52283615 0.021953702 4404524
0.42635986 0.49799585 0.0081068277 11632953
0.42839572 0.50114501 0.0074919462 11306554
0.42986906 0.50342405 0.0070469975 10847807
0.43101516 0.50618327 0.0073602796 10912572
0.43254209 0.50854516 0.0068991184 10912315
0.42301971 0.49853569 0.0075373054 11633212
0.423677 0.50048667 0.0079635382 11303739
0.42520383 0.50284857 0.007502377 11369024
0.42667714 0.50512755 0.0070573688 11895117
0.4276951 0.50670218 0.006749928 10846780
0.41853338 0.49631631 0.0066545606 11501627
0.42000669 0.49859527 0.0062095523 11567419
0.61772513 0.5881108 0.061181188 2038830
0.62043411 0.5898484 0.061539769 2500922
0.6215381 0.59129274 0.06085068 3355720
0.61340737 0.58657587 0.059212327 987417
0.61438918 0.58811253 0.059826732 1513504
0.61032379 0.58620065 0.056968927 396046
0.61111259 0.5866887 0.058578432 659219
0.60743612 0.58584476 0.057173371 461077
0.60383964 0.58585602 0.055828929 657953
0.60027039 0.58451706 0.053994596 921646
0.60160917 0.58467948 0.055550694 789799
0.59750175 0.58424592 0.053018034 1250101
0.5951134 0.58334571 0.052551091 1579328
0.58841938 0.57928193 0.050568402 2370120
0.59056002 0.58158833 0.050928116 2106951
0.59279013 0.58442038 0.05098033 1776707
0.58128929 0.57343864 0.050285995 7564665
0.58351505 0.57600242 0.050494254 4012366
0.58493662 0.57834685 0.050521791 2500165
0.58661604 0.58031344 0.05091095 2304326
0.57576495 0.57076216 0.049495578 1973296
0.57808501 0.57186097 0.04982698 3025456
0.58069646 0.57649618 0.05069536 6972025
0.58900923 0.58963275 0.045793116 2369864
0.58945918 0.59135073 0.046400547 1777986
0.57328588 0.56979758 0.049017072 2170937
0.58582145 0.58798468 0.045235217 2896200
0.58602417 0.59006304 0.046353996 2106949
0.56580913 0.56190377 0.047796726 4208961
0.5680505 0.56326139 0.047956705 2499895
0.56807613 0.56613493 0.047926188 1776682
0.57016736 0.56860483 0.048341334 1842219
0.58113325 0.58633804 0.043836594 3487300
0.58284044 0.58759969 0.044826031 2829373
0.56104112 0.55966038 0.047094464 5130317
0.562787 0.5621748 0.047521472 6578778
0.56454033 0.56465232 0.048093617 2632237
0.57547349 0.5836525 0.042861521 4868694
0.57722551 0.58488238 0.042601168 6184038
0.57892096 0.58640218 0.043329537 4868194
0.55751514 0.55949295 0.04651016 2499383
0.55897039 0.56154889 0.047438443 3157818
0.56051582 0.56261843 0.047526717 5394006
0.571585 0.58143622 0.041810989 2369082
0.57386696 0.58270234 0.041945815 2959923
0.55194867 0.55613637 0.045291364 1514269
0.55435944 0.55729949 0.045634449 2368823
0.56523246 0.57539046 0.040593803 2236987
0.566082 0.57836312 0.041326523 1644842
0.56877953 0.57974696 0.041329205 2433861
0.56952995 0.58196348 0.042033017 2894407
0.54704857 0.55080342 0.043778539 4667720
0.54823548 0.55377126 0.044986129 1183515
0.5502373 0.55602729 0.04462868 922136
0.55846053 0.56887114 0.040609539 5394524
0.56016421 0.57075292 0.040849626 5592424
0.5610075 0.57337189 0.040574849 3157833
0.56299269 0.57641327 0.041094363 986661
0.56414068 0.57815659 0.040846109 855077
0.54305738 0.55011123 0.043704927 5325650
0.54500592 0.55196953 0.043811738 4733269
0.55363083 0.56761181 0.040108204 3289154
0.55506289 0.56956959 0.039611399 2829637
0.55728102 0.57191277 0.040186644 3947870
0.55919456 0.57435799 0.040240765 4078415
0.53919899 0.54823691 0.042033792 2696250
0.54037911 0.55035013 0.04285866 2893622
0.54537648 0.55639899 0.040944397 2895956
0.55057573 0.56546259 0.039193749 2632005
0.55221325 0.568398 0.038977265 2698062
0.55393225 0.57104576 0.039843917 2173279
0.53515768 0.54781526 0.041428864 3157322
0.53623319 0.5500136 0.0422405 3289164
0.54099226 0.55503941 0.039241374 2830663
0.54209447 0.55738157 0.040053606 2566727
0.54332894 0.55973679 0.038900077 2895430
0.54426152 0.56260419 0.038132727 723496
0.54658097 0.56406528 0.038257539 1118501
0.54761195 0.56656468 0.038146555 1251130
0.54926586 0.56887287 0.038603544 1451351
0.5308131 0.54514885 0.040477097 3091520
0.53336143 0.54639679 0.040782928 3092041
0.53707957 0.55390441 0.037777543 2699348
0.53730822 0.55591542 0.038636923 2502229
0.53953838 0.55832058 0.038253963 3487556
0.54135227 0.56069309 0.037428975 3157587
0.5426302 0.56313455 0.037610769 526902
0.54508221 0.56566894 0.038006544 791103
0.52394027 0.53877354 0.038835824 1709599
0.52621174 0.54154348 0.039839983 5064267
0.52845347 0.54378474 0.040201008 3091508
0.53044742 0.54876661 0.037091732 2108484
0.53287578 0.55181789 0.036965489 2699861
0.53405839 0.55447173 0.036859989 2962261
0.53516012 0.5582189 0.036215186 3420995
0.53686184 0.55876452 0.036403775 2370386
0.53843647 0.56077993 0.036695838 3223632
0.54064286 0.56367809 0.037213624 1381427
0.52007353 0.53834879 0.038175225 1446950
0.52181137 0.54021925 0.039501011 3813434
0.52348322 0.54153281 0.039403617 6576226
0.52644545 0.54792666 0.036843479 3621462
0.5285145 0.5509479 0.037537277 2437710
0.53051078 0.55273545 0.037233531 2635091
0.53149921 0.55523401 0.034556627 3093601
0.53336942 0.55785143 0.035449743 2830431
0.53544742 0.56018114 0.035165608 2829130
0.51649213 0.53662068 0.036830962 2500674
0.51718903 0.53918666 0.038065195 2302516
0.51976818 0.54133201 0.035962999 1515340
0.52178282 0.54479015 0.036242306 5003113
0.52371472 0.54606807 0.036822617 7370640
0.52564311 0.54975557 0.034283936 3421495
0.52696079 0.55146533 0.034115851 2238536
0.52794176 0.55409348 0.034292579 2634072
0.52974194 0.55558497 0.034862101 3028318
0.53074735 0.55788082 0.035323322 2897250
0.51325732 0.53491586 0.036238134 3026509
0.5145216 0.53803122 0.03753072 2960718
0.51687831 0.54014653 0.034537137 2240342
0.5167762 0.54313356 0.03559202 2436951
0.51923674 0.54429394 0.035776913 2435400
0.52039409 0.5472706 0.033223867 3422301
0.52242076 0.54994094 0.033463597 5525090
0.52444237 0.55236697 0.03394866 3092299
0.52585369 0.55428302 0.03427285 2698826
0.50813574 0.5333429 0.035018086 3027022
0.51023513 0.53646988 0.035427272 2962002
0.51227152 0.53802902 0.035321712 2962006
0.51387 0.54088885 0.034558475 2569560
0.51467085 0.54313654 0.032653928 1649511
0.51708317 0.54631644 0.032515168 1579840
0.5185681 0.5493167 0.033331215 4867422
0.5211004 0.5524196 0.033505559 5001353
0.50470352 0.53219724 0.034163952 3092814
0.50769073 0.53750271 0.032910407 2635869
0.51016659 0.54082495 0.033711195 2701911
0.51118451 0.54252571 0.031989694 1847408
0.51273757 0.54522806 0.032020867 2698847
0.51435161 0.54728675 0.031839907 2434879
0.51683104 0.54920423 0.032565713 3485237
0.49986857 0.52757734 0.03250128 3158605
0.50106084 0.53080583 0.033516407 3158349
0.50464201 0.5360595 0.032213569 2570843
0.50523382 0.53822851 0.030655622 1848178
0.50751281 0.5407182 0.030713201 2569061
0.5087474 0.54340959 0.030755103 3093343
0.51108259 0.54559934 0.030914605 3356233
0.49608082 0.52704751 0.031769753 3093067
0.49770784 0.52930236 0.032946229 3158348
0.4990508 0.53270274 0.029469669 1978994
0.5020045 0.53737199 0.030202687 1913714
0.50361693 0.54027551 0.029914618 2962529
0.50567394 0.54243743 0.030184567 3487321
0.49185389 0.52570689 0.030992985 3224144
0.49391189 0.52853757 0.030675113 2568799
0.49520591 0.53186035 0.029729187 1847924
0.49657562 0.53347784 0.029879332 2044276
0.49859911 0.53578579 0.029137969 2503784
0.49966976 0.53783143 0.02843076 3421530
0.50048774 0.53984421 0.029088199 3421786
0.48820901 0.52448833 0.030194402 3158606
0.4900853 0.52710712 0.029527903 2503264
0.49148738 0.53033096 0.029360533 1848177
0.49309379 0.53198534 0.028320074 2700643
0.49439278 0.53424239 0.027493954 3355996
0.49614316 0.53683603 0.028342485 3421528
0.48187727 0.52098078 0.028758705 3552332
0.48443842 0.52245253 0.02901727 3355727
0.48594427 0.52563375 0.030210912 3158097
0.48685899 0.5281176 0.027832329 1848178
0.4893612 0.53075653 0.026972413 2962785
0.49089617 0.53290528 0.027197063 3552856
0.49228454 0.53538215 0.027896881 3487066
0.47750685 0.51722229 0.029029191 5388834
0.47947586 0.51927537 0.028759778 4207421
0.48221093 0.52474052 0.026871085 2176116
0.48376483 0.52680045 0.026291847 2569575
0.48522595 0.52947319 0.02555716 3750222
0.48674583 0.53147018 0.025985062 3355739
0.48887765 0.53375328 0.026505768 3486307
0.4778862 0.52341729 0.024933219 2045556
0.47992676 0.52419472 0.025782824 2111347
0.48162454 0.52800703 0.024354935 3618646
0.48301679 0.53044498 0.025383294 3487320
0.47582287 0.52417505 0.023836851 4208189
0.47749647 0.52640796 0.024127305 3356507
0.47964704 0.52847928 0.024346709 3684691
0.48073697 0.53060871 0.024853289 3355742
0.47247192 0.5234431 0.022176564 6705702
0.47334266 0.5247677 0.023397148 6113574
0.47453368 0.52781171 0.023361385 4010817
0.42795166 0.50907135 0.0079913139 10978108
0.42947847 0.51143324 0.0075301528 10977849
0.42043155 0.50210726 0.0079900622 11305271
0.42195839 0.50446916 0.0075289011 11303738
0.42397428 0.50763923 0.0069548488 10911547
0.42548111 0.51002198 0.0065344572 10846780
0.41338035 0.49597228 0.0079167485 10715699
0.41490722 0.49833417 0.0074555874 10847288
0.41643414 0.50069612 0.0069944263 10911798
0.41796094 0.50305796 0.0065332651 11305271
0.39050728 0.49696583 -0.0046346784 10256209
0.39392009 0.50223285 -0.0049845576 10452554
0.39897394 0.50991327 -0.0049991012 10124113
0.39111111 0.50051165 -0.0048689842 9273711
0.6159234 0.58923221 0.063379884 2565435
0.61868429 0.59087282 0.063619435 3882315
0.62020266 0.59371084 0.062633812 4475985
0.61250544 0.58857536 0.061934471 1775912
0.61295426 0.58978921 0.063045323 2302002
0.60864824 0.58775496 0.061236143 1315869
0.61010057 0.5884763 0.061395943 1512992
0.60656625 0.58649468 0.059939206 789782
0.60291576 0.5869168 0.058357418 658204
0.59963691 0.58535743 0.055582881 526877
0.60028094 0.58685279 0.057340324 658982
0.59709096 0.58621275 0.055241883 1184806
0.59852809 0.58698398 0.056534052 1448494
0.5945276 0.58636957 0.05373764 921892
0.58875978 0.58371347 0.051937819 1645890
0.59092999 0.58529299 0.052071631 1119283
0.5913713 0.58834881 0.052806199 724248
0.58461434 0.58190411 0.051503003 2040642
0.58674252 0.58493972 0.052157104 1053743
0.58866227 0.58832192 0.051733613 198679
0.57839108 0.57511592 0.050515592 5196636
0.57948375 0.57872313 0.051287532 4011361
0.58152395 0.58055437 0.051044285 2762828
0.58863902 0.59327167 0.047342658 329503
0.57296687 0.57196122 0.050080955 2433851
0.57468647 0.5738861 0.050388575 2434361
0.57558119 0.57657337 0.05084002 2566205
0.57793695 0.57785195 0.050974131 3748952
0.58386815 0.58995515 0.047005534 1777725
0.58622527 0.59175843 0.047668517 658992
0.58767009 0.59526694 0.048173487 591650
0.56896579 0.57067233 0.049081922 1447714
0.56996846 0.57276469 0.049830437 2302011
0.57158351 0.57458091 0.050265074 2762311
0.58008528 0.58836037 0.045780182 2632260
0.58167672 0.58989918 0.046570301 1974844
0.56314945 0.56693536 0.048692048 1052698
0.56604242 0.56884432 0.048889458 724246
0.56627113 0.57195181 0.049493015 2038815
0.57656258 0.58628577 0.043886006 5328993
0.57816863 0.58789265 0.045691192 3288661
0.5591923 0.56569028 0.047753513 2302002
0.56097656 0.56596035 0.048246741 1644579
0.57368529 0.58711982 0.043883741 3487811
0.57532203 0.58887744 0.044399977 3420498
0.55223662 0.55890679 0.046219766 2237243
0.55490679 0.56003892 0.046644807 2697791
0.55519944 0.56316912 0.047268152 2763583
0.55751753 0.56477338 0.047400594 2499893
0.56761789 0.58148217 0.042198718 2697792
0.5680294 0.58402371 0.04256916 3025229
0.57033563 0.58582312 0.043147683 3026505
0.5484339 0.55752516 0.046122313 2039066
0.55060595 0.5593915 0.046805084 2105384
0.5528118 0.56216985 0.046913743 3026494
0.55992848 0.57471257 0.04201442 1709867
0.56182921 0.57586801 0.041865349 789530
0.56318462 0.57995516 0.041947722 1643302
0.56462467 0.58212197 0.042239189 2302521
0.56624079 0.58447134 0.042441666 2895167
0.54549402 0.55503011 0.045446038 854557
0.54571295 0.55830622 0.046264946 4865853
0.54913276 0.56363732 0.044720352 5129308
0.55352187 0.57032847 0.040991604 3355718
0.55623031 0.57357812 0.041882575 2697529
0.55764997 0.57602197 0.041547537 1119287
0.55912524 0.57856011 0.041632891 1249835
0.56134301 0.57977176 0.041708946 1774901
0.54192883 0.55436748 0.0444628 1381163
0.54241896 0.55714637 0.045486152 1840672
0.55070758 0.5692572 0.040709794 3486536
0.5519231 0.57219684 0.040817261 2764624
0.55431843 0.57410926 0.040621161 2304586
0.55527544 0.57630318 0.040935099 1449030
0.53579599 0.55217057 0.043188334 2961743
0.53768742 0.55260646 0.043649197 2632257
0.53919137 0.55391628 0.043593943 2105652
0.54091328 0.5600096 0.040332794 1712956
0.54232895 0.56281942 0.041488588 2106695
0.54472184 0.56571454 0.040136755 3683648
0.54675734 0.56831551 0.039803028 2566462
0.54855663 0.57085419 0.039851248 2369866
0.55098408 0.57251763 0.040093005 3223889
0.53036118 0.54758751 0.041273236 3289418
0.53180969 0.5487808 0.042293072 2961739
0.53345591 0.55109268 0.042897701 2961997
0.53785223 0.55929554 0.039930344 2108489
0.53965151 0.56267881 0.039937854 1383222
0.54178387 0.56449419 0.038991511 1513266
0.54284298 0.56657773 0.038954377 3355988
0.54380316 0.56831223 0.038965821 3882074
0.54547614 0.57066536 0.039562345 1647699
0.52638817 0.54569119 0.041478872 4209229
0.52802801 0.54750288 0.041457772 3026496
0.52928662 0.54921865 0.042361557 2961739
0.53322124 0.55610663 0.03937161 2502992
0.53496921 0.55753124 0.039786279 2305363
0.53567404 0.55994236 0.039018393 2501699
0.53786606 0.56299621 0.037711442 1515072
0.539271 0.56545806 0.0380795 1118518
0.54104525 0.56747222 0.038613498 3485780
0.52040863 0.54276073 0.039838433 4668741
0.5229162 0.54445207 0.040734947 6905712
0.52445143 0.54676771 0.041610122 4997715
0.52646154 0.55164319 0.038318157 2437450
0.52896053 0.55366093 0.038695395 2372431
0.5309757 0.5551092 0.039188385 2568791
0.53206521 0.55998266 0.036855638 3619156
0.53339994 0.56121457 0.036830664 2765145
0.53518474 0.56365478 0.037192106 2238535
0.53698903 0.5655458 0.037771404 1054785
0.51678884 0.54132509 0.039040864 2828862
0.51859146 0.54228765 0.039433181 2763571
0.52077085 0.54549396 0.040822327 5195613
0.52204251 0.54801989 0.037575364 5726587
0.52378136 0.54988432 0.037637174 4344682
0.52381408 0.55263591 0.038654149 2568538
0.52824974 0.55803156 0.03570509 3422034
0.53046536 0.56010854 0.036065936 2765663
0.53065443 0.56266791 0.036460996 2633048
0.51424819 0.54062164 0.03845948 3092294
0.5178799 0.54730463 0.03681612 2568273
0.51986915 0.54807508 0.037460089 3949922
0.52069348 0.55064404 0.037896633 3621212
0.5225957 0.55363363 0.034476459 3948645
0.52395952 0.55619228 0.035204053 2896721
0.5262084 0.55831325 0.035385072 2897238
0.52715623 0.56017762 0.035814524 1846371
0.51043618 0.53979796 0.03706944 3092302
0.51208735 0.54214364 0.035082877 2701147
0.51453274 0.54554677 0.035888433 2897501
0.51611388 0.5464226 0.036339045 2831452
0.51707071 0.54995978 0.033829331 3554675
0.51917076 0.5523048 0.03414923 5788785
0.52055436 0.55491835 0.034359455 4867935
0.5042516 0.53463596 0.034960032 3223884
0.50686347 0.53532541 0.035706341 3158093
0.50706172 0.53851372 0.036314845 3092554
0.50826967 0.54085135 0.033746481 2636885
0.50990331 0.54387045 0.034840763 2635612
0.51186341 0.54543555 0.033897281 2372709
0.51358914 0.54813623 0.03366667 2043497
0.51466924 0.55070317 0.033579946 3093076
0.51567119 0.55415547 0.033380806 5130069
0.51834524 0.55537313 0.033947945 6050651
0.50080264 0.53280759 0.034570694 3223888
0.50166237 0.53534836 0.034671128 3289168
0.50365698 0.53731036 0.035565078 3157837
0.50480044 0.53955895 0.033562779 2701400
0.50651026 0.54212999 0.033851087 2439008
0.5082528 0.54544258 0.032793462 1913201
0.50957596 0.54743463 0.03248322 2831199
0.51124597 0.54977059 0.032424629 3421010
0.51318866 0.55242497 0.033293605 3222867
0.49780977 0.53328729 0.033916414 3158349
0.49925467 0.53618944 0.03440547 3224143
0.5029577 0.53863817 0.033252001 2767961
0.50201118 0.54071212 0.032397389 2373220
0.50378501 0.54266346 0.031062007 2962530
0.50566489 0.54576302 0.031737089 3159133
0.50835556 0.54874563 0.032437384 3355233
0.49202728 0.5300023 0.032554686 3158860
0.49464029 0.53117388 0.03299278 3224143
0.49499139 0.53406626 0.033828259 3224395
0.49683842 0.53768635 0.030364215 1978996
0.49876097 0.53810745 0.030234516 1978997
0.50064957 0.54198653 0.030604005 2896993
0.50158149 0.54502773 0.031137466 3421529
0.48822215 0.52944887 0.031336069 3224142
0.4900614 0.5296036 0.032038152 3224141
0.49206221 0.534109 0.030219555 1978997
0.49400544 0.53441024 0.030161619 2044533
0.49473011 0.53752357 0.029656589 2831715
0.49675259 0.54025805 0.029861212 2962787
0.49641371 0.54259086 0.029356599 3290211
0.48415655 0.52459759 0.030108929 3289676
0.48455024 0.52773213 0.030779779 3289166
0.48628581 0.52848709 0.031123042 3223885
0.48835412 0.53217006 0.029023468 1848434
0.48955005 0.53455317 0.029738188 1979252
0.49139607 0.53689402 0.029052138 2896995
0.49248883 0.53937238 0.029078364 3487065
0.494344 0.54204571 0.029600203 3355745
0.47618133 0.51932985 0.029872417 6506788
0.47760248 0.52078891 0.030926585 5258020
0.47903442 0.5230056 0.029716253 3747901
0.48083729 0.52497637 0.030123055 3551559
0.48270172 0.52685779 0.03068769 3420490
0.48375395 0.53027385 0.028389096 1913969
0.48601863 0.53217483 0.028731585 1913968
0.4871316 0.53531957 0.027818739 3159644
0.48875207 0.5378145 0.028040588 3552604
0.47918159 0.52691025 0.027335584 2176106
0.48058856 0.52850908 0.027513623 1979505
0.48378479 0.53326643 0.026153445 3487062
0.48436627 0.53596169 0.026998758 3421273
0.47555673 0.52542192 0.026869178 3817026
0.4767853 0.5270769 0.027053416 2635625
0.47805989 0.52994978 0.025592804 3290457
0.47970897 0.53295511 0.025638402 3553106
0.48186547 0.5356763 0.026733637 3684687
0.47265148 0.52718329 0.024107933 6179883
0.47495967 0.52877355 0.024753869 4405307
0.47592652 0.53128636 0.024962246 3880265
0.4772352 0.53316808 0.025130928 3487063
0.47068462 0.52756423 0.022945583 7362870
0.47177029 0.52943146 0.024361491 6048554
0.41967019 0.50290185 0.0095388889 11305271
0.42119703 0.50526375 0.0090777278 11369531
0.42323291 0.50841296 0.0084629059 10779950
0.42475984 0.51077479 0.0080017447 10780469
0.4262867 0.51313668 0.0075405836 10846263
0.42781359 0.51549852 0.0070794225 10846263
0.41414583 0.49912879 0.0090044141 10781741
0.41567278 0.50149071 0.0085432529 10911548
0.41732782 0.50503719 0.008702755 11043124
0.41847405 0.50779629 0.009016037 10911547
0.42000097 0.51015824 0.0085548162 10846265
0.42152783 0.51252013 0.0080937147 10517555
0.42305472 0.51488191 0.007632494 10583091
0.42458159 0.51724386 0.0071713924 10518063
0.42559952 0.51881838 0.0068639517 10518063
0.41005075 0.49812025 0.008408308 10648871
0.41149354 0.50100946 0.0084121227 10584111
0.41293624 0.50389862 0.0084160566 10716478
0.41446316 0.50626051 0.0079548955 10715959
0.40735829 0.50004268 0.0078975558 10846509
0.41674811 0.52936769 -0.0030223131 10779195
0.41815704 0.5308345 -0.0032049417 10844987
0.42058626 0.53306353 -0.0035224557 11042104
0.42250869 0.53567743 -0.0041638017 11239478
0.42374673 0.5375371 -0.0047546625 11304757
0.41316625 0.52631342 -0.0041975379 10188602
0.41514853 0.52840894 -0.0042675138 9466688
0.40391856 0.51720881 -0.0042566061 10844727
0.40655473 0.52008492 -0.0042828918 8678725
0.40803331 0.52241349 -0.0041475296 9597494
0.41034585 0.52474082 -0.0043478608 9006135
0.41194004 0.52588546 -0.0049488544 8154442
0.39426103 0.50574452 -0.0044105053 10976310
0.39598763 0.50927711 -0.004085958 9796175
0.39682847 0.51143259 -0.0038583279 10581814
0.39910689 0.51361459 -0.0045448542 9072453
0.40070817 0.51586813 -0.0047584176 8809797
0.40317044 0.51832825 -0.0046057701 7364417
0.38541991 0.49740109 -0.0041080713 8944238
0.38759488 0.50027132 -0.003836751 9861198
0.38936454 0.50210607 -0.0040308237 9794888
0.39159843 0.50436306 -0.0042335987 9467727
0.39237645 0.50702494 -0.0040923357 8876364
0.39413637 0.50901353 -0.0037363768 8546876
0.39584094 0.51213509 -0.0047656894 7824449
0.38192758 0.49571809 -0.0041026473 9665370
0.38404346 0.49755493 -0.0039639473 10123334
0.38496441 0.50033551 -0.0038747191 8680806
0.38655919 0.50373673 -0.003731668 8808506
0.37946528 0.49605536 -0.0035234094 9140330
0.61647213 0.59348875 0.06459403 4606552
0.61844748 0.59502292 0.06477803 5068134
0.61274576 0.59141487 0.064500928 3158343
0.61491346 0.59271044 0.064717829 4079700
0.60686141 0.58803093 0.063119411 1513251
0.60983968 0.5901705 0.063956082 2236979
0.60415953 0.58713865 0.06175828 1184285
0.59946173 0.58633512 0.061864853 1774905
0.6016376 0.58717823 0.061438739 987429
0.5972333 0.58649325 0.060033977 6643334
0.59973919 0.58676988 0.059447348 1448497
0.5961262 0.58686632 0.05786711 8880278
0.59367841 0.58866131 0.055865526 9604007
0.59138787 0.58993888 0.054206729 7498631
0.58921599 0.59054244 0.053197443 4604244
0.58182323 0.58374691 0.051700234 1777724
0.58388495 0.58535898 0.051641345 1316656
0.58574975 0.58960027 0.052344859 1250324
0.5872522 0.59110808 0.052064478 2237472
0.57575643 0.58017921 0.05103898 2368323
0.57877803 0.58203471 0.051388383 2236745
0.57859337 0.58645666 0.051175714 1119279
0.58103532 0.58743966 0.051626503 592926
0.5829457 0.58973068 0.051144779 198157
0.58370423 0.59311008 0.049334109 1645347
0.58559442 0.59528327 0.048800826 3355965
0.58712304 0.59639299 0.049657583 8222369
0.57126236 0.57704186 0.050991297 2762825
0.57356411 0.57854474 0.051167786 2303553
0.57267731 0.58251703 0.050963342 1974845
0.57569575 0.58418787 0.0512833 1777216
0.57947594 0.58984661 0.047048807 1843782
0.58005714 0.590913 0.048872888 329249
0.56408751 0.57045555 0.049432635 2367536
0.56658506 0.57486284 0.050300658 2827823
0.56885827 0.57594121 0.050680935 2630463
0.5706265 0.5805378 0.051032007 2237769
0.57714683 0.59005558 0.047514081 1514046
0.56012499 0.56894988 0.048686504 920341
0.56180531 0.57105827 0.049289525 3287350
0.56361419 0.57311332 0.050044417 5919320
0.57243174 0.58983725 0.045308173 2435904
0.57447034 0.59074676 0.046518385 1777470
0.55627227 0.56693596 0.048173308 2105392
0.55725729 0.57054591 0.048911393 1907238
0.55967164 0.57158679 0.049257636 2103333
0.56906986 0.58801138 0.043365598 3092553
0.57077223 0.58870524 0.044521272 2698561
0.54867333 0.5619114 0.047956049 3089455
0.55094379 0.56338632 0.047886133 2697012
0.55317891 0.56547087 0.047731459 2894651
0.55414879 0.56871188 0.048692346 2367795
0.56537139 0.58646113 0.042956114 2894407
0.56691635 0.58845049 0.043839991 3092303
0.56823754 0.58960927 0.044467449 2895688
0.54462063 0.56003428 0.047172189 7496042
0.54747522 0.56201851 0.046392202 5984608
0.56008583 0.58199888 0.042360902 4998227
0.56113523 0.58494896 0.042661488 4735311
0.56322461 0.58634979 0.042693973 2828354
0.56441313 0.58897758 0.043402076 2500690
0.53977311 0.55577177 0.045135975 1447725
0.54105616 0.55906457 0.046162844 2958897
0.54489309 0.56391335 0.044457257 5458778
0.55242634 0.5760777 0.041265368 2369612
0.5543887 0.57855344 0.041736901 1645885
0.55605465 0.58078098 0.042222679 2695993
0.55830646 0.58218622 0.042167008 5061712
0.55944633 0.58529896 0.042725086 5920093
0.53642279 0.5545522 0.044482648 2632779
0.53791487 0.55691874 0.045269668 2434110
0.54753196 0.57178515 0.040979862 3091510
0.54866034 0.57444739 0.041252375 1908800
0.55027473 0.57650131 0.041666925 1843527
0.55157071 0.57868385 0.041634142 2368841
0.55389839 0.58204257 0.041668534 2499136
0.5302164 0.55140507 0.043659687 2698819
0.53236353 0.5528208 0.043804884 2764355
0.53329885 0.55536711 0.044287264 2632001
0.53511506 0.55693626 0.044947445 2763338
0.53776819 0.56245667 0.040598035 1845324
0.53991693 0.5655359 0.041853249 2764109
0.54098582 0.56889427 0.040962398 5920096
0.54335439 0.57057774 0.040386796 4078421
0.54539722 0.57315356 0.041043937 1579319
0.54621613 0.57502812 0.041490674 593722
0.54856282 0.57815325 0.041163564 1710651
0.52650297 0.54992831 0.042959869 2764098
0.52844214 0.55049354 0.043623209 2633286
0.52962184 0.55407953 0.044264734 1644841
0.533795 0.55895984 0.041052282 1844551
0.53394747 0.56226021 0.040538013 2174273
0.53579247 0.56417364 0.040790439 2371918
0.5383237 0.5670687 0.039793015 2500930
0.5393039 0.56871998 0.03985697 3881555
0.54022872 0.57091832 0.039551795 5259616
0.52249801 0.54818052 0.042378485 3419982
0.52473938 0.54953814 0.042538404 2960456
0.52709556 0.55487633 0.039363146 2240837
0.52909184 0.55775774 0.040645003 1317941
0.53162158 0.55901498 0.040936887 1252155
0.53246522 0.56166238 0.041220129 1318970
0.53395134 0.56576109 0.038498402 2239321
0.53587443 0.5677405 0.038894415 2434888
0.53768826 0.57004952 0.039668679 3091539
0.51744252 0.54395604 0.040465832 2895677
0.51888382 0.54654574 0.040990651 3289413
0.52541488 0.55593401 0.040038884 1647674
0.52890062 0.56214356 0.037135422 2435408
0.53034353 0.56366855 0.038084686 2632529
0.53187907 0.56566429 0.037774742 2501720
0.53207207 0.5684616 0.037661254 3091797
0.51370555 0.54299599 0.039243937 3158605
0.51476115 0.54480261 0.039940178 2896199
0.51589113 0.54657179 0.040691972 2896197
0.51812738 0.55005068 0.038411677 2766417
0.52020943 0.55315411 0.038333774 2831199
0.52170676 0.55495882 0.03924787 2240344
0.52357054 0.55799985 0.036273181 3422022
0.52436829 0.56001246 0.036552906 2369615
0.5263294 0.56161928 0.0368765 2105925
0.52783072 0.56461191 0.037428617 1776702
0.51012337 0.54233098 0.038192213 3027275
0.5113374 0.54410231 0.038922966 3093325
0.51256001 0.54543042 0.039885342 2962253
0.51480168 0.54888797 0.037823141 2766174
0.51717836 0.55310249 0.036686122 2963301
0.51922655 0.55605966 0.035746455 2044270
0.52063584 0.55853665 0.036103845 2829654
0.52245194 0.56054509 0.036952734 2105410
0.50589144 0.54040128 0.037163258 2961482
0.50780398 0.54295248 0.038021266 3027021
0.50893301 0.54423952 0.039081335 3092815
0.51088035 0.54746509 0.036298335 2897249
0.51484299 0.55313116 0.034971356 1650027
0.51556689 0.55535579 0.035371661 2700390
0.51680291 0.55704027 0.035370708 3289686
0.50264567 0.53906357 0.036560595 3158096
0.50301105 0.54198158 0.037573934 3092813
0.50470769 0.54340875 0.036081016 2766424
0.50719613 0.54570329 0.035728455 2832219
0.50906199 0.54880333 0.036926031 2831714
0.51046181 0.55048651 0.03411305 1913199
0.51153386 0.55310804 0.033939064 2568544
0.51300806 0.55547798 0.0339939 3552335
0.49819207 0.53814352 0.035333931 3224148
0.49996918 0.5386585 0.035820723 3223636
0.50096208 0.54314077 0.034254551 2702426
0.50257689 0.54505134 0.035172224 2701410
0.50464427 0.54715568 0.033636808 2044276
0.5061987 0.54904717 0.033123851 2700388
0.50850767 0.55260658 0.033557296 2896994
0.50996816 0.55459243 0.033113241 3421271
0.49443719 0.53690696 0.034490526 3289424
0.49621427 0.53742188 0.034977317 3027534
0.50114667 0.54546261 0.032234073 1913715
0.50221384 0.54816854 0.032167673 3159391
0.50399101 0.55170316 0.032516003 3421530
0.50609273 0.55217701 0.032631397 3487067
0.48853225 0.531901 0.032561302 3289677
0.49064225 0.53407955 0.033400893 3158602
0.49260795 0.536111 0.034245014 3289678
0.49760902 0.54417729 0.031285822 2569317
0.49844468 0.54759485 0.031427026 3552857
0.50095171 0.54849845 0.031377971 3355233
0.48500037 0.5305528 0.03188467 3289418
0.48687559 0.53291464 0.032576203 3223885
0.49241197 0.54011554 0.030622005 1913715
0.49351338 0.54282624 0.030692816 2766433
0.49484944 0.54513854 0.030633509 3355997
0.49614072 0.54813951 0.030914485 3355744
0.47974283 0.52780837 0.031321585 3551812
0.48158419 0.52892739 0.031407297 3224135
0.48270214 0.53176624 0.031931639 3223880
0.48500139 0.53432417 0.030809045 2568800
0.48572883 0.53757966 0.029496431 1913971
0.48799157 0.53880072 0.029491603 2831716
0.48932934 0.54142046 0.029725254 3159646
0.49134606 0.54368573 0.029309094 3355744
0.4764232 0.52582735 0.031196773 4797743
0.47808301 0.52681786 0.031259179 3944507
0.4803496 0.53259444 0.028796315 1979248
0.48263991 0.53421211 0.029214919 1913715
0.48405868 0.5381189 0.028582752 2634601
0.48562202 0.54037464 0.028316557 3552601
0.48758698 0.5417822 0.028744519 3355232
0.47550315 0.52843904 0.028239131 3423055
0.47634676 0.53255612 0.027706981 2700117
0.47792763 0.53432035 0.027762949 3028830
0.47998339 0.53670937 0.027293801 3356249
0.48245901 0.53853542 0.027582645 3487320
0.47254312 0.53180438 0.02671349 5916702
0.47416297 0.53272027 0.026569664 4142908
0.47627565 0.53527486 0.026563406 3815752
0.47184396 0.53065753 0.025322497 6442284
0.46932229 0.53047967 0.023479044 7757882
0.41064793 0.50233132 0.010425985 10715195
0.41217482 0.50469327 0.0099648833 10583350
0.41370174 0.50705516 0.0095037222 10517557
0.41528213 0.50949991 0.0090263486 10714934
0.41680908 0.51186174 0.0085651875 10583348
0.41833591 0.51422352 0.0081040859 10517555
0.41986281 0.51658547 0.0076429248 10582583
0.42189866 0.51973468 0.0070280433 10516531
0.42342556 0.52209657 0.0065668821 10517037
0.40507007 0.4984754 0.0099075437 10648634
0.4065969 0.50083733 0.0094463825 10583857
0.40761486 0.50241184 0.0091389418 10649650
0.44206259 0.5649001 -0.0048209429 9333797
0.42056766 0.53673285 -0.0030219555 10055972
0.42257851 0.53912717 -0.0035685301 10515753
0.42384353 0.54123622 -0.0040286779 10712880
0.42584822 0.54346907 -0.0044955015 10778415
0.4268018 0.54644477 -0.0040199161 10121258
0.42846376 0.54877132 -0.0039058924 10253357
0.43072438 0.55109566 -0.0042937994 10516786
0.43278739 0.55397904 -0.0049429536 10516529
0.43455434 0.55513543 -0.0049128532 10516782
0.43634969 0.55998141 -0.0044311285 9989422
0.41181085 0.52915686 -0.0015997291 4270862
0.41357669 0.53007901 -0.0023089051 4601619
0.41590771 0.53255939 -0.0022822022 6112534
0.41745138 0.53438711 -0.0030028224 6442524
0.41866708 0.53768742 -0.0030352473 4996119
0.42053059 0.54016346 -0.0027761459 7098645
0.42235413 0.54225057 -0.0041772127 7560478
0.42369053 0.54445422 -0.0037103295 6113051
0.40495622 0.52144659 -0.003528595 9530660
0.40595043 0.52378368 -0.0022760034 3416841
0.4081248 0.52614337 -0.0025098324 4928525
0.41058773 0.52783978 -0.0024044514 4798220
0.39575678 0.51266706 -0.0023198128 8280347
0.39808151 0.51492608 -0.0024177432 6441239
0.39958739 0.51767415 -0.0024126768 4665869
0.40193951 0.51980603 -0.0024523139 5322767
0.40372759 0.52191961 -0.002289772 3417358
0.405734 0.52823907 -0.0047909617 6898184
0.38916987 0.50682193 -0.0017412305 3550481
0.39092159 0.50874639 -0.0022559166 5914894
0.39289999 0.5109151 -0.0023346543 5324049
0.3954556 0.51357788 -0.0025671721 3879694
0.39637291 0.51527411 -0.0017597079 1117704
0.39850289 0.52115816 -0.0048968792 6569481
0.40061381 0.52390164 -0.0047146678 6240257
0.38486841 0.50276101 -0.0032035112 7035446
0.38488406 0.50436032 -0.0029940605 6574363
0.38719875 0.50671554 -0.0030440688 6967317
0.38850316 0.50850844 -0.003138721 8082963
0.37754279 0.49563423 -0.0033937097 8942949
0.37886947 0.49841315 -0.0033085346 9007438
0.38051957 0.50080425 -0.0033151507 8151604
0.38234401 0.50274342 -0.0036176443 8413741
0.38382125 0.50596958 -0.003524363 8148502
0.37572062 0.49620476 -0.0037235022 9663822
0.37613639 0.49939442 -0.0033153892 8546110
0.37782878 0.50273794 -0.0046896338 9463590
0.61180794 0.59323001 0.065439463 4080463
0.61347359 0.59517574 0.066087961 4870752
0.6154061 0.59759265 0.065706015 5199982
0.61539048 0.59941941 0.066049218 5397626
0.60820675 0.59202528 0.065370798 3092292
0.60939735 0.59355545 0.066540897 4343891
0.60386235 0.58979988 0.065133393 2039342
0.60611051 0.59121978 0.065326095 2565944
0.59860528 0.58728707 0.063286245 725543
0.60095656 0.58820581 0.063725352 1250603
0.59617484 0.58672613 0.062563121 4344933
0.59320682 0.58623737 0.06104821 11710414
0.58982092 0.58670175 0.060249567 14407155
0.58619589 0.58647513 0.058829069 13684182
0.58710861 0.58884829 0.057937622 14210789
0.59061921 0.59097821 0.055749118 12893655
0.58762044 0.59106332 0.054599285 10723511
0.58373529 0.59055263 0.054055512 7959681
0.58664453 0.59698969 0.052673817 13353952
0.5882436 0.5976032 0.054003835 10657710
0.57990223 0.58887386 0.053829849 4013128
0.58158767 0.58985841 0.052865207 1907744
0.58332187 0.59519726 0.051959991 12040646
0.58467871 0.5971297 0.050899506 12698577
0.58769476 0.59889001 0.050743103 13420262
0.57384807 0.58596474 0.051794112 922925
0.57605982 0.58730412 0.052071512 264216
0.5793376 0.59231579 0.051357031 4473942
0.58154875 0.59441829 0.050751925 6381942
0.56733108 0.57920283 0.050587535 2565438
0.5690642 0.58149326 0.051061749 2171967
0.57098156 0.58351588 0.052009404 1515060
0.57227463 0.58526003 0.051627576 1448494
0.57664317 0.5909937 0.050342739 531
0.56143075 0.57546395 0.050218582 7299704
0.56367862 0.5773437 0.050809026 4603726
0.56558746 0.57981724 0.051050782 2433588
0.56769192 0.58213437 0.051346302 2106684
0.57190549 0.59084332 0.046864092 1711672
0.57262814 0.59208006 0.048793018 132120
0.55813384 0.57432717 0.049549043 2695730
0.55947381 0.57659441 0.05035311 4339537
0.56167579 0.57867271 0.05077821 4734301
0.56902212 0.59104806 0.04701817 1579830
0.54904771 0.56496763 0.048780262 1183767
0.55128741 0.5672245 0.049214125 1578528
0.55226421 0.56982684 0.049708664 2104370
0.55458033 0.57172847 0.049503505 2696246
0.55674911 0.5735063 0.049412191 2433583
0.56501484 0.589508 0.045020521 2632768
0.54449773 0.56204498 0.048411131 5786715
0.54676068 0.56318331 0.048755467 3221563
0.54705632 0.56649822 0.049408138 657429
0.54926127 0.56777525 0.049652934 789267
0.56151944 0.5885666 0.043458164 3026503
0.5626778 0.59079975 0.044721961 2369345
0.56500459 0.59341478 0.045219183 1842507
0.54252189 0.56228763 0.047437906 4603713
0.5420599 0.56499428 0.048336983 1643820
0.5443688 0.56625223 0.04851985 1117994
0.55671406 0.58436161 0.042782903 4932693
0.55741972 0.58707762 0.04311645 5196381
0.56040621 0.58808482 0.043485105 3618128
0.56135875 0.59111547 0.044238627 2105423
0.53791416 0.56097329 0.046153784 2894143
0.53994721 0.56360692 0.046906114 2697011
0.54996818 0.57810736 0.042491436 2828096
0.55133152 0.58136153 0.042350769 2369104
0.55294961 0.58292055 0.042714417 3091771
0.55400753 0.5856111 0.042590201 3156546
0.55584371 0.58806205 0.043094039 3946836
0.53227544 0.5583756 0.045389235 2499645
0.53469586 0.55957794 0.045655608 2828868
0.53752983 0.56440878 0.046717107 2631995
0.53986263 0.56993282 0.044416428 1843793
0.54195189 0.57204968 0.041781247 4538701
0.54366219 0.57403469 0.041542232 1645108
0.54545259 0.5766713 0.042063355 789789
0.54700857 0.5788784 0.042511761 1447987
0.54830378 0.58105993 0.042059839 2039616
0.55059218 0.58475608 0.042147219 2566231
0.52706021 0.5529148 0.044032395 1776433
0.52837962 0.55628818 0.044974387 1183767
0.5307228 0.55755085 0.045294464 1907749
0.53370833 0.56375891 0.041859746 2174019
0.53455192 0.56640607 0.042142987 2831703
0.5361141 0.56846082 0.04238832 2437213
0.53862637 0.57011515 0.041875064 2961481
0.54028368 0.57275146 0.041602969 3025735
0.54195321 0.57512867 0.041950345 920879
0.54293728 0.57747602 0.041935146 527416
0.54554075 0.5800783 0.04163456 1184548
0.52389109 0.55205691 0.043977797 1776439
0.52508593 0.55444777 0.044728875 986653
0.52955353 0.56139535 0.041336477 988719
0.53096354 0.56403267 0.042414427 1451323
0.53285241 0.56587344 0.04243952 2240072
0.53494167 0.56908667 0.039548576 2633298
0.53566086 0.5712477 0.04012233 2435663
0.53777999 0.57379997 0.040795207 1909069
0.53914285 0.5752511 0.040843308 726596
0.51912594 0.55044568 0.042196155 2697804
0.52126241 0.55227095 0.043168664 2039619
0.52521908 0.55802453 0.04154855 725799
0.52599937 0.5605498 0.041924596 1185832
0.52806795 0.56315511 0.042340875 1845054
0.52886903 0.56628835 0.039409697 2763330
0.53010339 0.56747645 0.039693236 2698576
0.53233612 0.56967056 0.039606631 3092826
0.53394175 0.5723033 0.040248692 2501468
0.5155732 0.54921758 0.041447759 2895945
0.516913 0.55188942 0.042882264 2764359
0.51876467 0.55386072 0.041186512 2435916
0.52118957 0.55668461 0.040193737 1451340
0.52218264 0.55789655 0.041654885 858428
0.5239954 0.56223488 0.038357437 1314334
0.52527106 0.56394362 0.038199902 1249575
0.52664268 0.56634009 0.038607657 1449016
0.52878034 0.56885421 0.038816452 2369361
0.51084214 0.54784405 0.04037869 3093070
0.51255548 0.54891735 0.040425003 3093071
0.51532251 0.55246812 0.040270209 2830929
0.51587117 0.55531496 0.039672315 2635102
0.51825786 0.55643851 0.040350914 2371671
0.52122545 0.56225657 0.03786087 1118007
0.52324563 0.56490636 0.038556516 1250351
0.50723916 0.54729909 0.039255142 2961998
0.50903702 0.54769397 0.039813697 2962252
0.51137263 0.55079401 0.03777653 2831967
0.51270092 0.55430567 0.038529336 2766940
0.51620638 0.5585205 0.036393225 2371169
0.5177176 0.56085968 0.036896944 2039885
0.50311267 0.54515219 0.038389444 3158350
0.50551087 0.54629934 0.038918436 3092560
0.50738382 0.549918 0.037696362 2635614
0.50929481 0.55313516 0.038252831 2766181
0.51101762 0.55446196 0.036537945 2175851
0.51239532 0.55795282 0.035802543 2568802
0.51425648 0.55985981 0.036178708 2699355
0.51557362 0.56188285 0.036790192 2631492
0.49844724 0.5407111 0.03635025 3158100
0.49987796 0.54291803 0.037352443 3158355
0.50190532 0.54689783 0.036225498 2766941
0.50388217 0.54823369 0.036634564 2701151
0.50624049 0.55345869 0.035358608 1782130
0.50789845 0.5556134 0.034332216 3159389
0.50997293 0.55777031 0.034572542 3290205
0.5107168 0.56070495 0.034761488 3289438
0.49508601 0.53897029 0.036081731 3092816
0.49643898 0.54244733 0.037048459 3223889
0.49959362 0.54640967 0.035032868 2636636
0.50090021 0.54974842 0.033900917 1979254
0.50299978 0.5513466 0.034051716 2307178
0.50473702 0.5549469 0.033058643 3421785
0.50582981 0.55745775 0.034086347 3356252
0.49032325 0.53787589 0.034792542 3092814
0.4925361 0.54118592 0.036206245 3158604
0.49756289 0.54837632 0.033127844 1913714
0.49862754 0.5505653 0.032413661 3224929
0.50033748 0.5532425 0.032629013 3421787
0.50255066 0.5545702 0.032851756 3355993
0.50385678 0.55730385 0.033563435 3355490
0.48767611 0.53690749 0.034356117 3093070
0.49049029 0.54234558 0.031354725 1848178
0.49159104 0.54488605 0.03194195 1913969
0.4933812 0.54584062 0.032045901 2504296
0.49458143 0.54909253 0.031621754 3159391
0.49811739 0.55456018 0.032026947 3421026
0.48274744 0.53588527 0.032886922 3224140
0.48548454 0.53701699 0.033222556 3093071
0.48790973 0.54333794 0.031601071 1913714
0.48988301 0.54481208 0.031058431 3028828
0.49105191 0.54792565 0.031098783 3487574
0.49276674 0.55074459 0.031231582 3355747
0.47588822 0.5272764 0.032521129 5324332
0.47640219 0.52956247 0.032643616 4469811
0.47834048 0.53124774 0.032138944 3814208
0.47932526 0.53409833 0.032489419 3486536
0.48278877 0.53963852 0.030306935 1848430
0.48413408 0.54107165 0.029946804 2504039
0.48597205 0.5438695 0.029915869 3093853
0.48775953 0.54634219 0.029495299 3355743
0.48923486 0.54795045 0.02994746 3290208
0.47832114 0.53852737 0.029600859 1979245
0.48079816 0.5401628 0.029182136 2832223
0.48172092 0.54303825 0.028732955 3618646
0.48275331 0.54479903 0.028500676 3224416
0.47374004 0.53413081 0.028377712 3353658
0.47442508 0.5363825 0.028086782 3486535
0.4768424 0.5382539 0.028247535 3291218
0.47792071 0.54085982 0.027859747 3487571
0.47985226 0.54302603 0.028045535 3355739
0.47192353 0.5353781 0.028132915 2497568
0.47457606 0.53917325 0.027305782 3421009
0.41039556 0.50391328 0.011821091 10519100
0.41141346 0.50548786 0.01151371 10256694
0.41296715 0.50789118 0.011044443 10256693
0.42164624 0.52131653 0.0084231496 10517037
0.4226642 0.52289116 0.0081157088 10780209
0.40792495 0.50486392 0.010364175 10453308
0.4131428 0.51392144 0.0094476938 10123818
0.41513598 0.51667577 0.0086259246 10188590
0.41713992 0.51911807 0.0075810552 10648623
0.41828603 0.52187729 0.0078943372 10385192
0.41943222 0.52463639 0.0082075596 10319140
0.42045012 0.52621096 0.0079001784 10911019
0.40025768 0.49777594 0.010476828 10452010
0.40178457 0.50013787 0.010015666 10386476
0.4033114 0.5024997 0.0095545053 10649650
0.40489191 0.5049445 0.0090771914 10518567
0.40616629 0.50888824 0.010011077 10189098
0.40769324 0.51125014 0.0095499754 10583596
0.40922007 0.51361197 0.0090887547 10584359
0.41385436 0.52078056 0.0076891184 10384416
0.41487223 0.52235508 0.0073816776 10778916
0.39548531 0.49703461 0.010964632 10188332
0.39701223 0.49939647 0.010503471 10319410
0.3985391 0.5017584 0.01004231 10384946
0.40060174 0.50494897 0.009419322 10518049
0.40215546 0.50735241 0.0089501143 10583841
0.40317333 0.50892693 0.0086426735 10781220
0.44187993 0.56908602 -0.0041754842 6902052
0.44500443 0.57126743 -0.0044947267 8675861
0.44641632 0.57473844 -0.0046001077 8084247
0.42736986 0.55032432 -0.0026642084 7687944
0.42918009 0.55278128 -0.0024216175 7097101
0.43087453 0.55492324 -0.0021149516 6833677
0.43277806 0.55745596 -0.0032351017 8346396
0.43437392 0.55931193 -0.0035868883 8872224
0.43624461 0.56189525 -0.0030112267 8544288
0.43816718 0.56450927 -0.0036525726 9004583
0.43978885 0.56650597 -0.0041250587 9069866
0.41258207 0.53152025 0.00038832426 1511697
0.41403389 0.53347021 -0.00011307001 1971208
0.41605598 0.53592438 -0.00047016144 2824966
0.41715658 0.53880584 -0.00076341629 1051404
0.41900361 0.54139942 -0.0017074347 1641991
0.42075247 0.54367536 -0.0016472936 2167304
0.42314625 0.54602504 -0.0024121404 2824974
0.42477828 0.54813951 -0.0020403862 4533256
0.42576239 0.5511052 -0.0027509928 986381
0.42715681 0.55324906 -0.0038402081 1972757
0.42895588 0.55580384 -0.0042664409 2695959
0.42987695 0.55878621 -0.0047917962 2432789
0.40536076 0.52605224 -0.0005402565 526615
0.40745875 0.52766758 -0.00025594234 1248266
0.40966672 0.52935612 -0.00015944242 1379595
0.41081867 0.53217131 -5.6087971e-05 1969921
0.39613113 0.51573592 1.0848045e-05 2035461
0.3980892 0.51857072 0.00016510487 788232
0.40072048 0.52118438 -0.00020128489 788490
0.40219209 0.52344179 -0.00029867887 1116174
0.40452921 0.52554733 -0.00093537569 1313031
0.40557885 0.52773112 -0.0014170408 2822658
0.40628165 0.53211737 -0.0031992793 2034434
0.40773785 0.53329766 -0.0034570098 2427909
0.40910381 0.53602999 -0.0036352873 2559747
0.41090682 0.53840083 -0.0032905936 2296323
0.41267863 0.54147816 -0.0045300126 2297350
0.41466224 0.54349858 -0.0049185753 3480323
0.41684267 0.54573733 -0.004897058 3611142
0.38782787 0.5080955 0.0005440712 591886
0.38956571 0.51013052 0.00015807152 1708040
0.39122671 0.51244444 0.00020450354 1575941
0.39380419 0.5141871 -7.2717667e-05 1904651
0.39941984 0.52576709 -0.0031304955 1706242
0.40119827 0.52716583 -0.0029534101 1903361
0.40280312 0.52945328 -0.0036406517 2231557
0.40447605 0.53153551 -0.0030932426 1181187
0.40616983 0.53432333 -0.0046314597 1509125
0.41005701 0.53867328 -0.0044001937 1443844
0.38586074 0.50644904 -0.00080496073 1183240
0.38581175 0.50817198 -0.0004863143 2693129
0.3870306 0.51016128 -0.00078505278 3086080
0.39141381 0.51834506 -0.0036876798 1772034
0.39390731 0.52103621 -0.0032783151 2296833
0.39597332 0.52312618 -0.0033471584 1574657
0.39772764 0.5250842 -0.003888011 1706243
0.3776347 0.50021166 -0.0018939972 4930847
0.37866122 0.50278926 -0.0013625026 2564617
0.38053751 0.50473523 -0.0017145872 3221002
0.38239828 0.50643986 -0.001398325 2167814
0.38372657 0.50782341 -0.0020685196 4925954
0.38446456 0.51304609 -0.0031584501 1968128
0.38710034 0.51447517 -0.0036754608 2887681
0.38894144 0.51664901 -0.0032560229 1968384
0.39126515 0.51841944 -0.003798902 2755842
0.39223173 0.52070999 -0.0040082335 1903619
0.37355131 0.49893054 -0.0025081635 6049600
0.37471455 0.50071388 -0.0028102994 7032349
0.37660074 0.5029636 -0.0017288327 4205835
0.3784242 0.50455296 -0.0023838282 6241796
0.38045698 0.50842953 -0.0048455 6174981
0.3816421 0.51073563 -0.0039433241 3283202
0.38381228 0.51203626 -0.0043104887 4595969
0.36988324 0.49663144 -0.0034589171 9005114
0.37134147 0.49883524 -0.0027114153 7755821
