# .PCD v0.7 - Point Cloud Data file format
VERSION 0.7
FIELDS x y z rgba
SIZE 4 4 4 4
TYPE F F F U
COUNT 1 1 1 1
WIDTH 1150
HEIGHT 1
VIEWPOINT 0 0 0 1 0 0 0
POINTS 1150
DATA ascii
0.59184259 0.55479717 0.050117731 2632006
0.59253436 0.55711371 0.051373601 2303035
0.56190699 0.52605534 0.05448854 4143160
0.5634824 0.52713007 0.056825817 3551021
0.57609916 0.54212844 0.051137269 1648226
0.5775423 0.54485154 0.051631391 2304082
0.57985002 0.54463446 0.051946938 2173264
0.5813657 0.54740787 0.053044915 3025992
0.58540893 0.55333221 0.049482465 2829386
0.58801186 0.55453157 0.050015986 3092042
0.58967513 0.55645347 0.050607979 3026504
0.57115632 0.54013526 0.050357997 1582174
0.57377946 0.54241967 0.050626457 2566732
0.57570398 0.54429024 0.051862061 2304594
0.58164728 0.55124682 0.048361599 3092043
0.58265495 0.55343753 0.049349785 2894922
0.58479857 0.55523318 0.049960852 2105933
0.56603563 0.53865832 0.049350441 1647966
0.56813323 0.53865397 0.049106538 1647971
0.56935734 0.54140443 0.049438357 3091522
0.57150257 0.54360753 0.050793529 2304083
0.57673478 0.54914254 0.04713273 3749450
0.57737148 0.55099481 0.0479846 2894925
0.58025342 0.55307126 0.048708975 2171470
0.56123191 0.53644222 0.048746765 1647953
0.56337947 0.53840584 0.048486471 2304080
0.5655722 0.54132569 0.049234033 2304336
0.57172829 0.54809982 0.04706037 3158091
0.57411963 0.5492655 0.047026038 2632014
0.55590385 0.53523779 0.047509611 1909819
0.55825996 0.53548515 0.048376918 1910082
0.56005347 0.53797138 0.048055053 3288379
0.5614711 0.54007268 0.048813581 2435402
0.56608063 0.54549426 0.045928538 3749704
0.56754375 0.54719949 0.0459252 2895178
0.56912971 0.54862225 0.046063006 2106192
0.55345869 0.53459466 0.045555711 2894624
0.55687594 0.53676653 0.04731518 4535599
0.56147307 0.54358959 0.043971419 2960712
0.56378424 0.54600692 0.045096993 2632266
0.55259454 0.53699714 0.04644531 1842478
0.55489206 0.54060292 0.042772472 2762547
0.55754232 0.54332227 0.043870747 2303038
0.5598194 0.54495889 0.044259429 2895432
0.56067681 0.5467661 0.044651806 3749452
0.5512169 0.53803676 0.044131994 5916183
0.55282772 0.54039246 0.044168591 3418914
0.5546878 0.54214668 0.043244064 3419960
0.5553332 0.54431075 0.043118894 4012094
0.54980391 0.54257935 0.041001737 6574378
0.55148304 0.54424566 0.041617334 4930857
0.5388537 0.57176512 0.020254552 7886616
0.54088753 0.57429898 0.019641817 7032854
0.5368492 0.5735442 0.021084845 7821066
0.53835589 0.57500887 0.020897567 7361552
0.54028606 0.57767898 0.020170033 6507801
0.72407848 0.60393 0.083060265 4804446
0.72496033 0.60816002 0.07896769 4672861
0.71498716 0.6003139 0.078610003 1511722
0.71092635 0.59750891 0.079402506 1249318
0.7131148 0.59950536 0.079863131 1511979
0.71431839 0.60145658 0.080135584 1643569
0.71653819 0.60251731 0.077561259 1971499
0.70574164 0.59681165 0.077367723 789027
0.70792687 0.59791392 0.078649461 1183778
0.70092976 0.59460908 0.077034354 1708849
0.7023899 0.59630251 0.077487886 1051689
0.70415848 0.59762883 0.07814157 789281
0.69745636 0.59347403 0.074814677 3158339
0.69796437 0.59498924 0.07630825 2235442
0.69175023 0.59321767 0.073999584 3224904
0.69421101 0.59459418 0.074752212 2960705
0.70479119 0.60567892 0.072494805 2039082
0.68413651 0.58761817 0.073373973 4933713
0.68696725 0.58939809 0.072823048 3026493
0.68706769 0.59197229 0.073764443 3093053
0.68984568 0.59320164 0.073609293 3093322
0.70038599 0.60626042 0.070062399 1842992
0.70156199 0.60751396 0.070779681 1777199
0.67682266 0.5820238 0.072744906 1381422
0.67787617 0.58526558 0.073466361 3552065
0.68082654 0.58558738 0.073928833 5196630
0.68251705 0.5894323 0.074399233 5656926
0.68436652 0.59032124 0.074177146 4474185
0.69613236 0.60541487 0.070023775 2433334
0.69825429 0.60610557 0.070017219 2039862
0.67200345 0.58095932 0.072477996 2828872
0.67370254 0.5833841 0.073054373 2763332
0.67602676 0.58437657 0.073688388 2959942
0.69207239 0.60381347 0.068302572 3618633
0.69397783 0.60495889 0.068988085 3091777
0.66437387 0.57604194 0.071478844 2630189
0.66649544 0.57796252 0.072294652 1380894
0.66929126 0.57972246 0.072543085 2433591
0.67453861 0.5875296 0.070674479 2633554
0.67624581 0.5891335 0.070733011 5068394
0.68623692 0.60102564 0.066993117 3750738
0.68815255 0.60247856 0.067577362 3750988
0.68979579 0.60412973 0.067945957 3553353
0.66054875 0.57531035 0.071188807 5196619
0.66259032 0.57733679 0.07195574 1775143
0.66679579 0.58263099 0.06853646 1449026
0.67024279 0.58634543 0.069356799 1580627
0.67810446 0.59665918 0.066579998 5394006
0.68025964 0.5973053 0.066490352 4605007
0.68167359 0.60071075 0.066906393 3618883
0.68409944 0.6011188 0.066812217 3553103
0.68560928 0.60339862 0.068113387 3487557
0.65554035 0.57267141 0.069527388 2827839
0.65635335 0.57623065 0.070102215 3025211
0.65840101 0.57573569 0.070584059 4275268
0.66085768 0.58046901 0.067932546 658731
0.66410255 0.58382052 0.068024993 659502
0.66663516 0.58628869 0.068669856 1382987
0.67399853 0.59474903 0.066210628 3880775
0.67587078 0.59682149 0.065841913 3355211
0.67938405 0.60020387 0.067108214 4868945
0.65237629 0.57360125 0.069248617 3156292
0.65432113 0.57594174 0.069807947 2959429
0.65680611 0.57886332 0.066939354 3486049
0.65883106 0.58029979 0.06829828 789558
0.66001695 0.5833627 0.068687379 461097
0.66190165 0.58387917 0.068078101 592423
0.66632026 0.59019041 0.064396739 3553096
0.67080778 0.59403443 0.065041006 2171455
0.67175066 0.59649974 0.066116273 3617360
0.64475811 0.56817842 0.067522883 920084
0.64605665 0.57101882 0.068678617 3419962
0.64871728 0.57228291 0.068518102 2433590
0.64949155 0.57575351 0.067018688 1843280
0.65205342 0.5776549 0.066455543 1710662
0.65456915 0.57909083 0.067007542 2829395
0.6559304 0.5817619 0.067557216 855350
0.66029954 0.58684719 0.063553274 3158320
0.66224438 0.58965272 0.064323604 2236722
0.66424716 0.59071267 0.064652622 2829121
0.66580445 0.59342659 0.064916372 2632516
0.66838783 0.59417671 0.06452024 1842755
0.64106357 0.56759596 0.067204714 920854
0.64223701 0.56970263 0.06798321 2762286
0.64635408 0.57399893 0.065567672 1250878
0.6474601 0.57566828 0.067096531 1646405
0.65279627 0.58273417 0.063134313 4209474
0.65625489 0.58576876 0.063964248 4539472
0.65803301 0.58807361 0.063974619 2302258
0.65973979 0.58981037 0.064202189 1512994
0.63363713 0.56397325 0.065469027 3157061
0.63572985 0.56710917 0.066541851 2433334
0.63866043 0.56747538 0.066791952 1053214
0.64071095 0.57274979 0.064409316 2236477
0.64221346 0.57382643 0.06523174 2893894
0.64976245 0.58312804 0.062754869 3288644
0.65202379 0.58563709 0.063068748 3486021
0.6546067 0.58687425 0.06335324 4538195
0.63177603 0.56358021 0.065419316 2959667
0.63173306 0.56656361 0.066083133 1907499
0.63334066 0.56809008 0.063133955 1383232
0.6362505 0.57005996 0.063957036 659251
0.63761413 0.572689 0.064650595 2038595
0.64285773 0.57838166 0.062233746 2893874
0.64469767 0.58027625 0.062670231 3026232
0.64626038 0.58134365 0.062418222 2697278
0.64703816 0.58507782 0.061620772 2564936
0.62572169 0.56377983 0.06397897 4799829
0.62823415 0.56508124 0.064040303 2893359
0.63107163 0.56819838 0.06313318 1448762
0.63285029 0.57020009 0.064209819 1120318
0.63733941 0.57485473 0.061328411 2301227
0.63765168 0.57771194 0.062262118 3682106
0.64040369 0.57802248 0.061387479 2170157
0.64253032 0.58130383 0.061251938 1380906
0.64495003 0.58454615 0.061916351 2367552
0.62092656 0.55979651 0.062946022 2367023
0.6220299 0.56233162 0.064067841 3681851
0.62365007 0.56412375 0.06116122 2959444
0.62616849 0.56657237 0.061991632 987702
0.62747055 0.56902289 0.062877178 790569
0.63270235 0.57483757 0.061051905 3289400
0.63454896 0.57474124 0.060576737 1973550
0.63642561 0.57805228 0.060506105 854297
0.63926983 0.58095497 0.061342299 3418951
0.60083342 0.54230177 0.06468755 3223640
0.60325229 0.54426759 0.065818429 2763353
0.61787343 0.55963105 0.062478662 2762306
0.61821353 0.56195605 0.062145114 2104639
0.61997879 0.56440026 0.061232567 4472433
0.6225009 0.56738448 0.061715722 1183824
0.62499362 0.56973022 0.058678746 3748929
0.62803423 0.57323956 0.059607923 3157310
0.630355 0.57440495 0.059956729 2828351
0.63290638 0.57818705 0.060533583 986920
0.59543771 0.53888261 0.063973725 2895958
0.59767628 0.54044437 0.063785613 2699100
0.59813595 0.54352993 0.064835608 2896217
0.61198765 0.55874354 0.060567319 2500935
0.61478359 0.56081653 0.06128931 2500426
0.61695671 0.56406194 0.061773479 1775690
0.62197214 0.56958199 0.058094382 4865883
0.62406749 0.57218349 0.059074819 2629942
0.62636411 0.57398224 0.059464276 2236208
0.58913177 0.53639746 0.062795162 2830666
0.59134668 0.53765166 0.063003838 2830920
0.59231693 0.53979415 0.063561678 2896211
0.59473854 0.54289263 0.06418407 2765402
0.6087985 0.55803144 0.05953747 2237244
0.6091004 0.560489 0.060441494 2960444
0.61280495 0.56238669 0.060657382 1647450
0.61624098 0.56750131 0.056746781 3222068
0.6183517 0.5696274 0.057889044 4996946
0.62072098 0.57138109 0.058732986 4734805
0.58556128 0.53600794 0.061940968 2896462
0.58667397 0.5377214 0.062666357 2830924
0.58847767 0.53996849 0.063380063 2830670
0.59206593 0.54266244 0.063361704 2830428
0.60106069 0.55324244 0.058004558 1905948
0.60235637 0.55577117 0.058444202 5655919
0.60456252 0.55737036 0.059135795 4077396
0.60701084 0.55954969 0.05999285 1646920
0.61411041 0.56853932 0.056621611 2104638
0.61578834 0.57012224 0.057502449 3155515
0.58285367 0.53677404 0.061491191 2633550
0.59635639 0.5531109 0.057522178 1777469
0.59861118 0.55423534 0.058117628 3025737
0.60029674 0.55571443 0.059017062 4470336
0.60763878 0.56584644 0.055709422 3683653
0.61064583 0.56809503 0.055969715 2894410
0.57709771 0.53448403 0.06010592 2764365
0.5794704 0.53534889 0.060406625 2633295
0.59380269 0.55149078 0.056291819 1186638
0.59650803 0.55555594 0.058372676 3157841
0.60423446 0.56533533 0.054625928 2893877
0.60671681 0.56618977 0.054313898 1974081
0.60693777 0.56870711 0.055514514 2106184
0.57285577 0.5334146 0.059289813 2633035
0.57540447 0.53390735 0.059861064 2763595
0.58809358 0.5508889 0.054698467 2107473
0.5900979 0.55278748 0.05592066 2041426
0.5929625 0.55451119 0.056296408 2369351
0.59629798 0.55942965 0.053013146 1051692
0.59872836 0.56197214 0.053577185 5524563
0.60071272 0.56342953 0.053614438 4209225
0.60159349 0.56559217 0.054396629 4011859
0.56308168 0.52687907 0.059329152 3354152
0.56864583 0.53246409 0.058542669 2698058
0.57026815 0.53321433 0.058665812 2698569
0.5830549 0.54864025 0.053898215 1582427
0.58484399 0.55076575 0.054611444 2238800
0.58656621 0.55222791 0.055293977 2501198
0.58776593 0.55464834 0.054951131 3026500
0.59208006 0.55969477 0.051909208 3223103
0.59423757 0.56070709 0.052586377 2301748
0.5960207 0.56286079 0.053302109 4077642
0.56140077 0.52746612 0.05605495 4274717
0.56434619 0.52889317 0.057726085 3025972
0.56570059 0.53039724 0.057396591 2894649
0.56673944 0.53240806 0.057932258 2763591
0.57910925 0.54759592 0.053287148 2107222
0.58058167 0.54982257 0.053658962 2369873
0.58247101 0.55090839 0.054309845 2304337
0.58837813 0.55849665 0.051498175 2763596
0.59077305 0.5604524 0.052464366 2829121
0.57275486 0.54519957 0.051880658 1713755
0.57470071 0.54691583 0.052575946 2369619
0.57654411 0.5478375 0.052855551 2566480
0.57828844 0.5501613 0.053343773 2894917
0.58194602 0.55567646 0.05044955 2894925
0.58474535 0.55701727 0.050864935 3092300
0.58613336 0.55819064 0.051549613 2829389
0.5882616 0.56077015 0.051973164 1974860
0.56911302 0.54377252 0.050533593 2304339
0.57041603 0.54624301 0.051529169 2369874
0.5724104 0.54713053 0.052328765 2369870
0.57906324 0.55412591 0.050194144 3683913
0.57916939 0.55640626 0.04924947 2171729
0.58104265 0.55872571 0.050313175 2105935
0.56526035 0.54347754 0.049937248 3157312
0.5667032 0.5446583 0.050559521 2632268
0.56838655 0.54601383 0.051564813 2370132
0.5726856 0.55083674 0.048336327 3749453
0.57454777 0.553509 0.048964918 3223628
0.57702786 0.55539221 0.048519373 2171982
0.55804676 0.53933406 0.048566997 3812652
0.5600723 0.54244423 0.04954654 2698308
0.56300116 0.54354423 0.04976207 2107476
0.56412071 0.54620218 0.050543368 3157313
0.56928158 0.55089718 0.048149049 3749709
0.570472 0.55275548 0.04810518 2697550
0.57229102 0.55411416 0.047858715 2171981
0.57398897 0.5568254 0.048761845 2237522
0.5554961 0.53824335 0.048376977 3156526
0.55737662 0.54056346 0.049122274 2500927
0.55756646 0.54275906 0.049540639 1583433
0.56454456 0.54867971 0.046067953 2960460
0.56664526 0.55154842 0.046946943 2697549
0.55238354 0.53849703 0.047720432 1381177
0.55258435 0.54233843 0.047658384 988482
0.55778831 0.546085 0.04470849 2172228
0.56105167 0.54945862 0.045478523 3223371
0.56300735 0.55202937 0.046359539 2171983
0.56308639 0.55313092 0.046159148 3815244
0.55026513 0.54147249 0.046175718 1840659
0.55190372 0.54394948 0.045917332 1906982
0.55469131 0.54588139 0.044725657 3288632
0.55715668 0.54873222 0.044415414 2960963
0.55785567 0.55008525 0.044868648 2960710
0.55058771 0.54720235 0.043520212 4930863
0.53725708 0.57748061 0.021776617 7098895
0.53977931 0.57917166 0.021812499 6376472
0.54159325 0.58263803 0.020850599 5128485
0.72340959 0.6050725 0.084585786 5265259
0.71729207 0.59988821 0.084213316 3750993
0.71973526 0.60362184 0.084743083 4870238
0.7211706 0.60444337 0.083188236 4606813
0.71450359 0.60055631 0.083342612 3421256
0.71763122 0.60421443 0.082380474 4079438
0.70864892 0.59908956 0.08135432 1643562
0.7114802 0.60036349 0.082039177 2235701
0.70463264 0.59852916 0.080133438 1118240
0.70711702 0.60054666 0.081724107 1774631
0.69819081 0.59689844 0.080005407 854560
0.70079893 0.59687454 0.079654813 920611
0.69757032 0.59653133 0.07766825 1051176
0.69355863 0.59668773 0.076945961 1183014
0.70237738 0.60850453 0.075547636 2827828
0.70426184 0.60808164 0.073517799 2564914
0.68761587 0.59395641 0.075081766 2697530
0.68974811 0.59560382 0.075446963 2368311
0.69063175 0.59621751 0.07687366 1578030
0.70189601 0.60947955 0.072783947 2368050
0.68050289 0.58971244 0.075069666 4999252
0.68277782 0.59231669 0.075237513 3552060
0.68554175 0.59408408 0.074666679 2697269
0.68680114 0.59573388 0.076447845 1841198
0.6966936 0.60823601 0.07227999 1974061
0.69858706 0.60930598 0.07179755 2105648
0.67340767 0.58620787 0.074787021 3157575
0.67519474 0.58689833 0.074647009 3354697
0.67770886 0.58869547 0.074141026 5327706
0.67785716 0.59134656 0.074999869 4078398
0.69175911 0.60557157 0.069759011 2631480
0.69248039 0.60730779 0.07127887 1842221
0.66749179 0.58219635 0.07338208 1775919
0.67027545 0.5831778 0.073362708 2763333
0.67029959 0.58627558 0.074232459 2763332
0.67546171 0.59247375 0.071269989 3948624
0.68902665 0.60742152 0.069718897 2105137
0.6635291 0.58162612 0.072950244 1445915
0.66738099 0.5853312 0.074177921 2630457
0.6728161 0.59299839 0.071015 2895963
0.68240541 0.60349637 0.067985892 3487298
0.68390912 0.60592234 0.068965137 2960700
0.68706387 0.60655129 0.068802178 2829114
0.65761364 0.57771659 0.071731269 1315362
0.65957952 0.58006865 0.072212517 920349
0.66738492 0.58917361 0.070003927 1909069
0.6753549 0.59834164 0.067706764 6249055
0.67696518 0.60077918 0.067819417 5328214
0.67876506 0.60220486 0.068432212 4078665
0.65063816 0.5748632 0.069761395 3157055
0.65346563 0.57797217 0.070901215 2696765
0.65532374 0.57848907 0.070883036 1775915
0.65631473 0.58153254 0.071686327 986152
0.66269773 0.58846831 0.068693578 988217
0.66482383 0.58915687 0.069051027 1448775
0.66928369 0.59578693 0.066538811 3618126
0.67109913 0.5978238 0.067972362 4734801
0.6731931 0.59810752 0.067812622 6050912
0.67385083 0.6011768 0.067205012 5065820
0.64504325 0.5726971 0.070019007 5392209
0.64750791 0.57466024 0.070517421 2564395
0.64964062 0.57724071 0.070611179 2236720
0.65149581 0.57788157 0.070524931 2697535
0.65519392 0.58443731 0.068350732 592421
0.65721923 0.58532214 0.068923473 2039355
0.65974844 0.58734268 0.068604052 1974066
0.66035008 0.58961159 0.069187522 2170944
0.66486055 0.5950852 0.06647557 3487050
0.66712284 0.59538895 0.066492558 3683916
0.66882789 0.59870195 0.065991163 3288655
0.67064011 0.60167277 0.065596461 4999789
0.64298809 0.5734002 0.069181263 6839897
0.64927787 0.58014929 0.067495883 1317185
0.65145665 0.58221668 0.06769371 988476
0.65306312 0.5838328 0.067705452 659252
0.65562546 0.58810186 0.064864457 2367535
0.6590395 0.59167719 0.065505743 2236711
0.66111314 0.59326464 0.065518796 2302513
0.66233516 0.59554201 0.065943956 2105403
0.66493165 0.59767443 0.064869046 2433614
0.66680276 0.59901476 0.064292252 2499147
0.66809273 0.60222709 0.065244317 3156565
0.63590032 0.56948984 0.067494988 2630707
0.63748109 0.5711264 0.068207681 2433584
0.64016908 0.57324731 0.068800628 4997961
0.64321798 0.57681751 0.066650569 1776447
0.64515978 0.57900536 0.067692161 791082
0.64739853 0.58196211 0.068137169 987960
0.65335464 0.58817017 0.064643621 2368046
0.65481859 0.59114099 0.064410865 1709868
0.65687257 0.59235096 0.065060675 1579303
0.658966 0.59345818 0.064637899 723231
0.63208294 0.56855029 0.067560732 2104624
0.63424391 0.56894827 0.067606986 2827837
0.6352756 0.57173878 0.068683088 3222593
0.63762599 0.57405782 0.066265762 3880540
0.63917345 0.57666463 0.066984594 4736362
0.64246082 0.58097315 0.063448727 3814724
0.64554578 0.58430022 0.064092338 3486529
0.64725274 0.58608794 0.064412951 3486532
0.64906555 0.58737493 0.063520491 3091520
0.65080857 0.58948624 0.064062476 1973808
0.65303969 0.59043241 0.0637815 1381418
0.65450019 0.59333712 0.06460613 921126
0.62735903 0.56707799 0.066287518 1051671
0.62992024 0.56811231 0.067294538 1052174
0.63040614 0.57070029 0.064048588 1185594
0.63356167 0.57348192 0.065214694 1316931
0.64047402 0.58034718 0.0637151 5393244
0.64128828 0.58374268 0.064137936 3748926
0.64310396 0.58410478 0.063102722 2499123
0.64421237 0.58738554 0.062862039 2170935
0.64630055 0.58791721 0.062566519 2499651
0.64796251 0.59079719 0.063484788 1579575
0.62351221 0.5659734 0.064985871 2629684
0.62711799 0.57097185 0.064094722 790061
0.62998104 0.57288474 0.065110385 1448513
0.63300627 0.57724315 0.062044799 3025974
0.63477695 0.57982075 0.063289821 4077379
0.63736928 0.58066469 0.062365174 4602961
0.63940835 0.58414185 0.062149405 4076377
0.64198524 0.5870769 0.062982023 1578536
0.60296142 0.54713666 0.066505015 3091276
0.61686724 0.56238073 0.063124597 3025228
0.61908549 0.56519192 0.06448257 2367543
0.62063783 0.56731945 0.061970294 1513046
0.62337685 0.56993067 0.063382924 790058
0.62939793 0.57745236 0.061695993 3552319
0.63126415 0.57702565 0.060985208 1776179
0.63335872 0.5806573 0.061490893 2300215
0.63603723 0.58359987 0.062480271 5260376
0.59741408 0.54476166 0.066231847 2765909
0.60050505 0.54636365 0.066302001 3027289
0.60188997 0.54981184 0.067164958 2698070
0.61472511 0.562558 0.062655687 3157325
0.61537814 0.56451386 0.062886417 2368337
0.61710107 0.56681705 0.062454402 1448263
0.61974907 0.56939453 0.063146651 461369
0.62360317 0.57441151 0.060659349 2104104
0.62501472 0.57566756 0.060586452 1906981
0.62684292 0.57802433 0.06068927 1841714
0.62963682 0.58079696 0.061314583 2235967
0.59446955 0.54557323 0.065041006 2700124
0.60705578 0.55994815 0.061601937 3026479
0.60967815 0.56202871 0.061498284 2238538
0.61183661 0.56396383 0.061909556 2106191
0.61362875 0.56636924 0.062814474 2171982
0.61868483 0.57227623 0.058883071 4669267
0.62073976 0.57492399 0.059802413 1446188
0.62347293 0.57796454 0.060379565 657168
0.58941007 0.54445857 0.064103425 2830930
0.59201515 0.5446564 0.064795852 2830423
0.60311168 0.55948353 0.060037255 6905455
0.60485435 0.56005245 0.060707331 3486792
0.60637933 0.56221056 0.061197281 1515593
0.61313528 0.57021528 0.057416677 3552072
0.61510766 0.57258439 0.058493257 2893630
0.61750031 0.57427365 0.059341192 2762297
0.58421052 0.53929335 0.062401772 2830666
0.58611596 0.54358298 0.063380599 2699851
0.58778483 0.5438323 0.063912332 2830416
0.59946173 0.55804712 0.059434235 4275555
0.60156351 0.56005877 0.060343564 3683933
0.60404515 0.56224442 0.061210513 1449290
0.61086148 0.57138091 0.057837844 3025997
0.61279196 0.57245177 0.058422923 2762821
0.57763004 0.53733408 0.061311841 2830669
0.58000112 0.53826088 0.061578512 2829649
0.58190513 0.54261267 0.062523425 2634064
0.58430988 0.54359663 0.062893093 2765646
0.59519064 0.55775511 0.058689415 2500688
0.59701985 0.55853248 0.059442282 2828093
0.60455155 0.56792456 0.055585444 2829374
0.60746717 0.57043576 0.056992054 2960712
0.57398558 0.53724235 0.060267925 2633034
0.57561076 0.53786844 0.060459018 2764617
0.57688743 0.54108113 0.061706543 2830413
0.57939345 0.54197085 0.062047005 2699344
0.59049439 0.55439335 0.057020068 1712986
0.59184003 0.55655205 0.057628632 2369362
0.59302634 0.5593462 0.058373392 2369359
0.59800047 0.56427556 0.05457449 6116438
0.60199678 0.56804729 0.055402637 3092029
0.60400224 0.57055563 0.056658149 2895166
0.57051629 0.53675848 0.059384525 2633549
0.57153922 0.53870994 0.05988574 2633291
0.57363176 0.5399949 0.061112463 2764361
0.58629602 0.55452597 0.057439923 1713758
0.58839381 0.55452156 0.057196081 1647711
0.58905262 0.55650151 0.056513369 2960711
0.59467465 0.56514102 0.054627001 4800845
0.59708464 0.56651014 0.054570675 5261918
0.59887981 0.5684849 0.05510664 4209241
0.56193203 0.52865648 0.060561657 2498080
0.56334871 0.5333057 0.058684051 2828340
0.56532627 0.53549504 0.058475077 2502466
0.56783229 0.53638464 0.058815598 2567749
0.58039582 0.55092812 0.055096269 1714016
0.58156949 0.55354166 0.055180609 2304593
0.58347827 0.55448115 0.055857956 2369872
0.58584654 0.55645734 0.055979848 3026246
0.58898002 0.56216073 0.052714944 3749447
0.59137762 0.56392437 0.053625047 2762821
0.59366059 0.56623858 0.054072678 3289681
0.57638031 0.54915369 0.054087877 1714014
0.57758671 0.55209017 0.054613411 2304342
0.57943904 0.55332488 0.055169463 2304339
0.58043891 0.55626822 0.055127263 3157575
0.58339822 0.55859929 0.052043676 3683918
0.58515888 0.56114131 0.052340627 2894672
0.58758861 0.56302416 0.053319812 3749452
0.58914852 0.56403178 0.052737772 2040138
0.59060323 0.56718457 0.053426564 2105672
0.57142317 0.54981571 0.053077221 2435662
0.57341737 0.55041742 0.05342865 2566736
0.57499707 0.55221796 0.054293573 2304341
0.57728004 0.55506229 0.051145196 3749704
0.5796833 0.55832708 0.051851273 3749449
0.582537 0.56087774 0.053001165 3749452
0.58278131 0.56118423 0.051489055 2105936
0.58517528 0.56490296 0.052067339 2105937
0.56545544 0.54665506 0.051313698 1714020
0.56798601 0.54877281 0.052226722 2173014
0.56888872 0.5504517 0.052505672 2369874
0.57075989 0.55180585 0.053426266 2895428
0.57487595 0.55510569 0.050884604 3749705
0.57609868 0.5582037 0.051630616 3749703
0.57806373 0.55929005 0.050144613 2171732
0.57968789 0.56229901 0.050858021 2105937
0.56139117 0.5454374 0.051250219 1713758
0.56298393 0.54695189 0.051371455 1713758
0.56507778 0.54881454 0.052107036 2435410
0.56837851 0.55359238 0.048985839 3815245
0.57169884 0.55658424 0.049302042 2960716
0.57287472 0.56008136 0.049453378 2106447
0.57562065 0.55962622 0.049831212 2106195
0.55588424 0.54316348 0.050276637 2762808
0.55813265 0.54478353 0.05056262 2238787
0.5608179 0.54606634 0.050140977 3222845
0.56196123 0.54907024 0.051086605 3091779
0.56508756 0.55444396 0.048176944 3815498
0.56708324 0.55433011 0.047590196 2171470
0.56887847 0.55741888 0.048810363 3026251
0.55268383 0.54351121 0.049353898 659252
0.56072587 0.5527975 0.046239257 3749708
0.56294417 0.55502111 0.047211349 2697551
0.56601131 0.55801272 0.048249245 3026252
0.54979873 0.54418939 0.04880029 263701
0.55308145 0.54741198 0.049097538 1844036
0.55816048 0.5525108 0.045971692 2960967
0.55995888 0.55399865 0.046550393 3026506
0.55173969 0.54870021 0.045420706 3156278
0.55348676 0.55107975 0.045647264 3091775
0.55562836 0.55310482 0.045544028 2961217
0.55863136 0.55637985 0.046243191 2171724
0.54934037 0.54915386 0.045222044 920607
0.53742504 0.56095153 0.035318077 592159
0.536412 0.57917899 0.023293674 6045956
0.53774929 0.58078742 0.023081779 6112520
0.54001355 0.58279812 0.022902787 5456400
0.71973479 0.60344565 0.087365806 5330027
0.71699023 0.60522008 0.086157739 5000551
0.72135293 0.60576326 0.086522937 5527663
0.71208984 0.60207486 0.084450841 3684681
0.71372372 0.60343844 0.085030794 4145491
0.71601927 0.60443914 0.084625781 4408665
0.70852983 0.60135329 0.084020436 2761790
0.71033317 0.60146362 0.084439933 3289156
0.71159196 0.60439306 0.085170865 4211283
0.70407522 0.59979695 0.082839787 1709351
0.70654857 0.6017589 0.083372414 2300725
0.69796681 0.59757501 0.081839085 986656
0.70076603 0.59872985 0.082454801 1315363
0.69580936 0.59788275 0.080210328 723482
0.69206417 0.59734732 0.079906821 526108
0.69381863 0.59800059 0.079773664 592151
0.68801665 0.59776068 0.07788825 855331
0.69001681 0.59793043 0.078113616 657447
0.69769931 0.60910797 0.075522482 2565430
0.69965303 0.61024827 0.076049387 2893881
0.68348211 0.59610021 0.076852083 1446449
0.68611789 0.59749651 0.077633739 1117993
0.69537652 0.60937357 0.073970914 2105649
0.67439878 0.58925122 0.075590372 2697279
0.67618006 0.59018981 0.075314522 3355199
0.67909616 0.59386444 0.076305568 1774900
0.68088323 0.5945549 0.076165438 1906487
0.69237411 0.60805142 0.073303878 1711145
0.69321138 0.60981506 0.074795127 2236465
0.67057365 0.58851981 0.075300336 2631236
0.67206913 0.5901264 0.075814664 2368319
0.67446071 0.59203613 0.076402903 1972793
0.67705822 0.59382343 0.075875342 1709364
0.68770373 0.60871887 0.072585344 1250851
0.66458064 0.58437222 0.074238777 4274501
0.66563559 0.58755213 0.074994206 2761790
0.66854328 0.58827072 0.075226009 2565188
0.67082059 0.59405148 0.073022306 1317187
0.68375677 0.60726875 0.070767641 1973297
0.68662012 0.6081605 0.070286572 1776176
0.66057581 0.58411676 0.073500276 4996950
0.66297591 0.58630794 0.075264633 5458007
0.66843957 0.59495384 0.073151171 1185862
0.67752343 0.60452533 0.070218503 2368565
0.68039495 0.60561919 0.070253789 2500151
0.65453345 0.580594 0.071962237 1775404
0.65558875 0.58387583 0.072903693 2103854
0.65744382 0.58451676 0.072817385 2431531
0.66251415 0.59082484 0.070722163 1448004
0.66460896 0.59094465 0.070410311 1514571
0.67061174 0.59980983 0.069116116 3814983
0.67239261 0.6013 0.06962651 3552321
0.67416781 0.60303801 0.070001066 2500408
0.64902258 0.57907784 0.071783066 1381151
0.6507026 0.58011055 0.071536362 2170673
0.6520732 0.5821439 0.071951568 2433080
0.65355361 0.58371073 0.072541416 2432820
0.65842938 0.58926398 0.069812 4736608
0.65936738 0.59285247 0.069698751 2170951
0.66642129 0.59805959 0.067423105 3683658
0.66816568 0.60026997 0.068734884 3486279
0.6702528 0.60372841 0.066863 3684424
0.67199063 0.60504365 0.06624645 4473424
0.64227748 0.57495952 0.070586145 4668490
0.6442436 0.57688516 0.071417391 1906725
0.64709926 0.57848644 0.071815431 789003
0.65068227 0.5850209 0.068282425 987959
0.65415579 0.58846283 0.069561064 2104640
0.65609407 0.58946157 0.069977343 5131115
0.66195935 0.59765053 0.067307055 3354940
0.66404361 0.59927773 0.067343056 3157318
0.66591603 0.60187852 0.066810369 2762313
0.66774052 0.60427791 0.066647887 2696021
0.67082983 0.60880041 0.066529214 1974079
0.6381976 0.57516551 0.069809973 2696244
0.64084673 0.57601374 0.070952237 2695983
0.64520609 0.58294207 0.068841338 724775
0.64755368 0.584943 0.068640709 922430
0.65080434 0.58804625 0.068868995 1250621
0.65259087 0.59064233 0.065656126 2105133
0.65775305 0.59643489 0.066001952 4209480
0.65942597 0.59904838 0.066506505 2894142
0.66200888 0.59978849 0.066055298 2170948
0.63334072 0.57164347 0.068443775 3091014
0.63405252 0.575297 0.069047868 3223106
0.63620329 0.57474762 0.069720566 2959421
0.64064968 0.57952708 0.067657769 658496
0.64198869 0.58182883 0.068638146 263713
0.65024322 0.59113216 0.065177798 2631733
0.65168226 0.59412962 0.064258516 921123
0.65401942 0.59595466 0.065332234 4275018
0.65561306 0.59690142 0.065177619 4011858
0.62987745 0.57183731 0.067619264 2301483
0.63211769 0.57520169 0.068808556 3156801
0.6346581 0.57735229 0.066738367 1974086
0.63599515 0.57979816 0.067760885 1054260
0.63937247 0.58294308 0.064526141 5196378
0.64158195 0.58658218 0.064893186 2104359
0.64474112 0.58702517 0.064832032 2630964
0.64589012 0.59042084 0.065388381 2763322
0.64804631 0.59090298 0.065146625 3091774
0.64986885 0.59474164 0.065011024 2499635
0.65105456 0.5965026 0.065378726 2432562
0.62446463 0.56913948 0.066971779 2564912
0.62684292 0.57086575 0.067593396 3683644
0.62781531 0.5729385 0.065300405 1053753
0.63042247 0.57595974 0.066730678 1908546
0.63625532 0.58282495 0.064368963 4669773
0.63736427 0.58575189 0.065101504 2893878
0.63951188 0.58733374 0.0628196 2301248
0.64217222 0.59072852 0.06434077 1315872
0.64410472 0.59113783 0.063386858 1382700
0.64573312 0.59396064 0.064202189 1447735
0.62013566 0.56800002 0.065737188 1512742
0.62275738 0.5713197 0.066681385 2893619
0.62473357 0.57291752 0.065466166 2894675
0.62633896 0.57516718 0.066340208 1513532
0.63099062 0.58054572 0.06271255 3749446
0.63255996 0.58314794 0.063863814 3683907
0.63352597 0.58398557 0.062112987 3221053
0.63611519 0.58708411 0.062802255 3814471
0.63867015 0.59039146 0.063726544 526106
0.59875417 0.54800886 0.067245305 2896227
0.60023379 0.55039084 0.067997873 2764634
0.61587214 0.56826425 0.064535379 2039872
0.618563 0.57012922 0.064023256 1053760
0.62094563 0.57225716 0.065132558 2959948
0.62622416 0.58021569 0.062312007 3288890
0.62852812 0.58010268 0.062449753 3815236
0.63010538 0.58354455 0.062630475 2959427
0.63282734 0.58653218 0.063111484 2564917
0.59455615 0.54765117 0.066966295 2961494
0.59693754 0.54922611 0.067630529 2830168
0.61077851 0.56526202 0.063637435 2500411
0.61209857 0.56805015 0.063666165 1777732
0.61356401 0.56890118 0.063833058 1251912
0.61692345 0.57170212 0.064387918 988224
0.62200296 0.57893783 0.06155616 4077897
0.62402964 0.58114201 0.061298668 2564921
0.6262064 0.58334875 0.061039388 2104385
0.59107304 0.54671872 0.0656569 2830167
0.5916701 0.54954135 0.06666261 2961236
0.60378325 0.56304961 0.062839329 2499897
0.60680479 0.56456184 0.062821746 1843000
0.6086995 0.56658119 0.063582122 1119542
0.61544341 0.57599866 0.059878707 2105136
0.61881161 0.5778107 0.060688734 1972778
0.62028062 0.57960129 0.060631931 2629686
0.62249029 0.58120543 0.060890853 2497850
0.58668691 0.54614025 0.064639211 2895956
0.58838618 0.54646897 0.065019906 2895954
0.59997725 0.56190884 0.061653674 2565960
0.6019789 0.56379396 0.06213975 1382717
0.61258292 0.57522106 0.059316278 2828862
0.61322629 0.57833457 0.05994314 2236725
0.61602658 0.57836801 0.059959233 1116969
0.58254814 0.54501629 0.064013839 2699090
0.5850172 0.54605484 0.06425947 2830418
0.5971334 0.56041563 0.060520113 2303819
0.59726292 0.56318206 0.061369538 1974859
0.60603011 0.57279348 0.058008075 2105918
0.60770082 0.5740037 0.058183789 2631493
0.60954893 0.57542878 0.059137225 2828612
0.5765332 0.54391569 0.062627137 2764370
0.57889837 0.5450905 0.062758029 2764371
0.59242815 0.56002939 0.059572518 1581914
0.59380627 0.56138492 0.059633374 3025994
0.60195369 0.57168406 0.057038665 3486268
0.60434484 0.57285231 0.057965875 2631480
0.60675156 0.5759111 0.058663845 3288384
0.57476294 0.5437606 0.06212455 2895692
0.58657581 0.55716193 0.058118641 1713503
0.58836585 0.55957943 0.057892501 2238802
0.59047914 0.56133664 0.058692694 2632525
0.59625691 0.56986445 0.056166112 3815495
0.59894401 0.57067215 0.056201816 2894668
0.60090685 0.5727424 0.056953907 2302778
0.56273627 0.5341531 0.060330808 2433586
0.566064 0.53803241 0.059690535 2633027
0.56817871 0.53995878 0.059437096 2764354
0.57039118 0.5432018 0.060921371 2763856
0.57281011 0.54420555 0.061105549 2829388
0.58404791 0.55845702 0.057154775 2501199
0.58615428 0.56135213 0.058081806 2501454
0.59221935 0.56782252 0.05577457 3814983
0.59410131 0.56971532 0.055506587 3288910
0.59651905 0.57184941 0.055803895 2302037
0.56461674 0.53689033 0.059727848 2632769
0.56417251 0.53996289 0.060424268 2567228
0.56619453 0.54225123 0.059878707 2633284
0.56760567 0.54356188 0.059856594 2698819
0.57660675 0.55446547 0.055531561 1648224
0.5784837 0.55649692 0.056511104 1648220
0.58054626 0.55788267 0.056708395 2369620
0.58622652 0.56413096 0.053925812 3749706
0.58853871 0.56703073 0.054410934 3223373
0.58997267 0.56968153 0.054478824 2171465
0.56184733 0.53907299 0.059854925 2433858
0.57296491 0.5523985 0.054709494 1779291
0.57408077 0.55472952 0.055163682 2370130
0.57633269 0.55676061 0.055390298 2698060
0.57758045 0.55825293 0.055927336 3091784
0.5802536 0.56160605 0.052660823 3684170
0.58260071 0.56434238 0.05350852 3749450
0.58532912 0.56657815 0.0548985 3749452
0.58555621 0.56762862 0.052978933 2237265
0.58716434 0.56993818 0.054182947 2237261
0.5686264 0.55161107 0.053161144 2960710
0.56991196 0.554084 0.054088295 2304592
0.57182038 0.55510545 0.054841578 2370128
0.57759124 0.5612275 0.052524269 3749961
0.58003145 0.56479943 0.052537978 2895181
0.5829854 0.56769186 0.052761495 2171475
0.56508076 0.55137891 0.053255498 1648222
0.56679732 0.55327034 0.053102732 2238802
0.56747997 0.5547477 0.053783536 2960966
0.57354569 0.55900621 0.051142693 3684169
0.57469153 0.56224006 0.051182926 2895182
0.57628828 0.56420821 0.050880969 2171475
0.57843739 0.56565392 0.051441669 2171474
0.55847257 0.54827708 0.050964057 2501444
0.56106812 0.54948044 0.052314997 1779293
0.56234586 0.55237013 0.052212059 2567242
0.56513929 0.5548256 0.053288877 2960459
0.57055181 0.55980283 0.05000037 2895179
0.5719102 0.56278187 0.050744236 2895437
0.55312699 0.54525161 0.052807093 658976
0.55562216 0.54820877 0.050886452 1714243
0.55708218 0.54897666 0.051416814 2500672
0.55849481 0.55207646 0.051274657 2960960
0.56366396 0.55786288 0.048295975 2960715
0.56630754 0.56081021 0.04914844 2960460
0.56918073 0.56321448 0.050324798 2960973
0.55212247 0.54579479 0.05030793 593200
0.5522145 0.54993856 0.049919248 1909047
0.5551579 0.55196548 0.050845265 2564922
0.55770373 0.55467796 0.047150493 3815750
0.56098813 0.5581243 0.047929943 2960972
0.56221098 0.56122243 0.048675954 2960460
0.55435228 0.55473125 0.047168612 3881030
0.55631387 0.55744851 0.047311068 2829127
0.55834591 0.55844313 0.047666788 3091788
0.54917842 0.55130833 0.045923471 2760478
0.55068129 0.55353045 0.046530604 2236467
0.55250955 0.55656081 0.046170354 2237755
0.54784083 0.55319822 0.045455396 592142
0.54856539 0.5553683 0.046442211 1381151
0.54127604 0.58599108 0.024335861 3614488
0.53635788 0.58277392 0.025369227 2166794
0.53784865 0.58417898 0.025147498 2496010
0.53944528 0.58685279 0.024906754 2562064
0.71898621 0.60513371 0.088565767 5658481
0.71545762 0.60681832 0.087153256 5264492
0.7086283 0.60385042 0.086146116 4079440
0.71177149 0.60650355 0.086513758 4869473
0.700831 0.60017508 0.085434377 1972015
0.70267028 0.60011661 0.085838795 2169139
0.70542908 0.60300756 0.085503578 3354179
0.69724333 0.59878057 0.084512591 1446693
0.69913328 0.59867501 0.084902346 1577767
0.69339812 0.5984475 0.0830369 789529
0.69522959 0.59850919 0.084396839 1249568
0.69043565 0.59805489 0.081905425 592152
0.6876893 0.59840339 0.080842435 591895
0.69815451 0.61097336 0.078271151 3025730
0.68286628 0.59771514 0.079348326 658209
0.68588519 0.59854507 0.079263628 723488
0.69433528 0.61001867 0.077180624 2630965
0.67923224 0.59613079 0.078450024 657447
0.69048446 0.60938466 0.075744331 1973804
0.67290795 0.59386289 0.07744807 1184302
0.67577666 0.59536648 0.077863574 591911
0.68660915 0.60962331 0.074430287 1251107
0.66667819 0.5905683 0.075892985 2039351
0.6692645 0.59268159 0.076328993 1710646
0.67076302 0.59416431 0.076911271 1119024
0.67244548 0.59726423 0.074107885 330038
0.68254346 0.60826981 0.072573304 1447720
0.68428284 0.60935318 0.073225975 1250852
0.66076565 0.58653498 0.0747419 6378100
0.66339481 0.5910278 0.075177789 2630455
0.6665194 0.59426594 0.076246262 1447730
0.67021835 0.5969556 0.07422781 132655
0.67878783 0.60761076 0.072633207 1382186
0.68172574 0.61017156 0.073871434 1250595
0.65893525 0.58899766 0.074310422 4273744
0.66156995 0.5904662 0.075112998 3813451
0.66496456 0.59537166 0.073104203 1054027
0.67019719 0.6016621 0.070601761 2762813
0.67261922 0.60486245 0.071410179 1119531
0.67561877 0.60630858 0.072009325 1447987
0.65525621 0.58790326 0.073130429 2564147
0.65750736 0.58992809 0.074744403 3024701
0.65943646 0.5939461 0.071545243 1643588
0.6616686 0.59464002 0.072423518 987460
0.66789323 0.60177511 0.070464075 2960190
0.66928154 0.6050173 0.071318924 922664
0.64694846 0.58321661 0.072458625 1774878
0.64911562 0.58482051 0.072399735 2301231
0.65133131 0.58720416 0.072903514 2761789
0.65388846 0.59091127 0.071687162 1973837
0.6555649 0.59186441 0.071000457 4539738
0.6574856 0.59286559 0.071348369 3421265
0.66161919 0.59977686 0.069878697 2960442
0.66344988 0.60194153 0.069925368 2763322
0.66551244 0.60230976 0.070068717 3025980
0.66860604 0.60893935 0.067613304 856120
0.67066139 0.61008739 0.068297148 592440
0.63926834 0.57766336 0.070938885 1579043
0.64130896 0.58090842 0.071992397 1314594
0.64398885 0.58128446 0.072197318 1446170
0.64507729 0.58452159 0.073055685 4209217
0.64784801 0.58770061 0.069319844 1316420
0.6493153 0.59019327 0.070128262 1513803
0.65151435 0.59074825 0.070827484 1316679
0.65879303 0.60020602 0.068278968 3355193
0.66080374 0.60280639 0.067199707 1777223
0.66285264 0.60492414 0.067298591 1908297
0.6645627 0.60732949 0.067348123 1645642
0.66660714 0.60823792 0.066711843 1514058
0.63519704 0.57749718 0.070366502 2697273
0.63725674 0.57798964 0.070441961 1973805
0.63856387 0.5813697 0.070227087 789797
0.64277101 0.58631617 0.069363177 1250620
0.6459558 0.58739233 0.069573283 1119555
0.64738989 0.58992976 0.07046473 1448007
0.65257436 0.59787875 0.066207349 4275788
0.65464377 0.59895575 0.067055345 5196123
0.65665805 0.60083771 0.067167044 3814738
0.65884906 0.60229969 0.067535102 1908026
0.63102174 0.57754958 0.069755375 2433582
0.63306642 0.57717866 0.07016927 2894904
0.6362797 0.58098239 0.07108897 1841964
0.63631642 0.58284092 0.068297207 528431
0.63884056 0.58504146 0.069263399 2368590
0.64138931 0.5875693 0.069942772 3025753
0.64833868 0.59649295 0.066948414 3420480
0.65040076 0.59832454 0.06630367 3221819
0.65244102 0.59970474 0.066013634 4799319
0.62601089 0.57338738 0.068552077 5986147
0.62740546 0.57582986 0.068756521 2959414
0.62892056 0.57756215 0.068247914 1579311
0.63258314 0.5803324 0.067555964 1120315
0.63297629 0.58322173 0.068324029 923187
0.63943851 0.5895099 0.065470815 1841705
0.64163256 0.58986318 0.065433979 1776417
0.642434 0.59391856 0.065737188 2763310
0.64488465 0.59576517 0.065078914 2631485
0.64674121 0.59724021 0.065386832 2433595
0.64801592 0.59933102 0.066254556 2170170
0.62201071 0.57304776 0.068101406 3815492
0.62348306 0.57425117 0.067439139 4933732
0.6253556 0.57744449 0.067791343 2105403
0.62871861 0.58108497 0.067474306 856873
0.63295841 0.58587128 0.064843774 3092280
0.63468844 0.590083 0.064951777 1973801
0.63664669 0.59019995 0.064346194 1578794
0.63992333 0.59356874 0.064321637 855578
0.64128852 0.59478587 0.065013647 1973805
0.60143614 0.55454326 0.069492221 2763859
0.61596543 0.57028884 0.065970302 2828606
0.61674982 0.5718351 0.066895485 2827840
0.61907387 0.57392323 0.066217124 2697027
0.62096751 0.57482296 0.066969931 3816282
0.62184209 0.57837701 0.067090809 1514052
0.62785178 0.58330446 0.063465476 3683904
0.62949216 0.58573312 0.064738572 3289410
0.63021773 0.58688813 0.062841296 2302009
0.63288927 0.58956236 0.064273357 1841966
0.63631457 0.59385979 0.064048886 1314857
0.59746867 0.55313158 0.068849504 2960477
0.60028392 0.55496752 0.06994766 2961242
0.6128813 0.57079959 0.065266967 2302785
0.61509526 0.57323414 0.065200925 1514314
0.61821473 0.57568991 0.066608369 1843527
0.62300557 0.58352 0.062739432 3748674
0.62533766 0.58381408 0.063030303 3420470
0.62691379 0.58618587 0.063465774 2302006
0.62937701 0.58978188 0.06359607 1842228
0.59390336 0.55257612 0.068207204 3157087
0.60506129 0.56527489 0.064197719 1513254
0.6073342 0.56913239 0.064592838 855071
0.60941595 0.57041281 0.064854681 1316659
0.618927 0.58181298 0.062151134 5196373
0.62061334 0.58338469 0.062298954 4997214
0.62338704 0.58532637 0.062340379 1577515
0.58859241 0.5501579 0.066667318 2895696
0.59064281 0.55175763 0.067587256 3288664
0.60152394 0.5657708 0.063682616 1119017
0.60356754 0.56731516 0.064158261 526878
0.60520387 0.56891555 0.064581633 592162
0.61552054 0.58089 0.061248481 3090748
0.61708987 0.58246905 0.061365604 4404048
0.5825159 0.54684395 0.065364361 2699602
0.58491373 0.54805595 0.065488219 2961493
0.58609223 0.55019295 0.066272557 2830166
0.59877199 0.56578904 0.063096166 1053756
0.60958135 0.57783949 0.060199618 2894656
0.61098719 0.58018297 0.060762823 2763073
0.612472 0.58183604 0.060405195 1643841
0.5796454 0.5478909 0.064698339 2633809
0.58197153 0.55058837 0.065598786 2503247
0.5938583 0.56327343 0.061165392 2041424
0.59524512 0.5657441 0.062194288 1843531
0.60446471 0.57528001 0.058933675 2630707
0.60472035 0.57736403 0.059599042 1776168
0.60672939 0.57804632 0.05991298 1579320
0.57363212 0.54611325 0.062934518 3026509
0.5764609 0.54601592 0.063814938 2895696
0.5768488 0.54925525 0.06463331 2698830
0.58933455 0.56309092 0.060361087 1582173
0.59118772 0.5651691 0.060764253 2763848
0.59748733 0.57275438 0.057268023 3091256
0.60146838 0.57602614 0.05845964 1052444
0.57026982 0.54528731 0.06215775 2960721
0.57186186 0.54595816 0.062431931 3157581
0.57422757 0.54899788 0.063906193 2829902
0.58468682 0.55997574 0.05891937 1713502
0.58639455 0.56215119 0.059874177 1648223
0.5874573 0.56435353 0.059874952 2435665
0.59338754 0.57254899 0.057066619 3486530
0.59562397 0.57332903 0.056997478 2565443
0.59741157 0.57554406 0.057702005 1446963
0.59900612 0.57614547 0.0580948 2169639
0.56398308 0.54209787 0.061606646 2697535
0.56528533 0.54371113 0.06125778 2829120
0.56747204 0.54548371 0.061236262 2960458
0.57997364 0.56058407 0.058757305 1713504
0.58196938 0.5609647 0.057944417 2566735
0.58320624 0.5634973 0.05908078 2501456
0.58888811 0.56968236 0.055851281 3749454
0.59080184 0.57309645 0.056261599 2500424
0.59345114 0.57443464 0.056678653 1776457
0.56248832 0.54162061 0.061387479 2105908
0.57500315 0.55966735 0.057146788 1779293
0.57757038 0.56036484 0.057464778 2435411
0.57999623 0.56309026 0.058620632 3092044
0.58288598 0.56691426 0.054585099 3749707
0.58494526 0.57017446 0.054855406 3289169
0.58745062 0.57207412 0.056156635 2894927
0.58920878 0.57215375 0.055491269 1974604
0.56934237 0.55591607 0.055101514 1779294
0.57202917 0.5576461 0.055754006 2370127
0.57304728 0.56005496 0.056759298 2632526
0.58055294 0.56678408 0.05444634 3880780
0.58177567 0.56988209 0.055192411 3880779
0.582991 0.5714255 0.05442512 2171730
0.56498599 0.55438936 0.053823769 1714010
0.56759989 0.55717552 0.054751277 2370130
0.56912827 0.5592891 0.055968821 2370128
0.57366103 0.56494814 0.052563965 3815750
0.575405 0.56658697 0.052979469 3815753
0.57792562 0.5675984 0.053320408 3026253
0.57979476 0.56926644 0.053047955 2171727
0.55949867 0.55151331 0.05366385 1779543
0.56054842 0.55467546 0.053945124 1845843
0.56312853 0.55566883 0.053637445 2173270
0.56492388 0.5580768 0.053860068 2960713
0.57102311 0.56553662 0.051615477 3026253
0.57317126 0.56677854 0.051804185 2237008
0.57521451 0.56776291 0.052631438 2302803
0.55775446 0.55320257 0.053803742 1845068
0.55932087 0.55507761 0.052155316 3092036
0.56024188 0.55831468 0.052946746 3091783
0.56696928 0.56420791 0.050833404 2566224
0.56860363 0.56572431 0.051692426 3815495
0.55234897 0.55110645 0.051751673 1580590
0.55418146 0.55238563 0.052095294 1516095
0.55523241 0.55427432 0.052039564 2499638
0.56162995 0.56291068 0.049942672 2433876
0.56381196 0.563842 0.049710155 3026256
0.5659287 0.56600583 0.051436365 3815498
0.55458951 0.55777776 0.049114048 3749959
0.55707723 0.56065303 0.048859715 3289417
0.55938262 0.56258881 0.049008429 3026253
0.56119895 0.56440395 0.049448133 3881034
0.54833704 0.55439341 0.049825251 591372
0.54916459 0.5558418 0.048533022 2038563
0.55183107 0.55784476 0.048518717 3025729
0.55282855 0.55965948 0.048060179 2369340
0.55498236 0.56083721 0.048646808 2303813
0.54711187 0.55566543 0.046604931 526089
0.54858088 0.55819821 0.047633231 986658
0.54125106 0.58955723 0.027461827 920075
0.53650647 0.58618033 0.027386487 854277
0.53867662 0.58861524 0.026881397 919815
0.71500254 0.60809994 0.088629067 5659251
0.71039289 0.6081022 0.087871552 5461355
0.71187085 0.60896963 0.088656425 5659248
0.71303189 0.61205924 0.088359237 5660023
0.70032763 0.60146171 0.087068796 2630204
0.70183647 0.60325199 0.087549686 3552327
0.70412076 0.60436082 0.087784171 4144978
0.70664465 0.60694921 0.087839186 4737887
0.70832747 0.607858 0.087660313 5001060
0.69650263 0.60073036 0.08677876 1905965
0.69873744 0.60083073 0.087014675 2300725
0.69973892 0.60354197 0.088241756 3684423
0.69232261 0.59908354 0.08615762 1446690
0.69462109 0.59972209 0.086931765 1709097
0.68738794 0.59793013 0.084407866 789531
0.68988031 0.59887475 0.085094631 1118238
0.68334889 0.59788322 0.083904505 788761
0.68514091 0.59857768 0.082741082 657436
0.69830012 0.6126914 0.080935478 4145234
0.67950642 0.5978958 0.083206892 2761543
0.6820783 0.59815395 0.08204788 591900
0.69467306 0.61148107 0.0797382 3288897
0.67857325 0.59744191 0.081092596 2105402
0.68981498 0.61064553 0.078369498 2631219
0.67395568 0.59644097 0.079608023 1907751
0.6755057 0.5978964 0.080285668 4078408
0.68574113 0.61035848 0.077379763 2039596
0.67109442 0.59613323 0.078210413 266
0.67160678 0.59746253 0.079805851 2368812
0.68181103 0.61068493 0.076277554 1645350
0.66485089 0.59273714 0.076764762 1578805
0.67739278 0.60859209 0.074557543 2368824
0.67966145 0.60996097 0.075267613 1381409
0.66270018 0.59328645 0.076092064 1709884
0.66350412 0.59757173 0.075489938 132128
0.66561633 0.5998466 0.075529456 66073
0.67134893 0.60624075 0.073170722 1778246
0.67387688 0.60781097 0.074016333 5065065
0.65606225 0.5916025 0.074770927 2104882
0.65862322 0.59336853 0.075383842 2301246
0.66043645 0.59633183 0.075073719 657969
0.66669089 0.60597616 0.073620975 4279690
0.64957213 0.58932328 0.073829174 2762045
0.65203851 0.59118348 0.074323535 2433595
0.65437973 0.59347022 0.074718833 1908022
0.6548273 0.59470361 0.071946084 1974348
0.65764904 0.59695131 0.072764933 790333
0.66484594 0.60497564 0.071136177 1185064
0.66647112 0.60671121 0.071512341 1514294
0.66823816 0.60809964 0.072132111 1975366
0.6706596 0.61135441 0.070021808 564
0.64315403 0.58393025 0.07308805 5261393
0.64407873 0.58706307 0.07405746 5458002
0.64680654 0.58825761 0.073840916 2958896
0.65183979 0.59425867 0.072438002 1184831
0.65353495 0.59847546 0.072409093 593724
0.6584087 0.60213757 0.069613516 2697782
0.66038966 0.60431856 0.071156025 1514026
0.66240865 0.60506368 0.070958614 1316392
0.66318285 0.60835028 0.069196999 263978
0.66638005 0.61051553 0.069186866 197928
0.668118 0.61166072 0.069805503 302
0.63940287 0.58290112 0.072987676 2367023
0.64073497 0.58514524 0.073274076 4273226
0.64186847 0.58728987 0.073534787 6312801
0.6449486 0.59030581 0.070371389 1316675
0.6464811 0.59287304 0.07116574 1448773
0.64847082 0.59384459 0.071677506 1251398
0.65378481 0.60166425 0.069828689 2894652
0.65593535 0.60239446 0.069451153 2959938
0.65775502 0.60515708 0.069412291 1448245
0.6600045 0.60676044 0.068784535 921648
0.63417834 0.58090693 0.07089293 2236470
0.63614261 0.58374989 0.071951747 2236205
0.63908428 0.58784634 0.069957137 4670821
0.64174795 0.5903815 0.07049793 2039881
0.64435124 0.592758 0.071340621 1251392
0.65050614 0.60029954 0.067770243 3091776
0.65157616 0.60210121 0.068290591 3223359
0.6536411 0.60380888 0.067713797 2894666
0.65550476 0.60537094 0.068278551 1513800
0.6279766 0.5804221 0.070123374 591890
0.63104057 0.58081329 0.070413232 1447460
0.63204736 0.58317459 0.071590185 2103859
0.63443547 0.58536476 0.06937772 1185848
0.63590133 0.58791947 0.070152104 2632011
0.63834786 0.59052169 0.070750713 3553111
0.64374959 0.59729433 0.066250324 3486009
0.64615995 0.59935766 0.067265153 3025986
0.64735806 0.60162473 0.067525744 1974080
0.62277794 0.57731169 0.068639815 4077637
0.62378049 0.57985914 0.069714844 985635
0.62602979 0.57933939 0.070290446 722715
0.62899828 0.5837211 0.068152905 856881
0.63100487 0.58606547 0.069256425 1448764
