# .PCD v0.7 - Point Cloud Data file format
VERSION 0.7
FIELDS x y z rgba
SIZE 4 4 4 4
TYPE F F F U
COUNT 1 1 1 1
WIDTH 1133
HEIGHT 1
VIEWPOINT 0 0 0 1 0 0 0
POINTS 1133
DATA ascii
0.51003432 0.5534659 0.0026768367 10847273
0.51228231 0.55593365 0.0020671654 10913317
0.51542205 0.55738086 0.0023532063 11110957
0.51672906 0.56008363 0.0020663096 11242297
0.51778245 0.56382382 0.0023990935 11175981
0.52057832 0.56562614 0.0022603921 11373365
0.52279842 0.5670417 0.0019606608 11439411
0.52573955 0.57293832 0.0022309539 11307824
0.52895778 0.57410651 0.0021357858 11439661
0.53004527 0.5768429 0.0025038361 11439409
0.53290558 0.57877094 0.0025303336 11504948
0.53385913 0.58143598 0.0025035585 11439660
0.53599489 0.58404648 0.0026631663 11373618
0.53792483 0.58495027 0.0026979689 11242028
0.54028428 0.5875777 0.0018018032 10979375
0.54208654 0.59187877 0.0028094621 11307561
0.54348892 0.59259665 0.0026626787 10715944
0.49092597 0.53515756 0.001653241 10584878
0.49283779 0.53769338 0.0016488014 10584617
0.49492997 0.5392766 0.001741928 10650410
0.4966715 0.54254001 0.0018209843 10650415
0.49935797 0.54378718 0.002156253 10650412
0.50142926 0.54588097 0.0016531032 10782509
0.50213045 0.55032152 0.0017504366 10781996
0.50451386 0.55158138 0.0017767809 10781998
0.50644875 0.55310416 0.001146113 10847794
0.50928193 0.55453682 0.00085066492 10913330
0.50994086 0.55823046 0.0014226707 10979120
0.51326829 0.56005758 0.002133749 11044910
0.51509237 0.56192857 0.0025272109 11044401
0.51659745 0.56503731 0.0016012583 11241780
0.51967865 0.5665226 0.0014319327 11505196
0.52234995 0.5713793 0.002006046 11439408
0.52413201 0.57220405 0.0017296514 11439661
0.4885582 0.53568065 0.0016966639 10650676
0.71636671 0.64597857 0.083623871 2040878
0.71094507 0.64484841 0.080389366 2369069
0.71250308 0.64597225 0.081379853 2501421
0.71426535 0.64760572 0.080883414 2501426
0.70677084 0.64349169 0.079505719 1777444
0.70887613 0.64504379 0.079691477 2237481
0.70358008 0.6433112 0.077811167 1251104
0.69987118 0.64237881 0.07580933 724759
0.70160508 0.64332265 0.07589478 790552
0.7040664 0.64427155 0.075184166 922139
0.69815302 0.64250273 0.074055776 723991
0.68184811 0.6295653 0.070883282 1710122
0.68326312 0.63085276 0.070896439 2039087
0.68572164 0.63364762 0.071878396 1316894
0.69395441 0.64395541 0.070749037 1447971
0.69597822 0.64383531 0.072693743 922139
0.67328364 0.62164181 0.070873886 2631720
0.67540622 0.62357306 0.070893638 2894892
0.6775369 0.62562811 0.070845954 1644329
0.67965961 0.62755907 0.070865773 1578536
0.68119782 0.63055587 0.069366358 2104627
0.68840927 0.64119047 0.069313198 922397
0.69009238 0.64237154 0.069161944 988193
0.69202578 0.64268786 0.06967362 1053986
0.66271353 0.61365861 0.067848697 988452
0.66505885 0.61636138 0.068351015 725268
0.66671014 0.61847454 0.068823919 1054213
0.66945195 0.62074113 0.068544872 1381404
0.67161942 0.6226989 0.068544544 1578784
0.67471468 0.62705392 0.066908807 1973271
0.67696369 0.62966144 0.068857044 2828597
0.68453282 0.63834536 0.067330845 1382438
0.68679577 0.64063609 0.067955382 1119521
0.64421874 0.59484857 0.06651666 723723
0.65385425 0.60614705 0.067412868 855603
0.65543407 0.60922575 0.066551588 921913
0.65997559 0.61454499 0.066192739 1250067
0.66253078 0.61665303 0.064733647 2171424
0.66471291 0.62029338 0.065905191 921617
0.66854709 0.62146342 0.066132821 1251347
0.66830224 0.62494761 0.066584781 1316880
0.67116612 0.62709427 0.066618152 1514009
0.67319435 0.62868667 0.066621594 1513253
0.67481673 0.63105422 0.065828204 2828596
0.67748076 0.63346666 0.065931894 3289384
0.67900354 0.63573354 0.067069292 1711378
0.68169242 0.63769335 0.066836908 1513758
0.64457613 0.59949458 0.065616786 986125
0.64566892 0.60148871 0.064222217 1250375
0.64812535 0.60282081 0.065132216 921406
0.65079457 0.6050179 0.065606683 920374
0.65368384 0.61046153 0.063205905 1709599
0.65554398 0.61276746 0.065171666 1250607
0.65712434 0.61540025 0.064614788 2038829
0.65939367 0.6161316 0.064371616 2960167
0.66170126 0.61926496 0.065588295 1250072
0.6672588 0.62522882 0.063121766 921629
0.66958821 0.6278165 0.064063556 1250077
0.6712994 0.63063854 0.064503707 1446938
0.67309016 0.63159806 0.064550199 2630697
0.64050269 0.59804285 0.062961571 987705
0.64271832 0.6000151 0.063389763 1251134
0.64347112 0.60180992 0.063963264 1185086
0.64597881 0.60390568 0.063712753 986131
0.64859927 0.60580522 0.063164257 1447446
0.65078765 0.60781151 0.063181676 1776162
0.65142477 0.61356109 0.062936917 1644347
0.65353161 0.61485308 0.062593795 1776664
0.65576887 0.61641735 0.063361578 2302745
0.65800613 0.61850536 0.060789503 3288122
0.65981746 0.62112856 0.061528042 2170918
0.6614691 0.62215805 0.062083244 1184023
0.66370243 0.62490726 0.062707387 855829
0.6663124 0.62712872 0.063393749 1052698
0.66753465 0.6295315 0.063953958 1513239
0.63188159 0.59332061 0.060851775 791087
0.63435292 0.59476608 0.060759649 1055277
0.63604528 0.59719193 0.061032049 1317162
0.63785613 0.59899592 0.061785981 1185081
0.64834803 0.61150783 0.061219431 1447702
0.65010232 0.61311662 0.061171889 1710376
0.65223926 0.61440808 0.060188249 1579033
0.65410846 0.61858046 0.060323827 2039074
0.65576756 0.61967027 0.060892358 2433580
0.65780133 0.62062794 0.061335385 3157298
0.65966833 0.62387484 0.062338881 1184028
0.62255973 0.58432817 0.058413792 725302
0.62448072 0.5872013 0.059625648 1513524
0.6271438 0.58922338 0.060000166 4209237
0.62859941 0.59251642 0.060100518 2697275
0.6333217 0.59979552 0.059439033 1186119
0.64158159 0.60543376 0.058543194 3420472
0.64215535 0.6081233 0.058591537 1907750
0.64536202 0.60973066 0.059552033 1184528
0.64630395 0.61326015 0.058419935 921112
0.64887428 0.61409068 0.0592108 987418
0.64996302 0.61707902 0.059894502 1644825
0.65220344 0.61798447 0.060191073 1447194
0.6191234 0.58398068 0.057298504 988221
0.62113851 0.58702928 0.058225807 4738095
0.62334466 0.58881366 0.058010064 2500864
0.6255331 0.59082001 0.058027677 1907497
0.62772161 0.59282637 0.058045212 1907997
0.62978446 0.59537584 0.058479771 1581095
0.63157606 0.59724778 0.058698267 1384748
0.63317186 0.60061038 0.055504706 1185313
0.6357128 0.60279036 0.056105908 2171428
0.63663113 0.60476744 0.056886438 1644838
0.63884258 0.60709351 0.057161115 2499881
0.64056224 0.60963225 0.05795664 1710116
0.6431101 0.6110518 0.057751965 1118238
0.64427179 0.61250806 0.058231898 1052686
0.61115587 0.5793094 0.054517459 988224
0.61431366 0.58175004 0.055225283 988473
0.61459261 0.58379191 0.056124259 988475
0.61738676 0.58555961 0.056268211 923938
0.61827171 0.58762497 0.056415748 1975312
0.6291855 0.60022676 0.05487645 1842977
0.63122398 0.60085547 0.055580195 1711651
0.63348746 0.60288352 0.056314178 1514024
0.63516289 0.60619831 0.054650079 1972759
0.63701004 0.60828954 0.055699442 3617580
0.60486108 0.57492965 0.05269124 1054273
0.60729486 0.57861018 0.053668793 988479
0.60975152 0.58041495 0.054831054 988480
0.6116972 0.58221662 0.054220568 1382192
0.61328602 0.58472079 0.053304233 1254169
0.61508465 0.58722234 0.054039624 858643
0.62142992 0.5937925 0.052707631 2104882
0.62223959 0.59532505 0.052062627 3682604
0.6257236 0.59802973 0.053394351 1579548
0.6269424 0.60005063 0.054438774 1776672
0.63114512 0.60490894 0.053166561 1973795
0.63312173 0.60715586 0.055086747 1644827
0.6027717 0.57502884 0.052630045 1054266
0.60486406 0.57727319 0.053371511 1054010
0.60528022 0.58078259 0.051720522 1253161
0.60740668 0.58277577 0.051706478 1253161
0.60893571 0.58409393 0.051641699 1775911
0.61630458 0.59098756 0.051098842 1382430
0.61795068 0.59380692 0.052080192 1578783
0.62022954 0.59576309 0.052338004 3945783
0.62173218 0.5975135 0.052620258 4538442
0.62426251 0.59944171 0.051866312 2301983
0.62545723 0.60236192 0.052634727 1710367
0.62843198 0.60401541 0.052762065 1842467
0.59438711 0.56885082 0.049474001 989237
0.59646827 0.57210958 0.050474495 1054772
0.59937966 0.57395649 0.050778266 988729
0.60128248 0.57602435 0.051172845 1382698
0.60241312 0.57810819 0.051729009 1448993
0.6079095 0.58543301 0.048496194 1251107
0.61066216 0.58772606 0.050220925 1120041
0.61216396 0.59041452 0.050747197 1579815
0.61439449 0.59136319 0.049934663 2106151
0.61571372 0.59469414 0.049915906 1578767
0.61777896 0.59719098 0.050525866 3222297
0.62250298 0.60199833 0.051768426 2367268
0.5905686 0.56977236 0.048498712 988982
0.59314406 0.57168049 0.049939703 1120818
0.59417707 0.57338297 0.048149608 1775910
0.59633487 0.57593703 0.048553899 1906454
0.59809721 0.57787985 0.048800427 2037775
0.59957802 0.57924247 0.048811428 1644825
0.60232913 0.58203489 0.047077417 1250849
0.60448492 0.58502698 0.048016459 1251111
0.60680568 0.58766353 0.048541985 1842981
0.60850143 0.58904111 0.048680052 2435107
0.61004204 0.59077007 0.049372707 2434855
0.61168432 0.59348297 0.048104908 1908514
0.58651471 0.5660736 0.046110477 1185612
0.58687955 0.56810623 0.047003143 1054523
0.58735228 0.56991738 0.048093461 1120309
0.59044337 0.57341105 0.046429485 1907997
0.59192443 0.57477379 0.046440475 2039583
0.5957374 0.57728571 0.046465814 1250845
0.59767437 0.57798368 0.046493292 1316384
0.59898716 0.58196276 0.046851087 1316389
0.60101545 0.58456731 0.046616144 1777701
0.60270387 0.58607608 0.046475433 2369835
0.60421634 0.58800983 0.04650294 2172197
0.60680544 0.59090185 0.046367738 1974820
0.60917985 0.59211659 0.04685425 2040354
0.58026278 0.56523228 0.043831147 4404524
0.58336556 0.56705344 0.045964558 1184055
0.58465141 0.56975049 0.043314744 1713214
0.58680701 0.57171911 0.043333311 2040631
0.58849806 0.57492191 0.044383388 1513766
0.59145868 0.57499415 0.044565741 1316389
0.59235865 0.5780831 0.04531341 1381921
0.59550774 0.581433 0.045023594 1843498
0.59616989 0.58455944 0.044477329 2435879
0.59912843 0.58552241 0.0443701 2106655
0.60082501 0.58814168 0.044939287 2106142
0.57965398 0.56699336 0.044925727 5128482
0.58322847 0.56833893 0.043368872 1713455
0.58546591 0.57380265 0.042610839 1316644
0.58651406 0.57517278 0.043574836 1447717
0.58995181 0.57754356 0.043444864 1908772
0.59104139 0.58075434 0.042658322 2566695
0.59306479 0.58184826 0.042905513 2304039
0.59533328 0.58411169 0.043505244 2303266
0.57694262 0.56713045 0.041150596 2629936
0.58037859 0.57005608 0.041003589 1974833
0.58145285 0.57273525 0.042056426 1710637
0.58341998 0.57492906 0.042616047 2235709
0.58558363 0.5774684 0.041163459 2171943
0.58779877 0.57795906 0.04091626 2303777
0.58956534 0.58099288 0.041848853 2303268
0.57209265 0.56525964 0.03880851 4472090
0.57385993 0.56778651 0.039476089 2892081
0.5761928 0.56993586 0.037324831 2891047
0.57807148 0.57128102 0.039576676 1972012
0.58000928 0.57439673 0.03819472 2698285
0.58127934 0.57626349 0.039599154 2632233
0.58396292 0.57717341 0.040133916 2237475
0.5753898 0.57200235 0.038514089 3087903
0.57543546 0.57372308 0.036879797 3354406
0.57859832 0.57382107 0.037637502 2763823
0.56918436 0.56632197 0.035787478 5720583
0.57271391 0.57207596 0.035457883 4733203
0.56682187 0.57786351 0.027826056 6246146
0.56578296 0.58038312 0.0283379 6706189
0.55914253 0.58421999 0.019786522 8613655
0.56029058 0.58706218 0.019515485 6703900
0.54845876 0.57819837 0.01679882 9467450
0.54977572 0.57970291 0.016755264 9070158
0.55171835 0.58192205 0.016690906 7425072
0.55366087 0.58414125 0.016626533 7359017
0.55497772 0.58564585 0.01658285 6707200
0.55944073 0.5908429 0.016509287 5653794
0.52990592 0.56176949 0.013315708 11304809
0.53213584 0.56320333 0.015474538 11113030
0.53362513 0.56550634 0.014546641 11373393
0.53587073 0.56801087 0.014375822 11175498
0.53788304 0.56986719 0.015358363 12032334
0.5395872 0.57251865 0.013835805 11242057
0.54202539 0.57467997 0.014514512 11111496
0.54342395 0.57754517 0.014191053 11110483
0.5455609 0.57863122 0.01453641 10782033
0.54776585 0.58189332 0.013282201 10319949
0.5512926 0.58724833 0.013315643 8676141
0.55282551 0.58862865 0.013217171 9728063
0.55605793 0.59062946 0.014756314 6180888
0.55780679 0.59367436 0.012108712 6046752
0.51004297 0.54281074 0.011402059 10388770
0.51310062 0.54447854 0.012233268 10715740
0.51413184 0.54753739 0.01360904 11177524
0.51614678 0.5496189 0.013274935 11306581
0.51819354 0.5519011 0.011656616 11241298
0.51991498 0.55384165 0.011350498 11635532
0.52224106 0.55712533 0.01143609 11175509
0.52588934 0.56094182 0.012509428 11305563
0.52768219 0.56311554 0.013234378 10850865
0.52969062 0.56536001 0.012977009 11043924
0.5312258 0.56857944 0.012951086 11174232
0.53377914 0.56808931 0.013533819 10976856
0.53581554 0.57254881 0.012189372 10978120
0.53804338 0.57513815 0.011726928 11505214
0.53986174 0.57580739 0.011761986 11176261
0.54121304 0.57806402 0.013478533 10846551
0.54338694 0.58199513 0.012958004 10648664
0.54601967 0.58300096 0.012520795 10189382
0.54726696 0.5854553 0.012560729 9793610
0.54949343 0.586335 0.012313779 10187602
0.55130887 0.58991438 0.011771422 8347438
0.55395871 0.59302199 0.010977082 6902034
0.55564743 0.59468019 0.011408769 6704919
0.55697054 0.59714174 0.012460235 6048285
0.50115716 0.53448576 0.010763865 10125888
0.50309968 0.53670502 0.010699515 10389053
0.50504225 0.53892416 0.010635139 10454839
0.50698501 0.54114318 0.010570846 10520631
0.510602 0.54725534 0.011935104 10650445
0.5118534 0.54868448 0.011893672 10650445
0.51405525 0.55093861 0.0094004897 10847804
0.51622301 0.552903 0.011936046 11371856
0.51771402 0.55537957 0.011699509 11636562
0.52030939 0.55788845 0.011527454 11176272
0.522138 0.56001645 0.011751901 11175757
0.52412432 0.56270862 0.011747356 11242800
0.52907658 0.56587088 0.010531385 11309112
0.53282815 0.57028759 0.010198667 11636810
0.53450483 0.57345337 0.0095461253 11505990
0.54005712 0.57942277 0.011690528 11506239
0.54096383 0.58376449 0.0099967942 11768390
0.54301655 0.58595246 0.0098881833 11045194
0.54886144 0.58921325 0.0099714333 8610099
0.55121404 0.59100276 0.0097573884 7953182
0.55142421 0.5937916 0.011430741 7495699
0.55342221 0.59648526 0.011058908 6705684
0.55732769 0.59959114 0.009146939 4996647
0.49664992 0.5349685 0.01053223 10125616
0.49857616 0.53720546 0.0098313224 10321724
0.50010413 0.53888643 0.0092466082 10453065
0.50251091 0.54166329 0.010338092 10387783
0.50530809 0.54390121 0.0092206253 10585151
0.5057376 0.54534918 0.010231243 10191930
0.50799501 0.54805732 0.0090258289 10650931
0.51082927 0.5496704 0.0080979709 10846537
0.51282758 0.55316281 0.0077881748 10912330
0.51682115 0.55735904 0.0094523067 11174993
0.51829511 0.55909419 0.0091096703 10978380
0.52152097 0.5611648 0.0098123373 11176512
0.52272117 0.56372553 0.0082870787 11307834
0.524948 0.56544769 0.0088243466 11374116
0.52664065 0.56826538 0.0088685146 10979650
0.5288623 0.570611 0.0085993111 11176776
0.5305028 0.57340729 0.0086229462 11241548
0.53247613 0.57504803 0.01016852 11307598
0.53459561 0.57724684 0.010161896 11307595
0.53655893 0.5790047 0.0093242107 11571277
0.53684789 0.58212 0.007822792 10978638
0.54045165 0.58438987 0.0069330195 10912847
0.5443151 0.58879626 0.0073368307 10518095
0.54657918 0.59221625 0.0079631936 10189635
0.54882842 0.59238213 0.0082346769 9664057
0.54961824 0.59582144 0.0085761836 8875050
0.49514526 0.53740931 0.0080246329 10584136
0.49830619 0.54116958 0.0084923431 10781260
0.50106549 0.5430243 0.0075303698 10649925
0.50316691 0.5446527 0.0071631875 10650174
0.5045889 0.54635268 0.0078635626 10650689
0.50672275 0.5488711 0.0070862109 10584630
0.50835323 0.55219471 0.007411561 10781251
0.51043516 0.55398208 0.0081268661 10847043
0.51279348 0.55652553 0.0081146145 10912328
0.51346558 0.55884826 0.0076474538 11108927
0.51560509 0.56096303 0.0076366384 11241800
0.51886797 0.56250072 0.0078815399 11044434
0.52265924 0.5668987 0.0081127677 11175508
0.52425408 0.56814277 0.0074734008 11241558
0.52667314 0.57240516 0.0074429158 11044426
0.52893615 0.57294792 0.0073712142 11044420
0.53034049 0.57717103 0.0074468432 10978890
0.5336116 0.57828885 0.00721642 10913104
0.53462762 0.58127987 0.0080944914 10978642
0.53841084 0.58365631 0.0071244109 10978385
0.54011911 0.58761758 0.0073472261 10781516
0.54370445 0.59245449 0.007323985 10452819
0.55338848 0.6035949 0.0053744595 7032848
0.55526084 0.60487765 0.0052839303 5784327
0.49392724 0.53683692 0.0065316977 10255680
0.49536797 0.53836793 0.0065511037 10256152
0.4968318 0.54210383 0.0053652134 10255916
0.49891824 0.54426515 0.0053596338 10452803
0.53044927 0.58013195 0.0028205351 11308075
0.5332709 0.58337128 0.0025859037 11571253
0.54506326 0.59593993 0.003512966 10256424
0.54706818 0.59658444 0.0037466204 9138956
0.54929662 0.6006676 0.0040075299 7691283
0.55122507 0.60334516 0.0048103817 7361301
0.49444911 0.54236156 0.0019255262 10584881
0.4999826 0.54855174 0.0019506249 10781997
0.50060111 0.54947221 0.0019372408 10848042
0.50608891 0.55572736 0.0028188392 10847789
0.50818318 0.5568195 0.0028482536 10781736
0.50977606 0.55834162 0.0025728648 10913320
0.51068449 0.5610106 0.0028451052 10913318
0.51282978 0.56404257 0.0025450219 10978858
0.51526439 0.56604552 0.0030060341 10978858
0.51660115 0.56778562 0.0025078123 11176232
0.51937747 0.5697996 0.0022001816 11439152
0.52014357 0.57353824 0.0029788166 11241515
0.52260971 0.57567823 0.0022364235 11307818
0.52543795 0.57644248 0.002415691 11307817
0.52757198 0.57865584 0.0025858297 11241775
0.52882749 0.58293903 0.0025321282 11373613
0.53080988 0.58419079 0.0023974748 11505197
0.53207713 0.58674222 0.0025693588 11439406
0.53511405 0.58817416 0.0026671928 11439411
0.53801006 0.58979034 0.0025684643 11373360
0.53911358 0.59284592 0.0025736126 11307566
0.54045618 0.59510583 0.0029964456 11175982
0.54276282 0.59699875 0.0026709344 10847530
0.54564494 0.59987241 0.0031054625 9401107
0.54775959 0.6007303 0.0025582113 8348185
0.54799509 0.6050517 0.0028264346 7690514
0.48359105 0.53469807 0.0012364211 10387505
0.48532271 0.53584188 0.0012696362 10518829
0.48827887 0.53751856 0.0016356334 10585124
0.48969179 0.53983009 0.001753692 10715947
0.49179047 0.54273885 0.0019138777 10650157
0.49323627 0.54567742 0.0017312546 10650159
0.49564004 0.54698801 0.0018286943 10584364
0.49833751 0.54780018 0.0020069946 10715946
0.50082248 0.55410552 0.0018385183 10781997
0.50366956 0.55572724 0.001595628 10848049
0.50648284 0.55745697 0.0010041252 10847800
0.50809121 0.56142443 0.0030074026 10847279
0.51002187 0.5626784 0.0013869759 11045168
0.51137584 0.56714946 0.0016162838 11176242
0.51389849 0.56761152 0.0020199767 11175988
0.51912457 0.57472587 0.001707403 11505964
0.5247975 0.58054096 0.0021712896 11308077
0.52689201 0.58163279 0.0022006938 11439410
0.48615766 0.53950852 0.0016392497 10650162
0.48799512 0.54215056 0.0015254351 10650407
0.49831003 0.55358881 0.0013851016 10716202
0.50472993 0.56059325 0.0012323796 10847797
0.50653458 0.56192935 0.00093583274 10913582
0.71452749 0.64974231 0.084552772 1843243
0.70997912 0.64527857 0.084408566 2238257
0.71148938 0.64726621 0.083941646 2238000
0.71291924 0.64983535 0.082754984 2172468
0.70547187 0.64425337 0.081845589 2106411
0.70802677 0.64580154 0.082472086 2369328
0.70184362 0.64413851 0.079132117 1514270
0.69543707 0.64181596 0.078410409 1513754
0.69799799 0.64257199 0.077875406 1119005
0.69472718 0.64229047 0.07563936 2368554
0.69130635 0.64331019 0.074000895 4802110
0.67196721 0.62305832 0.073106676 2038032
0.67337734 0.62434822 0.073049292 1841678
0.67554891 0.62636793 0.07301531 1579551
0.67810631 0.62783039 0.072297059 1512486
0.67850047 0.63257611 0.071362391 1775915
0.68071282 0.63456041 0.071342058 1709604
0.68736005 0.64222533 0.073322944 4999231
0.68934822 0.64350545 0.072053939 3683892
0.6915043 0.64293748 0.07170482 2236711
0.65463638 0.60815823 0.069835611 856128
0.66601562 0.62015623 0.070702098 1646604
0.6674968 0.62151861 0.070713103 1972485
0.66965228 0.62348717 0.070731685 1972485
0.67590332 0.63158488 0.07108824 1186092
0.67812955 0.63260281 0.070254728 1842480
0.67822313 0.63540411 0.071121037 1448241
0.68243134 0.64030576 0.069211602 1250592
0.68449908 0.64230549 0.069178388 1185056
0.68767118 0.6426723 0.070620425 1382172
0.65232062 0.60870582 0.069237754 921405
0.65531927 0.61043221 0.068018302 922172
0.65978962 0.61614782 0.067713082 1380610
0.66196823 0.6181587 0.067589603 1250067
0.66323024 0.62108642 0.069121957 1317378
0.66950017 0.62791628 0.067591116 1711903
0.67149824 0.63030475 0.068166688 1711143
0.67324787 0.63210088 0.068314873 1579817
0.67731428 0.63730532 0.06798587 1645094
0.68012768 0.63929176 0.068608545 1316378
0.64687991 0.60528314 0.066602513 1512002
0.64834189 0.60666537 0.066721864 3090007
0.65001351 0.60836434 0.068042584 2168914
0.65412313 0.61434656 0.066034093 924181
0.65576255 0.61633009 0.06626711 1250339
0.65759641 0.61932284 0.067441918 1578496
0.65957808 0.62062418 0.066706061 3092240
0.66134465 0.62258929 0.066326596 2302239
0.66458088 0.62466586 0.066768549 2040089
0.66636491 0.62693614 0.067497365 1382675
0.66925412 0.63235927 0.066691749 1381673
0.67162371 0.6341083 0.065588608 1710619
0.67367011 0.63524443 0.065693721 3486255
0.67473567 0.63885117 0.066375911 1907758
0.64127272 0.60083187 0.064725183 1183006
0.64227158 0.60515207 0.065081112 856126
0.64428908 0.60511929 0.06525594 920891
0.64590657 0.60787797 0.067112111 3023952
0.65059674 0.61459583 0.064448439 1775913
0.65201181 0.61588305 0.064461634 1055767
0.65500611 0.61831582 0.064542457 1842968
0.65710914 0.61874324 0.064832918 1711380
0.65802932 0.62182266 0.065862618 1381907
0.66192442 0.62620157 0.063993551 1249305
0.66413271 0.62832105 0.063924849 1315097
0.6663115 0.63107318 0.064919271 1250080
0.66875756 0.63360691 0.064924143 1579292
0.67245859 0.63857055 0.06588991 1841955
0.63661259 0.60110927 0.063504621 1053500
0.63858479 0.60262191 0.063651167 987703
0.64002687 0.60450447 0.064367846 2170414
0.64267409 0.60724074 0.064447865 8154723
0.64587623 0.60904121 0.063511878 1380120
0.64696032 0.61126447 0.06441886 1839905
0.64911592 0.61323303 0.064437471 1775913
0.65058416 0.61728615 0.062871739 1842971
0.65282995 0.61891365 0.063014425 1579295
0.65527821 0.62197816 0.061523728 2170393
0.65710807 0.62332439 0.062336795 1315619
0.65871435 0.6259706 0.063415773 1183768
0.66240519 0.63109869 0.064015225 1512206
0.66426408 0.63200456 0.064267881 1513237
0.62725526 0.59439325 0.061321944 1448006
0.62891012 0.59560913 0.061528504 987706
0.63118774 0.5973385 0.06156598 988473
0.63269508 0.60028017 0.061816469 1053514
0.63497752 0.60139602 0.061466977 1184823
0.6429534 0.61261511 0.061095156 4078391
0.64506829 0.61322832 0.061284572 3354924
0.64749688 0.61601019 0.060902894 1381657
0.64919811 0.61791271 0.060969338 921375
0.65128869 0.62021089 0.061216295 1316378
0.65299618 0.62282997 0.061737411 1250591
0.65506393 0.62497926 0.062276676 1249812
0.61913121 0.58719599 0.058397394 922940
0.62203276 0.58980185 0.060121827 1973557
0.62464315 0.59215736 0.060312614 2763324
0.62609375 0.59398627 0.060362332 1908017
0.6303494 0.59871757 0.060890958 1907498
0.6317066 0.60005373 0.060838923 1513333
0.6369139 0.60828042 0.058590431 1514014
0.63917536 0.60995758 0.059395649 1381661
0.64114678 0.61187917 0.059874997 1709857
0.64329773 0.61481237 0.059394028 2498355
0.64477128 0.61685348 0.059664328 1841182
0.6468755 0.61939055 0.060154654 1578776
0.64965397 0.62075377 0.060392775 1645335
0.61503541 0.58569175 0.057077777 1054013
0.61609608 0.58810741 0.057791825 988731
0.61781651 0.58969778 0.05914088 1119798
0.62032223 0.59118992 0.057877745 7103600
0.62379551 0.59616625 0.059285555 1907997
0.62649852 0.59808362 0.058779031 1907997
0.62826568 0.60085815 0.058059886 1447973
0.63030213 0.60289347 0.056776971 1646117
0.63161767 0.60587662 0.057255242 1712166
0.63402182 0.60687834 0.05740153 1382695
0.63517445 0.60954785 0.057431858 1316638
0.63742632 0.61141825 0.058492467 1447453
0.63882685 0.61407632 0.057960916 1774871
0.64081532 0.61526114 0.058000881 2300699
0.60559261 0.57886684 0.054684702 988479
0.6082468 0.58186638 0.054879453 1054016
0.61054623 0.5840016 0.055815484 988222
0.61178911 0.58600038 0.056821901 923199
0.61444026 0.58782971 0.05782919 1054523
0.6166063 0.59133744 0.056231275 2238484
0.61813509 0.59265602 0.056166388 6843994
0.62156075 0.59767646 0.057650048 2565927
0.62472427 0.60041034 0.05489181 2302748
0.62502384 0.60248512 0.05602676 1777442
0.6286552 0.60394394 0.057034943 1580325
0.63102442 0.60698134 0.054520506 1908517
0.63194841 0.60922867 0.056763604 1382178
0.63394392 0.61045235 0.056059688 1645084
0.63665497 0.61449105 0.05713585 1447188
0.60127306 0.57768202 0.053036936 1054515
0.60270369 0.57951659 0.054060131 1054263
0.6043219 0.58158177 0.054935738 1120059
0.60656899 0.58336824 0.054480832 1120818
0.60878241 0.58573449 0.053160924 1644325
0.61052316 0.58828479 0.053831112 1317926
0.61229104 0.59017867 0.054087538 1317926
0.61447728 0.59275472 0.054585125 923168
0.6185798 0.59663057 0.053074788 3815230
0.62025416 0.59946811 0.054019257 4408149
0.62298816 0.60085267 0.054414872 2499895
0.62610209 0.60607308 0.053385727 1842726
0.62828827 0.60843253 0.05405337 1842982
0.62967318 0.61003304 0.05478834 1842984
0.59767467 0.57600486 0.0516054 1054778
0.59911549 0.57783467 0.052769564 1120059
0.60044795 0.57988667 0.053735945 1120056
0.61323416 0.59340131 0.05157391 1513767
0.61444384 0.59639966 0.052438471 1644324
0.61694396 0.59820807 0.052746553 3485744
0.61862141 0.60027087 0.052660465 5326918
0.61944026 0.60245502 0.05299383 5196109
0.62241358 0.6049614 0.052688625 1974049
0.59376925 0.57508141 0.05085906 1054522
0.59550911 0.57603359 0.051405419 1120566
0.59677428 0.57878834 0.051655155 1513778
0.59899706 0.5813427 0.050979093 1842204
0.60118961 0.58341098 0.050962996 1253161
0.6033451 0.58537954 0.050981585 1253665
0.60484219 0.58778954 0.050919693 1186592
0.60698336 0.5902822 0.051382311 1447460
0.60860926 0.59300184 0.050990537 1645604
0.61089301 0.5951041 0.050330605 2237218
0.61217278 0.59714711 0.050532088 1842458
0.61443365 0.59880483 0.051029459 2760467
0.58253384 0.56805539 0.049295776 2301454
0.58520466 0.57006556 0.047967046 1119812
0.58735305 0.57246459 0.048851632 1054775
0.58998686 0.57363039 0.04937711 1120563
0.59201807 0.57589233 0.048882268 1382447
0.59349883 0.57884264 0.048626717 1776167
0.59450406 0.58070934 0.049361955 1907497
0.59845722 0.58591348 0.047906131 1250597
0.60142761 0.5873245 0.048699681 1316132
0.60278487 0.58971953 0.049261775 1645606
0.6055125 0.59166247 0.048854869 2303781
0.60671574 0.59445173 0.04841866 2040104
0.60971218 0.59516799 0.048974391 2039847
0.58071309 0.56681085 0.047681522 5786893
0.5823167 0.56739008 0.047303174 1905675
0.58374345 0.57115561 0.048319619 1250122
0.58728886 0.5756371 0.046301454 1907997
0.58900559 0.57820928 0.047009587 1973790
0.59119087 0.5804835 0.047000665 1644840
0.59322584 0.58215791 0.04698268 1251113
0.59568191 0.58420765 0.047408275 1185576
0.59756833 0.5868364 0.046013892 2500898
0.59951669 0.58901066 0.046869688 2369571
0.60184616 0.59120506 0.046174083 2105888
0.60262501 0.5938192 0.047517605 2105636
0.58806199 0.57914776 0.045535356 1316642
0.59174973 0.58401996 0.04370914 2501413
0.59391588 0.58632171 0.044837471 2500645
0.59531015 0.58757979 0.0447447 2237219
0.59693462 0.58950317 0.045508731 2237728
0.57297587 0.56710196 0.044197373 5259817
0.57563895 0.56866878 0.043386336 2629662
0.5785346 0.57135081 0.043358464 2170926
0.58008087 0.57408911 0.043498933 1382446
0.58218312 0.57620704 0.043845471 1710893
0.58491838 0.57797873 0.044029251 1776161
0.58671987 0.58032739 0.041886915 2435107
0.5884887 0.58386642 0.04311977 2369316
0.59051931 0.58589149 0.043598272 2369061
0.59270042 0.58853412 0.044713244 2237469
0.5707866 0.56679899 0.041009091 5522990
0.57181162 0.56858164 0.041740127 5128494
0.5775966 0.57306373 0.040875155 1971240
0.57677585 0.57501096 0.041990913 2298909
0.58036339 0.5792703 0.040458806 2369059
0.58300519 0.57968295 0.041230697 2500903
0.5842973 0.58237922 0.041795745 2369061
0.58618939 0.58379877 0.042429511 2369572
0.57529861 0.57462513 0.039104 3089951
0.57702541 0.57696837 0.039094523 2697255
0.57837826 0.57936251 0.040248066 2566437
0.57210261 0.57431221 0.03726352 4996113
0.57313657 0.57569629 0.038276192 4339221
0.57429612 0.57763875 0.039416786 2827296
0.56932521 0.57795453 0.033183724 5125133
0.56633025 0.58063567 0.030648053 7232029
0.5331189 0.56630641 0.016926125 11309382
0.53506166 0.56852549 0.016861763 11310151
0.53700423 0.57074469 0.016797401 10915392
0.53894687 0.57296389 0.016733028 11375942
0.54088938 0.57518297 0.016668677 11703867
0.54283196 0.57740223 0.016604345 11639113
0.54477483 0.5796212 0.016539976 10717245
0.54737574 0.58259261 0.016453821 9728566
0.54928559 0.5847742 0.016390514 7490328
0.55126107 0.58703083 0.016325127 7490603
0.55518085 0.59177232 0.016239457 7496720
0.55707377 0.59377027 0.01620673 5985536
0.55832529 0.59519941 0.016165327 5589273
0.52871317 0.56617433 0.014610096 10717256
0.5301761 0.56883556 0.015303695 11243331
0.53193378 0.57127023 0.014798555 11307595
0.53361428 0.57375348 0.015931897 11112771
0.53589678 0.57550091 0.014444611 11110474
0.53749967 0.57819164 0.015803192 11571017
0.54143769 0.58158028 0.013153461 10780498
0.54530299 0.58710581 0.015544656 10718026
0.54781026 0.58886367 0.014325582 7888676
0.55100054 0.59207606 0.012822466 9859902
0.5527339 0.59371316 0.013888587 6443784
0.51482683 0.55396271 0.013205021 11045951
0.51680273 0.55621922 0.013139633 11045701
0.51941663 0.55908805 0.012197928 11569239
0.52232891 0.56365949 0.012497232 11436390
0.52550453 0.56556195 0.012760496 11175001
0.5264715 0.56773764 0.013071359 10977876
0.52833396 0.5699771 0.012812498 11107927
0.52967495 0.57153428 0.013017093 11174490
0.53292346 0.5753268 0.01266389 10977352
0.5344547 0.57850927 0.012767009 11042906
0.53754324 0.57886511 0.012843435 11175508
0.53839242 0.58145219 0.013081656 10780499
0.53977948 0.58486223 0.012103123 11372873
0.54231638 0.58622849 0.012021623 10847306
0.54398048 0.58915025 0.011734189 10583628
0.54651624 0.59029865 0.012141973 10385489
0.54854923 0.59328508 0.012610978 8939052
0.54955161 0.59599435 0.012523051 8675881
0.553662 0.59989929 0.012254355 6443523
0.55580151 0.60193914 0.011957262 5786644
0.49569052 0.53585225 0.012048172 10125627
0.49700758 0.53735656 0.012004508 9994042
0.50935465 0.55146134 0.011595521 10584386
0.51129717 0.55368066 0.011531129 10455552
0.5132156 0.55594319 0.011469987 11175491
0.5149886 0.55816168 0.011606639 11634018
0.5173679 0.5603931 0.011393632 11438415
0.51892883 0.56233954 0.011796445 11372120
0.52096814 0.56484991 0.011711287 11242825
0.52301896 0.56707066 0.011142909 11179048
0.52481401 0.56956118 0.0091118868 11177530
0.52548951 0.57181984 0.011124807 10980412
0.52918971 0.57550472 0.011516189 11175001
0.53121793 0.57684106 0.011097401 11308619
0.53370178 0.57820642 0.011675606 10914372
0.53512484 0.57961744 0.011621411 11767878
0.53852344 0.58328575 0.011501702 12096060
0.55128735 0.59841752 0.010955271 7558676
0.49344221 0.53638715 0.0084661646 10584135
0.49734506 0.54139358 0.010128265 10125388
0.49932069 0.54365033 0.010062883 10125388
0.50129622 0.54590708 0.0099974507 10388559
0.50320601 0.54808855 0.009934199 10323516
0.50584006 0.55109751 0.0098469108 10717753
0.51068455 0.55688959 0.0074251797 10978128
0.51349175 0.55944794 0.0092494385 10912578
0.5149731 0.5639503 0.009056991 10978369
0.519283 0.56612909 0.0080076931 11109971
0.52226883 0.56793779 0.009238827 11243563
0.52288264 0.57157791 0.0088903047 11242308
0.52469826 0.57174665 0.0076321466 11110224
0.52695251 0.57604539 0.0084656924 11176520
0.53128928 0.58054554 0.0080587249 10978631
0.53419763 0.58498001 0.0081056571 10912848
0.53728586 0.58625966 0.0079288008 10781514
0.54079431 0.59109032 0.0076625431 10781010
0.54456806 0.596093 0.0075960485 10321474
0.5471552 0.59597039 0.0081175556 9927481
0.54760706 0.59969842 0.008208978 9335598
0.55084014 0.60314775 0.0092996266 7098385
0.48678923 0.5352906 0.0081927106 10321476
0.48973647 0.53603345 0.0081737498 10453056
0.4920544 0.53918946 0.0081964312 10453051
0.49465507 0.54063725 0.008272619 10649929
0.49541581 0.54410106 0.0085816989 10649673
0.49799433 0.54568696 0.0081674978 10715214
0.50079298 0.54681653 0.00782903 10715463
0.50216991 0.55069721 0.0074933432 10519363
0.50382936 0.55198896 0.0073947776 10781005
0.50541425 0.55353683 0.0077591464 10781258
0.50704306 0.55682158 0.007468651 10846787
0.50932717 0.55935818 0.0080289375 10846777
0.51002127 0.56131834 0.0071934229 10519076
0.51419574 0.56406379 0.0078392271 10716489
0.51638514 0.56528115 0.0081852917 11044685
0.51848847 0.56762636 0.0081490669 11045699
0.51959783 0.57010323 0.0078687053 11109709
0.52304924 0.57491869 0.0076414449 11044175
0.52514809 0.57560331 0.0075151799 10912837
0.52676541 0.57957602 0.0076738177 11109964
0.5311197 0.58369553 0.0084233359 10978626
0.53723973 0.59079939 0.0072313985 10912334
0.54069179 0.59594476 0.0069440482 10649935
0.54513383 0.59985203 0.0076093525 10059067
0.55124897 0.60785252 0.0050998023 7164179
0.48613623 0.53571379 0.0061252732 10256181
0.4899376 0.53967375 0.0068378691 10584620
0.49328104 0.5421741 0.0060451031 10519081
0.4941335 0.54485822 0.0051514311 10387494
0.49630973 0.54707289 0.0051057376 10517578
0.4988848 0.54803252 0.0059122983 10387524
0.4996956 0.55062383 0.0066734776 10518855
0.50383019 0.55313843 0.0058014207 10585148
0.50384068 0.5555777 0.0061888164 10519849
0.53628635 0.59297693 0.0031155101 11373615
0.54100907 0.59921199 0.0031288159 10979384
0.54321021 0.59942198 0.0034760442 10650675
0.54614627 0.60414129 0.002714627 8611600
0.54717487 0.60461181 0.0041467343 8282639
0.54860294 0.60866326 0.0036120359 7492886
0.55205494 0.6110912 0.0035894872 6375949
0.49629593 0.5507912 0.0045560254 10453314
0.49805164 0.55224168 0.0021389164 10781219
0.50021499 0.55662632 0.00319449 10781736
0.50207984 0.55778486 0.0031715692 10847533
0.50382066 0.55891711 0.0030854973 10781741
0.50649875 0.55990183 0.0032827402 10781744
0.51124036 0.56915408 0.002472512 10978598
0.51434767 0.57016921 0.0029238951 10978597
0.51655841 0.57293165 0.0021846648 11242026
0.5206781 0.57896334 0.0021985518 11308323
0.52282035 0.58008599 0.0024384456 11176489
0.52449447 0.58200663 0.0023122779 11241774
0.52632165 0.5842703 0.0025885631 11373870
0.52931905 0.58616871 0.0026751915 11307820
0.52960259 0.5904457 0.0028675529 11373613
0.53171802 0.59128588 0.0024852082 11504946
0.53431213 0.59249878 0.002672282 11439152
0.53547043 0.59501684 0.0029926933 11504690
0.53789192 0.5979569 0.0032729269 11110963
0.53902578 0.60059237 0.0023220982 11438894
0.54162067 0.60305566 0.0028580115 10913323
0.54365647 0.60386646 0.0028822199 9926937
0.54542428 0.60731995 0.0034385626 8676878
0.54826081 0.60950845 0.0040899948 7494408
0.4781211 0.53538358 0.0018600179 10453298
0.4805119 0.53681403 0.0018796627 10387242
0.48285547 0.53814596 0.0016628313 10453038
0.48505151 0.54088056 0.0018103486 10650155
0.48645592 0.54337358 0.0018169782 10518573
0.48851299 0.54519737 0.0018909937 10715949
0.49072921 0.54814965 0.0021329345 10781746
0.49316403 0.54947382 0.0021103811 10715951
0.49535421 0.55199045 0.0014355062 10715946
0.49593949 0.55516535 0.0025275266 10518811
0.49825349 0.55645829 0.002358777 10715948
0.5011723 0.55840766 0.0018379879 10913328
0.50310713 0.55923462 0.0016571386 10979381
0.5036931 0.56385815 0.0023006555 10913329
0.50658375 0.56534904 0.0023044893 10913069
0.50943226 0.567137 0.0021084226 10979111
0.5097149 0.57060421 0.0018485715 11176757
0.51320344 0.57193857 0.0018934412 11307824
0.51451403 0.57612115 0.002329086 11242534
0.51590866 0.57719803 0.0021002572 11176232
0.51860601 0.57838291 0.0021490785 11242280
0.5207209 0.5801152 0.0019499771 11175976
0.52172434 0.58363414 0.002314447 11373609
0.52458572 0.58709955 0.0019070618 11307570
0.52652633 0.58832848 0.0020228019 11439145
0.52821845 0.59029394 0.0016840538 11504940
0.53420579 0.59848481 0.0018851953 11636279
0.53616852 0.59942621 0.0019189315 11570484
0.47718292 0.53514093 0.0018476201 10452781
0.48183006 0.54248428 0.0011228062 10518321
0.48472515 0.54383528 0.0021678442 10584359
0.48850036 0.54862398 0.0016329442 10781746
0.49474269 0.5553934 0.0017688395 10715950
0.50122178 0.56300914 0.0015613162 10913325
0.50735611 0.57000035 0.0014994391 11242032
0.70930403 0.64982086 0.085422568 2106415
0.7118634 0.65103215 0.085281044 2171702
0.7036972 0.64681816 0.08309669 2369328
0.70618063 0.64847136 0.083660848 2238004
0.69790047 0.64416289 0.082427099 1974309
0.70097518 0.64524078 0.081765823 1974315
0.69472539 0.64275271 0.080052376 1316643
0.6975143 0.64364219 0.080309451 1513763
0.69083118 0.64146119 0.078406304 3290403
0.6929341 0.6430071 0.078308269 2171934
0.68708134 0.64148593 0.07608436 5657919
0.68900466 0.64180708 0.076455027 5460540
0.67069858 0.62443101 0.07526353 2036777
0.67212152 0.62584233 0.075209275 2036777
0.68309975 0.64161104 0.074810617 5592624
0.68508923 0.64200711 0.07517913 5855556
0.66478908 0.6216259 0.0728947 1776162
0.66620427 0.62291318 0.072907865 2037778
0.66834474 0.62492633 0.07285808 2103323
0.67295468 0.62998468 0.07358513 2036777
0.67437762 0.63139606 0.073530883 1380170
0.67527652 0.6356135 0.071904503 1248585
0.67737418 0.63763112 0.071857937 1907263
0.67952979 0.63959968 0.071876571 2498653
0.68429023 0.64268363 0.072101973 3881779
0.65224832 0.61130887 0.069719203 790329
0.6619944 0.6224966 0.071277708 2038552
0.67304772 0.6338709 0.070586406 1646371
0.67445183 0.63617593 0.07098864 1382951
0.67695564 0.6386506 0.071460404 1185070
0.67782342 0.64070886 0.070083909 1184540
0.68037593 0.64242524 0.071094409 2763299
0.6501323 0.61409569 0.069855288 658737
0.65319365 0.61415225 0.070242845 724795
0.65818352 0.62164462 0.068966612 6643274
0.66051763 0.62402856 0.068064265 6051928
0.66422337 0.62923467 0.068363883 2040350
0.6673547 0.6301527 0.068491243 1777697
0.66737521 0.63380945 0.069142699 1777701
0.67001444 0.63467348 0.068594068 1448498
0.67516035 0.63996178 0.069361538 1250854
0.6755411 0.64104915 0.07022164 1119266
0.64356178 0.60780036 0.066992238 1183547
0.64470166 0.61066824 0.06736102 2302032
0.64766341 0.61155027 0.067995705 2038621
0.64975113 0.61551064 0.065886371 1710618
0.65329677 0.61885321 0.065851808 1447446
0.6553731 0.62132531 0.066318311 1381389
0.65651637 0.62384337 0.066959001 2235922
0.65940124 0.62464458 0.067064486 3946288
0.66110986 0.62836105 0.068023868 3750194
0.6644181 0.63231587 0.065898642 1250082
0.666852 0.63424879 0.06697204 1185070
0.66931504 0.63806486 0.068153083 1315906
0.67037195 0.63760257 0.065793157 1579809
0.6738413 0.64059901 0.067561209 1514028
0.63761824 0.60604572 0.065440908 856883
0.63962215 0.60690397 0.066142708 987966
0.64160311 0.60820639 0.066175386 5000227
0.64333564 0.6103161 0.066701487 1709346
0.64827007 0.61414814 0.065875389 1381653
0.65119374 0.62138772 0.064560123 1711128
0.65356678 0.62158 0.064894617 1842720
0.65469527 0.62409163 0.066387184 1842462
0.65989006 0.62941182 0.064374216 3090480
0.66087937 0.6322735 0.065332755 2762050
0.66287524 0.6350956 0.064752601 1644058
0.66481429 0.63566488 0.064988501 1776160
0.66732758 0.63758028 0.064802647 1645342
0.66888767 0.64208144 0.065408424 1317157
0.67110103 0.64215809 0.066105016 1382950
0.62972504 0.60006052 0.063142985 856882
0.63223475 0.60159445 0.06344118 856375
0.63340676 0.60396737 0.063755855 1119022
0.63563395 0.60580224 0.063623168 1119016
0.63842005 0.60745394 0.064863212 2763789
0.64444542 0.6153062 0.063702695 1183776
0.64580697 0.61735398 0.063106522 1381404
0.64752883 0.61938012 0.063476995 1185303
0.649562 0.62116957 0.064313993 1841687
0.65158963 0.62420928 0.063792109 1775638
0.6539771 0.62595522 0.063130744 987169
0.65548694 0.62863648 0.063644409 1578267
0.65841752 0.62952238 0.063465729 3288356
0.65921819 0.63231784 0.064849116 4011319
0.66094381 0.63465065 0.06444934 1972762
0.62046856 0.59088778 0.061049059 1119798
0.621373 0.59356964 0.061641105 1120047
0.62383664 0.59725648 0.061446615 1184585
0.62561065 0.59818137 0.062096067 1053001
0.6276626 0.59899569 0.062722176 987967
0.63016486 0.60379249 0.060717441 1841724
0.63116515 0.60566139 0.061382197 1644336
0.63814861 0.61329252 0.060891084 2236444
0.64025962 0.61384404 0.061114252 3420205
0.64121318 0.6162675 0.061162323 3551034
0.64327085 0.61813015 0.061444364 2827825
0.64554751 0.62069827 0.061344303 1052441
0.64728361 0.62276334 0.061194889 1250328
0.64980209 0.62377435 0.061297961 1250586
0.65176201 0.62800008 0.062185362 1447186
0.61621886 0.5893712 0.059243467 1054008
0.61840016 0.59275669 0.060761191 1120055
0.62223113 0.59680581 0.061616488 1119545
0.62726891 0.60114259 0.060693353 1381653
0.62874997 0.60250521 0.060704276 1710618
0.63233274 0.61002779 0.059245314 1448220
0.63470685 0.61098677 0.059309445 1381916
0.63616729 0.61413914 0.060066827 1513250
0.63884455 0.61479408 0.060324058 1445921
0.64052165 0.61769688 0.059781112 3813945
0.64190316 0.62062746 0.060442068 2696490
0.64881265 0.62763405 0.061389588 1644821
0.61186659 0.58847892 0.057536822 1054264
0.61323941 0.59036261 0.058494743 1119795
0.61498374 0.59232497 0.059641797 1054521
0.61968958 0.59680897 0.058356918 2432817
0.62071478 0.59859139 0.059087962 989461
0.62290347 0.6005975 0.059105486 1316893
0.62509185 0.60260391 0.059122965 1644326
0.6265642 0.60577017 0.056889292 1514790
0.62827849 0.60783869 0.058034785 1251359
0.62962168 0.61012405 0.058660608 1316888
0.63313138 0.61315304 0.058192663 1842718
0.63455921 0.61383772 0.058433212 1316123
0.63637894 0.61708468 0.058021486 2432282
0.60361278 0.58368891 0.055765133 988988
0.60483044 0.58460087 0.055212431 1054522
0.6069929 0.58698237 0.055918071 988483
0.6083293 0.58909625 0.056850754 988732
0.61086082 0.59081173 0.057188924 1252905
0.61278892 0.59358096 0.056552771 924196
0.61522847 0.59582978 0.056477789 3419692
0.61688322 0.59794122 0.056997772 3420472
0.62036735 0.60259128 0.055875983 1841980
0.62310219 0.60467184 0.056613781 1448233
0.62522382 0.60668534 0.057156466 1514530
0.62620729 0.60801679 0.054825664 1711654
0.62868845 0.6121223 0.055849385 1776930
0.63059562 0.61298382 0.056026377 1776930
0.63234144 0.61640555 0.05711519 1579034
0.59807628 0.58035433 0.05328143 1185595
0.5993008 0.58262825 0.054049999 1185600
0.60122705 0.58322519 0.054855164 1054523
0.60326058 0.58653152 0.056061555 1054020
0.60819429 0.59331471 0.053843826 1385755
0.61510473 0.59908372 0.053402688 2105382
0.61681801 0.60199893 0.054370541 2237227
0.61938375 0.60404563 0.054185383 2631736
0.62103641 0.60607284 0.054797199 1974311
0.62361312 0.608495 0.054883771 1645859
0.62484831 0.61094427 0.055160958 1579294
0.62674707 0.61168182 0.055405274 1579807
0.59441209 0.57860196 0.051852092 1186102
0.59505904 0.58026648 0.053137951 1054776
0.59703726 0.58287412 0.053793177 1120320
0.6002959 0.58437002 0.052476704 1383719
0.60247552 0.58631665 0.052457456 989979
0.60599083 0.59139007 0.053900965 1775911
0.60990119 0.59536791 0.052407604 1250599
0.61105323 0.59934354 0.052368898 1776677
0.6134066 0.60064459 0.052912891 2039328
0.61474681 0.60288411 0.052939221 3092259
0.6163919 0.60473728 0.053427678 2499883
0.58745193 0.57479441 0.049666464 1185593
0.58952832 0.57777143 0.051124893 1120820
0.59212422 0.57948852 0.052327465 1120565
0.59513938 0.58298677 0.050810844 2039083
0.59662008 0.58434951 0.050821785 1909520
0.59810114 0.58571196 0.050832693 1646348
0.59955418 0.58919728 0.049852107 1316384
0.60231501 0.59136957 0.052246053 1317926
0.60372216 0.5934236 0.050949365 1316389
0.60587466 0.59566379 0.051071756 1842978
0.60781264 0.59758592 0.049792208 2303017
0.60868281 0.60044408 0.050853495 2303271
0.58106691 0.57120448 0.049433224 3024136
0.58221877 0.57299036 0.049517032 2235202
0.58456177 0.57446486 0.049612444 1315642
0.58545715 0.57708693 0.050167657 1185346
0.59035546 0.58211815 0.048355445 1645097
0.59209794 0.58374053 0.049172033 2039083
0.59366173 0.58633119 0.048189301 1381927
0.59657502 0.58772659 0.049021792 1316134
0.59779298 0.59076059 0.050596286 1120547
0.60039574 0.59233987 0.049541939 1777445
0.60187721 0.59586018 0.049482383 2369830
0.60358351 0.5965395 0.048780996 2171174
0.60641426 0.59752625 0.049073804 2105640
0.60734648 0.60047239 0.050452817 2105388
0.58787447 0.58319163 0.047148421 1449764
0.59167451 0.58580619 0.048029274 1250852
0.5949688 0.5892821 0.04729585 2171430
0.59645748 0.59196419 0.047202293 2303268
0.59915203 0.59400141 0.0475219 2105885
0.60058868 0.59569472 0.048433468 2171424
0.57202429 0.56811005 0.045645904 5457950
0.57426965 0.57013184 0.045624383 3089684
0.57725555 0.57283491 0.045608487 2237225
0.57941103 0.57480365 0.045627028 1121318
0.58121729 0.57774848 0.045844704 1842726
0.583354 0.57946503 0.045767628 1514519
0.58504051 0.58180988 0.046424288 1581083
0.58848757 0.58657634 0.047146108 1447715
0.59056801 0.58886009 0.045064479 2500898
0.59243411 0.59151739 0.045575708 2303008
0.56912845 0.56709909 0.04255522 6113587
0.56976354 0.56937677 0.044004094 5982501
0.57731658 0.57684344 0.043573648 2299680
0.5777235 0.57865405 0.044952326 2167582
0.58473992 0.58641791 0.043151133 2500388
0.58736211 0.58760023 0.043890808 2435106
0.58920699 0.59053791 0.045027524 2303261
0.57437646 0.57536393 0.041321732 4336923
0.57706529 0.58162862 0.040558226 2368804
0.57956487 0.58248562 0.041278046 2566692
0.58120114 0.58526677 0.042176146 2500903
0.5834415 0.58648145 0.042819925 2632489
0.57247621 0.57692838 0.040196318 4009744
0.57398868 0.57929915 0.040397935 3550483
0.57554668 0.58110482 0.040825959 2631458
0.56606132 0.58197945 0.032201007 8216622
0.55251807 0.5950855 0.015722495 9270568
0.52690601 0.56974107 0.014289058 11243590
0.52822304 0.57124561 0.01424547 11243590
0.53312451 0.57882446 0.015567196 11375434
0.53529137 0.58124441 0.013152958 10911330
0.53857946 0.58317542 0.013976538 12030536
0.53989679 0.58467972 0.013932931 11901259
0.54138345 0.5873189 0.014588605 11244353
0.54287022 0.58995801 0.015244353 10522424
0.54484594 0.5922147 0.015178881 10192412
0.54768258 0.59419912 0.013376444 9134894
0.54921985 0.59627074 0.014329069 7293205
0.5511421 0.59834725 0.014840604 7951661
0.553114 0.60076851 0.014237068 6179599
0.55508953 0.60302544 0.014171614 5655566
0.50902075 0.55305982 0.013090665 10716987
0.51033771 0.55456442 0.013047061 10454042
0.51216793 0.55748737 0.013226752 10847804
0.51376724 0.55942261 0.013638427 11046210
0.51579964 0.56191832 0.012832045 11306590
0.51832861 0.56385863 0.013213377 11502434
0.51877916 0.5669266 0.013424882 11436650
0.52184922 0.56842458 0.013351218 11304555
0.52375531 0.57020628 0.013144896 11175497
0.52565116 0.57293791 0.013301876 11108950
0.52736455 0.57517058 0.013656176 11110216
0.5297491 0.57786113 0.013398684 11373118
0.53129625 0.57882977 0.013285569 11176262
0.53267986 0.58178359 0.012504986 11108198
0.53471202 0.5845148 0.013320093 11175508
0.53701627 0.58579421 0.012779206 11438670
0.5386951 0.58882093 0.012736684 11242058
0.54214787 0.59111667 0.012000385 10781007
0.54372376 0.59371662 0.01247119 10516563
0.54542929 0.59494007 0.012177851 9795633
0.54676241 0.59765977 0.013260814 9794874
0.547517 0.60029811 0.012419921 7820048
0.5523808 0.60493118 0.011873603 6638610
0.4911834 0.53633469 0.011816518 10389007
0.49250048 0.53783911 0.01177293 10060043
0.49447608 0.54009598 0.01170743 10059834
0.49590591 0.54271942 0.012402098 10191423
0.49788147 0.54497617 0.0123367 10191418
0.49985695 0.54723293 0.012271228 10322485
0.50170702 0.54901642 0.011962632 10519868
0.50440067 0.55242348 0.012120727 10716226
0.50637633 0.55468035 0.012055275 10519101
0.50780624 0.55730379 0.012749912 10519605
0.50978166 0.55956054 0.0126845 9796892
0.51157075 0.56072319 0.012808859 11633760
0.51383412 0.56283933 0.012765657 11371624
0.5160628 0.5654155 0.011487045 10979920
0.51857764 0.56762838 0.010909053 10914884
0.52007329 0.57032704 0.011601572 10980915
0.52156919 0.57302582 0.012294004 11110979
0.52336848 0.57507509 0.011974151 11176010
0.52584851 0.57790506 0.011761907 11241295
0.52786851 0.57922024 0.01113016 11241549
0.53036493 0.58139282 0.011663283 11241298
0.5322268 0.58339411 0.010817335 11308619
0.53439415 0.58554876 0.010734892 11505741
0.53524393 0.58896041 0.011922291 11307090
0.53732783 0.58989668 0.010847975 11176014
0.53943318 0.59268659 0.011081705 11111497
