# .PCD v0.7 - Point Cloud Data file format
VERSION 0.7
FIELDS x y z rgba
SIZE 4 4 4 4
TYPE F F F U
COUNT 1 1 1 1
WIDTH 1134
HEIGHT 1
VIEWPOINT 0 0 0 1 0 0 0
POINTS 1134
DATA ascii
0.69181311 0.66942203 0.043911204 3026722
0.73014116 0.73060703 0.0080117173 2631982
0.73118711 0.73254496 0.007998161 3026992
0.73274279 0.73484325 0.007083185 3224379
0.73462117 0.73759812 0.0072518438 3093567
0.7361871 0.73812509 0.0060664564 3158845
0.68419152 0.65907025 0.047369234 4738113
0.6862734 0.66390747 0.044563062 2632218
0.68798614 0.66566479 0.043590136 4867891
0.72528625 0.72892684 0.0084775761 2237482
0.72755241 0.73003596 0.0080815777 2435116
0.7287212 0.73390996 0.0077221021 3158834
0.68005121 0.65671694 0.045802422 3290404
0.68154049 0.65839136 0.046755284 7171418
0.68333328 0.66161758 0.043061323 4012587
0.68406451 0.6633451 0.042639136 4209191
0.68615991 0.6668911 0.042627998 4605477
0.72254705 0.72623473 0.0075724088 1776935
0.72449499 0.7277531 0.0075685903 1909029
0.67610621 0.65458441 0.045158178 1448723
0.67822456 0.65603894 0.045110583 1711123
0.6793288 0.6592344 0.042008728 1446409
0.6805433 0.66168422 0.042095274 3881002
0.71837497 0.72481138 0.0066669881 1448227
0.72004759 0.72596157 0.0065476336 1448224
0.67078036 0.65045881 0.045473345 1383440
0.6735279 0.65189868 0.045039855 1646359
0.67338085 0.65435374 0.045342177 1776918
0.6766572 0.65700883 0.041085929 1514769
0.67696244 0.65983057 0.041112207 2237463
0.67893529 0.66164738 0.04124333 1381642
0.7149061 0.72226465 0.005680941 1580331
0.71685165 0.72407979 0.0058626607 1514022
0.66771078 0.64859527 0.043103904 1778975
0.66857642 0.64980978 0.044527903 1843989
0.67279118 0.65514874 0.03972432 2106651
0.67348611 0.65737611 0.040321186 2303516
0.71120214 0.72035712 0.0052462593 1843507
0.71336025 0.72173256 0.0058107078 1646123
0.66532338 0.64806163 0.043588251 2041375
0.66978037 0.65558827 0.039391622 2369566
0.70851159 0.7176885 0.0044388846 1843759
0.70843959 0.72001141 0.0049399063 1843760
0.66069901 0.64406109 0.042311706 2173468
0.66198146 0.64637005 0.043304801 2173215
0.66642296 0.65338683 0.038502932 2501409
0.66783857 0.65489888 0.037955321 2698535
0.69990563 0.70933616 0.006834738 2237741
0.70089364 0.71188676 0.0062180422 2106156
0.70363146 0.71363842 0.0042080805 1975345
0.7040056 0.71531475 0.0053316392 1974831
0.70619339 0.71682006 0.0046243221 1975086
0.6575768 0.64443046 0.041961879 2304808
0.66275865 0.65104729 0.037710555 2566947
0.66349459 0.65330195 0.037547104 2830116
0.7016626 0.71416974 0.0046251938 2040620
0.6542868 0.64213496 0.040886462 2239525
0.6567232 0.64324331 0.040601879 2239535
0.65879595 0.64920342 0.036826402 2567205
0.66028881 0.65130836 0.036625743 2895655
0.69212294 0.70451468 0.0065456927 1710107
0.69384646 0.70709747 0.0049173459 2171167
0.69592822 0.709975 0.0047087744 2171687
0.65109408 0.64033258 0.040231973 2305566
0.65531427 0.64701903 0.036015466 2501670
0.65679139 0.64905912 0.035361394 2895653
0.68965733 0.70292664 0.0063127056 2499106
0.64745796 0.63829601 0.039241016 2436651
0.64888024 0.63922852 0.039587751 2305832
0.65022552 0.64300919 0.03474468 2567211
0.6519559 0.64544082 0.03537944 2567462
0.65309143 0.6469031 0.034277529 2961709
0.65482438 0.64821935 0.034531139 2895655
0.68268275 0.6959843 0.0061299875 2105635
0.68469989 0.69793153 0.0063976124 2499616
0.68541861 0.70033121 0.0047251582 3091751
0.68768775 0.7015543 0.0053729527 3617845
0.6446352 0.636199 0.037315436 2699044
0.64518249 0.63761735 0.038516946 2764335
0.64811015 0.64324868 0.034104317 2961450
0.64937019 0.64508677 0.034327507 2961706
0.65132707 0.64603853 0.033471748 3027503
0.68009508 0.69704193 0.0049153753 2105645
0.64139378 0.63591266 0.036696687 2765093
0.6444692 0.6409924 0.033338621 2764330
0.64600909 0.64288086 0.032806948 3092777
0.64715588 0.64588332 0.033232599 2961702
0.67802668 0.69318819 0.004772298 2171433
0.6778518 0.6977241 0.0038750023 2237487
0.63880897 0.63466465 0.034934796 2896171
0.64067256 0.63937211 0.031783 2830369
0.64161503 0.64106256 0.031910777 3027495
0.64363742 0.64248568 0.031657822 3421483
0.67456615 0.6924445 0.0047294758 2106147
0.67558295 0.69433755 0.0034132302 2105893
0.63466191 0.63511389 0.033338487 2502444
0.63838077 0.63889784 0.03058394 2764575
0.63978231 0.64145064 0.029653907 3421480
0.67142588 0.69256377 0.0022777691 1842200
0.63301957 0.63427562 0.032797739 2502948
0.63410592 0.63800466 0.029704735 2830116
0.63621342 0.63957 0.029681861 3093029
0.63772643 0.64021575 0.028346188 3421480
0.66579688 0.68716413 0.002129335 4209711
0.6684345 0.69014364 0.0027351603 2761502
0.63311392 0.63709277 0.027862407 2895644
0.63443303 0.63928604 0.027141199 3289890
0.66211188 0.68573934 0.0017311983 2960418
0.63051003 0.63736743 0.026498675 2895392
0.63214219 0.63862377 0.025697172 3158563
0.65925288 0.68401754 0.00084899366 2105380
0.62691808 0.63503397 0.025646202 2566684
0.62852395 0.63795066 0.024319887 3092512
0.62895703 0.63811135 0.022431657 3224094
0.65433347 0.68016553 0.00046246499 2039070
0.65580225 0.68133187 0.00093433261 2170916
0.6568476 0.6829617 -1.1473894e-06 2236710
0.62390614 0.63573915 0.023543708 2697755
0.62637854 0.6376918 0.022434659 3026459
0.6513195 0.67960751 -0.0011108778 1776407
0.62163806 0.63435948 0.022728581 2369044
0.62354994 0.63531464 0.021294191 2434330
0.62431777 0.63804579 0.02064161 3026459
0.64834243 0.67559409 4.0225685e-05 3553322
0.64866436 0.67792958 1.8887222e-05 3223856
0.61824989 0.63396442 0.020557251 2171408
0.6208716 0.63653558 0.019089639 2434069
0.62081683 0.63810349 0.018817972 2894361
0.64518577 0.67328548 -0.0011067763 2499872
0.6448766 0.67607969 -0.00095837563 3223334
0.61640012 0.63388735 0.018805064 1974284
0.617962 0.63682568 0.01717186 2499859
0.62007082 0.63692558 0.017121274 2696724
0.64003217 0.67140961 -0.0029994547 2500394
0.64090759 0.67369777 -0.0022459365 2171937
0.61454189 0.63383895 0.017016172 2039307
0.61594176 0.63693595 0.015748993 2433548
0.61733991 0.63713539 0.014189031 2893328
0.63704729 0.6695832 -0.0023553856 2369317
0.63798273 0.6716035 -0.0024613813 2500904
0.61151433 0.63377976 0.015947226 2301452
0.61365914 0.63751626 0.013705451 2695946
0.61385471 0.63760853 0.011364341 2826242
0.63291097 0.66699016 -0.0035858564 2237995
0.63461637 0.66984868 -0.0029473603 2171934
0.61175072 0.63717812 0.011763886 2827014
0.61331999 0.63915223 0.0093195066 3746564
0.62662184 0.66208398 -0.0036520511 2763568
0.62834084 0.66414344 -0.0048209205 2698028
0.62900561 0.66675282 -0.0042695291 2500394
0.60894376 0.63631439 0.011050507 2760714
0.60938966 0.63798618 0.0089217201 3615234
0.61116612 0.64017171 0.0073366798 4469506
0.62419248 0.66220903 -0.0042622685 2829362
0.60701561 0.63805312 0.0068423711 4338691
0.60889411 0.64101422 0.0056081675 5192704
0.61150467 0.64145595 0.0046134554 5917187
0.62143469 0.66077274 -0.0063272789 2764336
0.62173212 0.66280776 -0.0052258372 2829617
0.60465777 0.63831055 0.0063181184 4536580
0.60603607 0.64010328 0.0041567385 6245644
0.60826099 0.64214683 0.0021442994 7166733
0.61611688 0.65711159 -0.0057442784 3092788
0.61822182 0.65830678 -0.0058083087 2895924
0.60302871 0.63948876 0.0026062578 7101715
0.60532534 0.64320982 0.00086309016 7495440
0.61388004 0.65695739 -0.0074813887 3027508
0.60125846 0.63954026 -0.00012709945 8811047
0.60330594 0.64206249 -0.0012635589 9270303
0.61076093 0.6539101 -0.0073294789 3224115
0.61237544 0.655725 -0.0079962388 3158323
0.59836423 0.63859826 -0.0016169026 9862176
0.6001724 0.64105529 -0.0021336153 9796122
0.5940479 0.63419986 -0.0013168156 10585915
0.59484899 0.6371994 -0.0019736551 10256422
0.59659982 0.63791645 -0.0019089505 10190369
0.5967595 0.64086086 -0.0024210401 9992722
0.60652089 0.65476179 -0.0098356549 3355701
0.5902431 0.63149714 -0.0018600449 10716981
0.59103465 0.63438678 -0.0021751076 10519856
0.59247488 0.63662237 -0.0028007068 10519330
0.5850724 0.62668514 -0.0010065101 11441472
0.58621681 0.63005817 -0.0021226108 11177785
0.58755785 0.63266295 -0.002907265 11045931
0.58882904 0.63372403 -0.0035633519 11046184
0.58054167 0.62488168 -0.0016681813 11901507
0.5820111 0.62776309 -0.0023225173 11638074
0.58390987 0.6289444 -0.0033959039 11703344
0.57999551 0.62661409 -0.0030629188 11572015
0.57670295 0.62646377 -0.004914742 11046450
0.76072633 0.7139852 0.05791229 3356458
0.76281631 0.71595395 0.05628287 1514263
0.76414961 0.71848834 0.054996289 1052948
0.76489836 0.72117704 0.053571448 2632223
0.76690233 0.72285086 0.052400813 2434845
0.76888049 0.72563344 0.051168576 2039834
0.77012014 0.72811335 0.050183274 2236958
0.77095234 0.7294119 0.049586348 2236693
0.77238351 0.73241538 0.047806635 2499352
0.77417457 0.73444009 0.047367968 2236954
0.77542663 0.73693001 0.045868538 2301202
0.77673638 0.73880714 0.044972271 4930588
0.75824571 0.71155465 0.057164989 2830632
0.76008439 0.71664637 0.054393224 3816497
0.76244628 0.71835148 0.053679317 4013878
0.76513654 0.72006297 0.052468598 2632229
0.7661984 0.72327399 0.050890841 856072
0.76678133 0.7257548 0.048857808 921864
0.76756442 0.72814667 0.048074536 1053194
0.76909178 0.72993457 0.046785034 1644814
0.77103233 0.73175961 0.045792148 2368276
0.77245992 0.73379749 0.044492379 2302485
0.77386713 0.73553252 0.043326348 1907470
0.7541188 0.70952606 0.05680342 1448213
0.75747824 0.7143901 0.05358319 1908251
0.75847512 0.71663499 0.052795306 3026729
0.75939739 0.71871585 0.051123455 3158569
0.76082647 0.72061348 0.049805515 2369049
0.76269019 0.72304881 0.048500195 1316369
0.76449144 0.72694176 0.046672657 1381906
0.76749194 0.72739834 0.046144612 1118473
0.76761466 0.73072505 0.043601334 1184008
0.75085104 0.7074725 0.055880278 724498
0.75362825 0.71238142 0.052762516 1382423
0.75456351 0.71437895 0.05255565 1513499
0.7561506 0.71595109 0.050462358 1514006
0.76530015 0.72979784 0.044514067 1382160
0.76628745 0.73202419 0.042826153 1579023
0.74530673 0.70358384 0.055315197 1252122
0.7473017 0.70529467 0.055480167 856854
0.74858522 0.70839751 0.051460274 2501419
0.74977231 0.71069318 0.052547358 1711646
0.75155962 0.71185839 0.051132344 1185304
0.75347739 0.71415752 0.050330766 921364
0.76653719 0.73554492 0.038249463 1315597
0.76611471 0.73734593 0.038624011 1644816
0.76679462 0.74080133 0.03623274 1710606
0.73933518 0.69986618 0.056006789 1449246
0.74176455 0.70149201 0.055397451 1449244
0.74367905 0.70257902 0.054960169 1383706
0.74633819 0.70809817 0.051606797 2369831
0.74685174 0.7110191 0.049804151 1448480
0.74876392 0.71133822 0.049696714 1185307
0.76651996 0.73877239 0.03481207 1052939
0.76649559 0.74003965 0.035210244 1381390
0.73648685 0.69617206 0.055395842 1515035
0.73870909 0.69798636 0.055057123 1580573
0.74157673 0.70378828 0.051246256 2501413
0.743007 0.70612264 0.051396325 2369831
0.74499452 0.70780981 0.049657091 1909288
0.74521315 0.71022469 0.05029808 1646115
0.76601899 0.74292719 0.030235313 789766
0.73233616 0.69197655 0.055245772 1580833
0.73337758 0.69446135 0.05559732 1515295
0.7345928 0.69665778 0.056169845 1515040
0.7355181 0.6990419 0.051614672 2501409
0.73757815 0.70163077 0.051247694 2501411
0.73948836 0.70365614 0.050311148 2041123
0.74018645 0.70637989 0.050397247 1975332
0.76585883 0.7454772 0.027610078 854791
0.76564085 0.74733543 0.026737094 855048
0.76653409 0.74914783 0.024658784 2760729
0.72847325 0.69029343 0.055083141 1646619
0.73032224 0.69203115 0.05521214 1646367
0.73283243 0.69745624 0.050979681 2566949
0.73365164 0.69962752 0.050525025 2369573
0.73590213 0.70111102 0.050264224 1975075
0.76505673 0.74655682 0.024174824 592133
0.76543784 0.75069177 0.021743711 4009765
0.72303241 0.68650496 0.054897964 1581082
0.72479105 0.6883651 0.054991491 1646872
0.72891426 0.69522846 0.050467625 2369572
0.73086619 0.69670665 0.05055315 2172454
0.7650224 0.7504704 0.020394359 5325361
0.71953297 0.68463719 0.054173246 1646616
0.72118247 0.68580455 0.054376274 1646619
0.72336751 0.69181305 0.050293431 2632743
0.72552669 0.69270575 0.050261497 2369573
0.72675645 0.6957373 0.050274141 2304036
0.71607184 0.68169737 0.054018177 1712405
0.7173118 0.68390203 0.054712683 1646356
0.71997052 0.68815082 0.05003269 2369568
0.72192824 0.69076955 0.049740918 2238243
0.7625078 0.75430161 0.014852826 6442810
0.71217394 0.67937434 0.053472817 1317136
0.71345496 0.68150854 0.054163732 1646099
0.71580654 0.68438834 0.049751505 2237719
0.71627247 0.68668938 0.049275279 2171929
0.71828461 0.68877816 0.048728317 2369316
0.71905565 0.69090754 0.049231231 2501160
0.70898247 0.67742074 0.052700743 1449234
0.71259069 0.68445605 0.048861496 2040087
0.71464217 0.68674529 0.04866755 2368798
0.70534956 0.67544055 0.052648097 2105889
0.70814747 0.68054569 0.048706912 2434841
0.7101869 0.68247736 0.048456423 2369051
0.71059775 0.68464744 0.048983932 1711377
0.69963193 0.67147583 0.051510625 2106140
0.70217574 0.67338341 0.051943071 2368803
0.70490313 0.67837089 0.048260868 2829091
0.7062791 0.68018514 0.047964796 2763294
0.7070471 0.68181717 0.047978833 3092004
0.69587243 0.66705221 0.051501669 1712404
0.69557542 0.66987371 0.05171407 1778449
0.69786751 0.67070854 0.050962433 1778199
0.70089531 0.67639792 0.047482014 2500122
0.70222765 0.67771745 0.04723341 2829342
0.70330173 0.68002611 0.04664287 3026206
0.7499606 0.7556209 0.004786253 3815473
0.74980378 0.75582969 0.0026178285 4341305
0.69260412 0.66700226 0.050890706 1515027
0.69719791 0.67356741 0.046192393 2237463
0.69911361 0.67596257 0.046573497 2763549
0.74037057 0.74646074 0.0075581744 2435630
0.74230766 0.74855006 0.0064525269 2106153
0.74475962 0.75280893 0.0046053976 2105632
0.74723899 0.75512534 0.0037165433 2434600
0.68885267 0.66507447 0.049692586 1580300
0.69056702 0.66595852 0.050161168 1448978
0.69376838 0.67205852 0.045730054 2039829
0.69514799 0.67420864 0.045848876 2237465
0.69630402 0.67652857 0.046106271 2631963
0.73191488 0.735973 0.011310168 3356219
0.73410225 0.7392472 0.0093366876 3028026
0.73618257 0.74172699 0.0087132081 2896698
0.73842144 0.74364054 0.0077042617 2699065
0.7396847 0.74569577 0.0068054572 2501684
0.74351746 0.74988824 0.0033856258 1974561
0.68525064 0.66311324 0.049313702 1646349
0.68726051 0.66411948 0.049231514 1515016
0.68995064 0.66951013 0.045415916 2434579
0.69151217 0.67168844 0.045213677 2237208
0.69252014 0.67402434 0.045317754 2369301
0.73074377 0.73537135 0.009993244 3093304
0.73281866 0.73785049 0.0090067573 3093306
0.68160212 0.66085505 0.048654377 6514508
0.68432248 0.66195953 0.048604131 3882785
0.68459439 0.66553926 0.044674709 5131310
0.68600214 0.66806942 0.045182317 3092511
0.6881426 0.66968763 0.044177838 3092511
0.68912303 0.67160988 0.044417739 2500626
0.72376966 0.72864509 0.010524631 2040619
0.72579116 0.7324208 0.009343531 2961716
0.7278012 0.73441625 0.0095137469 3093048
0.67838025 0.65919673 0.047162712 5196858
0.67900193 0.66017503 0.04764086 6711124
0.6810146 0.6632477 0.043912701 6840656
0.68246746 0.66570443 0.043964267 4999985
0.68345582 0.66753936 0.043459237 5987136
0.72101736 0.72845089 0.01015145 1908779
0.72209179 0.7297312 0.0094384626 2369583
0.72426337 0.7315433 0.0085635483 2632754
0.67645717 0.65800065 0.046242654 2433822
0.67913437 0.66313976 0.043494061 4209455
0.68021172 0.66547 0.043345422 3947046
0.71753728 0.72683048 0.0099025853 1711138
0.7193473 0.72742724 0.008289732 1842721
0.67131799 0.65410501 0.046358883 1250830
0.67356241 0.65723127 0.046077959 1645589
0.67579734 0.66179025 0.042360172 2302480
0.67690891 0.6638037 0.042321473 2499605
0.71390224 0.72506654 0.0079094917 1579296
0.71538508 0.72575814 0.0076452196 1447711
0.66768348 0.65226489 0.046324529 922375
0.67157298 0.65921199 0.041374199 1711120
0.67356271 0.66120231 0.041492 1908240
0.71024239 0.72217292 0.0067440048 1646377
0.71159637 0.72384745 0.0072278343 1514532
0.66235185 0.64915246 0.044969864 2239006
0.66451472 0.65043819 0.045493782 1515285
0.66859472 0.65748107 0.041468553 1250829
0.66988289 0.65967572 0.040596373 1842706
0.70650816 0.72046864 0.0053818189 1844012
0.70784193 0.72174859 0.0057914034 1712937
0.66046762 0.64825124 0.044436634 2239003
0.66289008 0.65350759 0.040032968 2172448
0.66494268 0.65527803 0.040182292 1975066
0.66623235 0.65709549 0.039971501 2566688
0.70391858 0.71818256 0.0065778084 1974828
0.70497572 0.71982366 0.0055572763 1909291
0.65678132 0.64621037 0.043785006 2239009
0.66047317 0.65323037 0.039410755 2501666
0.66163969 0.65534055 0.03872145 2895909
0.69864869 0.71253794 0.0076120757 2171946
0.69969976 0.71492922 0.0071298704 2040626
0.70112848 0.71775454 0.0052578747 1909295
0.65395331 0.64428508 0.042239785 2239271
0.65765786 0.65117025 0.038392082 2501411
0.65851706 0.65325946 0.037638314 2895655
0.69145215 0.70625985 0.0073294565 1644306
0.69255531 0.70841032 0.0070578605 1776151
0.69374609 0.71102738 0.0057625957 1908509
0.6960026 0.71304262 0.0054354034 2171944
0.64911377 0.64168191 0.0410292 2239777
0.65140128 0.64352095 0.041877918 2108189
0.65408516 0.64902461 0.037787378 2238499
0.65513599 0.65160972 0.036782086 2830119
0.68614787 0.70125014 0.0075902417 3287088
0.68685913 0.70369893 0.0071865432 3156277
0.68903971 0.7072438 0.0072457418 2038553
0.64577645 0.64016736 0.040343672 2239533
0.64748573 0.64302975 0.040953793 2240035
0.65062201 0.64723325 0.036294118 2238500
0.65174663 0.64865446 0.036331214 2698534
0.65422374 0.6502369 0.035419054 2895400
0.68358588 0.70222265 0.006485492 2563873
0.68734187 0.70680785 0.0060743615 2762541
0.64257503 0.63794184 0.039377749 2633513
0.64410353 0.63941824 0.040486209 2371121
0.64766669 0.64449012 0.035764024 2370084
0.64778721 0.6470142 0.035465568 2764583
0.65016985 0.64917946 0.034724824 2830123
0.68077058 0.70011091 0.0063220002 2039332
0.68205118 0.70139354 0.0056080632 1841950
0.63986063 0.637918 0.038885199 2698794
0.64370036 0.64286351 0.034243025 2567467
0.64437956 0.64515293 0.034460448 2895656
0.64536995 0.64763039 0.034187034 2896166
0.67523926 0.69532925 0.0050830543 2105380
0.67676842 0.69831538 0.0044507347 2171688
0.67857629 0.7004382 0.0044483244 2105638
0.63738829 0.63580573 0.037563831 2830647
0.6411193 0.64291286 0.033381738 2961959
0.64165825 0.64524031 0.033531092 3224363
0.67278993 0.69432664 0.0054679103 1908252
0.67551148 0.69914842 0.0047992393 2040101
0.63414347 0.63538837 0.037769735 2766384
0.63419282 0.63549685 0.035293207 2634545
0.63731021 0.64130545 0.033280507 2764834
0.63816524 0.64287239 0.031863898 3355946
0.6691938 0.69396722 0.0039192624 1710354
0.63399816 0.63981485 0.031955168 2895910
0.63473463 0.641424 0.030514233 3355943
0.63699973 0.64189994 0.030142695 3421481
0.66409445 0.68925989 0.0036993586 3683116
0.66575354 0.69105488 0.003006652 3682093
0.66822314 0.69289839 0.0029210858 2301465
0.63090688 0.63850921 0.030228958 2896164
0.63297701 0.640652 0.029133856 3356198
0.66237926 0.68834329 0.0029325858 2827293
0.62738538 0.63717175 0.028988123 2764574
0.62922847 0.64022326 0.02774135 3355688
0.65901005 0.68831074 0.0014480911 2039580
0.62509274 0.63638443 0.027728289 2764063
0.62726343 0.63923413 0.026460707 3224099
0.65214753 0.68090504 0.0017292649 1645330
0.65336567 0.68236363 0.0010299087 1842201
0.65466285 0.6857245 0.0010614395 2104867
0.65700114 0.68687952 0.00059318915 2105127
0.62180555 0.63594866 0.026427403 2698269
0.62384957 0.63758516 0.025521778 2895389
0.6250689 0.63889253 0.024704829 3224097
0.64913702 0.67916417 0.0022634156 2959662
0.65045393 0.68052936 0.0017417185 1842710
0.65185362 0.68523157 0.00078813359 1842452
0.61960006 0.63504541 0.024419948 2500890
0.62104636 0.63803011 0.023335289 3026718
0.62220657 0.63873982 0.022265207 3223837
0.64616042 0.68023974 0.00088040531 3485740
0.6151967 0.63466525 0.023149762 2500883
0.6172092 0.63475084 0.023201618 2435095
0.61857373 0.63795507 0.021517564 2894621
0.64337361 0.67747033 1.7363578e-05 2630428
0.64441985 0.67903018 -0.00092724338 3552815
0.61380029 0.63400787 0.020962216 2237200
0.61465561 0.63635904 0.019948497 2499864
0.61709684 0.63790643 0.019651692 2763034
0.63919365 0.67539328 -0.001621373 2565922
0.64067137 0.67721093 -0.0011312589 2302493
0.61140752 0.63383722 0.019613001 2105359
0.61369526 0.63668865 0.017333314 2433807
0.61419398 0.63789451 0.017971411 2697238
0.63424098 0.67128122 -0.0019291341 2105883
0.63550961 0.67293096 -0.001626797 2237467
0.63638026 0.67523462 -0.0019982979 2565925
0.60959756 0.63446486 0.017655186 2170637
0.61028564 0.63670212 0.016956091 2433294
0.61272937 0.63778478 0.015405711 2696977
0.63118434 0.66873914 -0.0029168203 2632483
0.63204527 0.67090768 -0.0030723624 2500896
0.60833359 0.63428229 0.016488403 2170385
0.60786736 0.6381101 0.0136071 2564617
0.61028737 0.63776356 0.014275052 2696205
0.62848479 0.66823405 -0.0030885227 2566693
0.6300689 0.67109346 -0.0024665818 2764322
0.60645068 0.63491791 0.01446281 2301977
0.60620797 0.63725442 0.011827607 2563849
0.60920233 0.63930231 0.011125758 2959110
0.62503898 0.6648522 -0.0036815517 2763569
0.62545431 0.66685319 -0.0034989342 2566444
0.60412812 0.63706273 0.0098426342 2958864
0.60635513 0.63960564 0.0096590854 3352578
0.60711193 0.64222145 0.0060515106 4206598
0.61929774 0.66259915 -0.0040000901 2764334
0.6213116 0.66405529 -0.0038855225 2829361
0.62196219 0.66616136 -0.0052239895 2698035
0.60154808 0.63762456 0.0091516972 2958869
0.60380191 0.63973665 0.0084449649 4074497
0.60440898 0.64282191 0.0050548799 4732936
0.61706257 0.65996951 -0.004064057 2830130
0.61840427 0.6612168 -0.0047742091 2830129
0.60081214 0.63912195 0.0052514449 5193732
0.60334414 0.64212346 0.0037594959 6179591
0.61320889 0.6571064 -0.0051149875 3026994
0.61325413 0.66060424 -0.0054132789 2829873
0.59951699 0.63985968 0.0019388795 7562263
0.60066998 0.64256328 0.0034509525 6048776
0.60207754 0.64372563 0.0008385554 7429652
0.61000276 0.65721345 -0.0059220716 3027251
0.59583199 0.64047223 0.0010443553 7956762
0.59821129 0.64317971 -0.00061292574 8678424
0.60069036 0.6433816 -0.0011988245 8875797
0.60745108 0.65632272 -0.0075052157 3158577
0.5927372 0.63663322 -0.00094164163 10059828
0.5949049 0.64014512 -0.0011236779 9533473
0.59570801 0.64384323 -0.0024084225 9401876
0.60252213 0.65491605 -0.0086002629 3224878
0.60381484 0.65622616 -0.0092500895 3159089
0.5895654 0.63704926 -0.0013802908 10256433
0.59142894 0.63851225 -0.0014225319 9993768
0.59226853 0.64031118 -0.0018449724 10058778
0.59948742 0.65253645 -0.009739846 3290671
0.58433306 0.63198268 -0.0014990717 11244092
0.58700907 0.63349575 -0.0014039055 10718009
0.58758998 0.63615191 -0.0022623986 10520109
0.58941698 0.63753337 -0.0037464127 10716968
0.59016562 0.64030242 -0.0030450821 10519326
0.58134276 0.62945467 -0.0010801889 11638593
0.58273733 0.63148093 -0.0016072802 11310146
0.58419555 0.63410985 -0.0026978925 11111984
0.58500987 0.63685155 -0.0037932284 11243302
0.57739782 0.62751943 -0.0011842959 11704386
0.57876348 0.62950879 -0.0029396415 11440428
0.58005846 0.63268572 -0.0039610304 11439917
0.58201283 0.63347024 -0.0043541752 11505965
0.57403505 0.6258266 -0.0021464601 11704641
0.57665437 0.62891173 -0.0042766184 11045928
0.56983519 0.62478429 -0.0043425411 15064752
0.57171798 0.62543672 -0.0048216097 12169341
0.57218683 0.62903655 -0.0050485358 12100432
0.57370186 0.6300422 -0.0055315718 10981176
0.77784109 0.74160618 0.046842903 8218943
0.75800526 0.71427232 0.060515501 3948339
0.75990015 0.71558148 0.059830487 3422252
0.76209736 0.71762282 0.058930539 1909530
0.76283461 0.72017455 0.057462662 2435108
0.76414317 0.72257131 0.055663221 2500641
0.76592457 0.72492772 0.054606274 1777177
0.76747179 0.72699976 0.053464532 2039835
0.7691648 0.72942817 0.052884273 2171421
0.77048486 0.73183435 0.051485941 2302487
0.77204984 0.73389763 0.050055608 2368280
0.77294517 0.73678052 0.049563795 1974038
0.77410364 0.73897535 0.048130289 2235148
0.7762273 0.74069393 0.047148414 5259297
0.7549839 0.71196902 0.059887268 3751471
0.75650191 0.71269423 0.059367731 4145973
0.75767922 0.7165513 0.057126701 4671797
0.75935757 0.71880013 0.056417957 4803640
0.76178598 0.72043931 0.055614322 4803136
0.76710546 0.72976774 0.050927863 1053195
0.76801324 0.73259294 0.04819119 1184523
0.77308559 0.73907644 0.045624062 2235922
0.77245927 0.73980689 0.042695962 2038802
0.77339166 0.74324071 0.042687014 2826512
0.75144434 0.71026671 0.058708623 2172451
0.753196 0.71107674 0.059201881 3094055
0.75465971 0.71448493 0.055589527 2500388
0.75559193 0.71560532 0.055823267 3355688
0.75699008 0.71877944 0.054739282 4869185
0.75918156 0.72050041 0.053561404 4539961
0.76026767 0.72263348 0.052051097 3092765
0.76157874 0.72550344 0.051197186 1514000
0.76295376 0.72701085 0.050408289 1447704
0.76476967 0.72940964 0.048190616 1316624
0.76536751 0.73172325 0.048360921 1382672
0.76611704 0.73409629 0.045249388 1513742
0.77273953 0.74405634 0.039649054 2497808
0.74769533 0.70804816 0.058285557 1052948
0.74971986 0.70923132 0.058307022 1316630
0.75199342 0.71398211 0.055293411 1908250
0.75366819 0.71693635 0.054022476 3750189
0.75608134 0.71763313 0.052877605 4013621
0.76654994 0.73769045 0.042181388 1447438
0.76749897 0.74063647 0.041949093 1776660
0.74391115 0.70539623 0.056987852 791311
0.74561799 0.70694721 0.057445057 593421
0.74696851 0.71082079 0.054084033 1448474
0.74877214 0.71231019 0.054291636 1382168
0.75003165 0.71422517 0.053099684 1513239
0.75225008 0.71505165 0.052131169 1512988
0.76658678 0.74149996 0.038705409 1381900
0.76814902 0.74513841 0.036576591 1249804
0.74005151 0.7033515 0.056680292 1186077
0.74132192 0.70477468 0.056806237 1120539
0.74475574 0.71012771 0.053438 1909284
0.74612772 0.71226317 0.052062318 921366
0.7484113 0.71296608 0.05086115 986903
0.76658136 0.74404025 0.034337088 1052681
0.76774323 0.74626267 0.03378924 854796
0.76780891 0.74805492 0.030977778 920842
0.73538572 0.69957912 0.056250855 1515296
0.73680139 0.70095354 0.056213953 1449246
0.73836738 0.70206416 0.05657433 1383455
0.73927593 0.7061637 0.052536063 2435623
0.74122727 0.70776689 0.052612334 2304038
0.7430616 0.70971143 0.05215437 1580317
0.76631606 0.74712557 0.031150728 1118219
0.76699245 0.75132596 0.029885225 788745
0.73187947 0.69645452 0.056417868 1449503
0.73303342 0.69870991 0.056989677 1515040
0.73496497 0.70113683 0.052460447 2435618
0.73575658 0.70401484 0.052143864 2501160
0.73739898 0.70543104 0.051877096 2106659
0.73897719 0.7076844 0.051783979 1975073
0.76502681 0.74843532 0.027825929 1118472
0.7664355 0.75003016 0.026641674 1314826
0.72658432 0.69259411 0.0560669 1581085
0.72881103 0.69409043 0.055980802 1515295
0.72877187 0.6966573 0.056253836 1449506
0.73239356 0.70134515 0.051747695 2238244
0.73386276 0.70370477 0.052035682 2238246
0.7654832 0.75195742 0.024354942 2564124
0.76428258 0.75523621 0.024268627 1314576
0.72251511 0.69103479 0.056215435 1646623
0.72501773 0.69155365 0.055715621 1646874
0.72750294 0.6978755 0.051715031 2501413
0.72909546 0.69933319 0.051661141 2238243
0.73013115 0.70147461 0.051666342 2632743
0.76418138 0.75821877 0.019416369 6048322
0.71876496 0.68767387 0.055436552 1646617
0.72085577 0.68933761 0.055148199 1712414
0.72392011 0.69529772 0.050959051 2238245
0.72562027 0.69685495 0.051264264 2369827
0.71449971 0.68379217 0.054783128 1712400
0.71556699 0.68620253 0.055343896 1712152
0.71918118 0.69096696 0.050431527 1909280
0.71972382 0.69285226 0.050782904 2501155
0.7216692 0.69483626 0.050898656 2369830
0.76214087 0.76110762 0.014579967 7101000
0.71151561 0.68141478 0.054179631 1185290
0.71179867 0.68352991 0.054936945 1316878
0.7137149 0.6854552 0.051250599 1776392
0.71420801 0.6891098 0.051151827 1842699
0.71647692 0.69021356 0.050432235 2237468
0.71766877 0.69297731 0.050752901 2237985
0.7073676 0.67932564 0.054375142 987660
0.70893729 0.68109792 0.05449 922118
0.70940423 0.68478775 0.051101297 2039310
0.71149719 0.68667042 0.049950667 1710861
0.71328706 0.68879473 0.05048468 2171156
0.70357865 0.67738074 0.053855278 1645336
0.70499682 0.6786474 0.05409839 1184786
0.70804775 0.68418801 0.049935617 1710864
0.70921683 0.68662518 0.049749866 1381896
0.69976526 0.67624003 0.052448422 2172198
0.70141816 0.67714328 0.052764162 2106145
0.70399249 0.68012917 0.049748011 2303260
0.70461214 0.6825074 0.049213476 2500380
0.70666206 0.68405861 0.048808128 2697243
0.6965096 0.67333841 0.05219923 2041366
0.69850814 0.67479056 0.052526593 2172450
0.70046103 0.68024182 0.048505284 2632479
0.70260811 0.68196523 0.048310876 2961182
0.7475791 0.7568177 0.0069090426 2500653
0.69084287 0.67011327 0.051684901 1251342
0.6930325 0.6712203 0.052306473 1581071
0.69702077 0.67839938 0.047498189 2435355
0.69899404 0.67934132 0.047177181 2698271
0.74263167 0.75241208 0.007077612 2303529
0.74481624 0.75448143 0.0071051046 2500133
0.74583685 0.75612664 0.0060507022 2565925
0.68938559 0.66904461 0.051286101 987916
0.6932205 0.67607522 0.04668209 2040339
0.69539106 0.67820543 0.046847887 2303510
0.73268974 0.73848397 0.011804886 3159096
0.73343444 0.74110639 0.011164226 2896442
0.73436427 0.7432068 0.009892676 2830393
0.73512214 0.74580276 0.0094559938 2699064
0.73704726 0.7478646 0.0082862526 2567480
0.73964691 0.75030208 0.0070233457 2501426
0.68591261 0.66658074 0.050486714 1185289
0.68745941 0.66853011 0.050425768 1053453
0.68890941 0.67165673 0.04568743 1776652
0.6900236 0.6737681 0.046211392 1776657
0.69098794 0.67585087 0.046229273 1908238
0.72810388 0.73596048 0.010551378 3224896
0.72975153 0.73859024 0.011298809 3093564
0.68001276 0.66379631 0.049489029 2107917
0.68249178 0.66467112 0.050090417 1185807
0.68460321 0.67007613 0.046163157 1974546
0.68631589 0.67149019 0.045662828 1908494
0.68753052 0.67350453 0.045623735 1316620
0.7223556 0.73217589 0.01232262 2961721
0.72450691 0.73368526 0.011581544 2961977
0.72648025 0.73680681 0.011223592 3159104
0.67688096 0.66157514 0.048768267 2764063
0.67829919 0.66284204 0.049011447 3620635
0.68183255 0.6676814 0.045253605 2632718
0.68273526 0.66941452 0.045296393 2961178
0.71958792 0.72984964 0.011344071 2435373
0.72060955 0.73173285 0.011202477 2829878
0.67442083 0.66073155 0.047928654 1514515
0.67709249 0.66615057 0.044579417 3289636
0.67866689 0.66741574 0.044481367 2961180
0.71553326 0.72812366 0.011678487 1908772
0.71770191 0.72927248 0.011244912 2369064
0.66964018 0.65540242 0.046847999 856327
0.67132658 0.65875643 0.047147393 1382417
0.67382419 0.66284502 0.043139219 1908494
0.67519331 0.66534895 0.043626301 2171153
0.67702281 0.66738784 0.042734399 3156503
0.71234393 0.72641814 0.010096822 1382686
0.71394557 0.72729754 0.0096776187 1645602
0.66544771 0.65396798 0.046849161 1580561
0.66808641 0.65668827 0.046980366 1185290
0.67012781 0.6617921 0.042896099 2105877
0.67208427 0.66328204 0.042928897 2631705
0.67364377 0.66454273 0.042132802 2236944
0.70874494 0.72481102 0.0094613247 1448225
0.71022803 0.72550267 0.0091970041 1382689
0.66222149 0.65205479 0.046586856 1317136
0.66411483 0.65508938 0.047166519 2698530
0.66600823 0.65914261 0.042649753 2039318
0.66807777 0.66110396 0.041917637 1579532
0.66967642 0.66336441 0.041552141 1447435
0.70636362 0.72345901 0.0077380762 1580068
0.65867674 0.65039718 0.045247011 2042393
0.65992486 0.65164149 0.04537569 1844504
0.66356456 0.65767688 0.04120189 1710863
0.66411799 0.65976131 0.041257642 1776656
0.66648138 0.66034251 0.040952563 1249807
0.70132089 0.72007239 0.0081058629 1843245
0.7042563 0.72194004 0.0073233172 1777448
0.65474856 0.64814001 0.045381978 2042393
0.65728247 0.64916903 0.044982821 2042652
0.65920174 0.65507048 0.040878862 1975065
0.66130912 0.65717828 0.040521801 2237979
0.69743848 0.71617883 0.0091291666 2040361
0.69902903 0.71667427 0.0079136193 1975090
0.70047045 0.71945685 0.0060966015 1843505
0.65252924 0.64653164 0.044043966 2107675
0.65672833 0.65342933 0.039589897 2304293
0.6566847 0.65528387 0.039856896 2632486
0.65848392 0.65682322 0.039130293 2830113
0.69058299 0.71102512 0.0092760809 2434335
0.69279575 0.71251529 0.0086877942 1842460
0.69431245 0.7151227 0.0069903061 1908515
0.64934742 0.64413571 0.042470559 2370588
0.64990366 0.64575928 0.043465257 2305044
0.65335214 0.65307307 0.038492918 2501412
0.65547556 0.65494943 0.038354479 2829860
0.68966115 0.70999122 0.0064576343 1907477
0.6905309 0.7126565 0.0068681762 1908251
0.64574933 0.64369959 0.042243704 2239774
0.64792383 0.64954031 0.038078636 2238498
0.64998019 0.65099788 0.037728995 2567205
0.65130675 0.65284157 0.036909066 2829863
0.68390846 0.7058385 0.0061231032 2828331
0.68548036 0.70867056 0.0066810623 2763055
0.68710142 0.71143949 0.0071787499 2697252
0.64190578 0.64177215 0.041219093 2305577
0.64414001 0.64291608 0.041009434 2240036
0.64428854 0.64804536 0.037766226 2304544
0.64588642 0.64907545 0.036827564 2633251
0.6480875 0.65093178 0.035889141 2830118
0.68071437 0.7045821 0.0075773895 1907744
0.68215692 0.70712239 0.006345626 2236961
0.6384005 0.64027071 0.040052034 2567717
0.64323837 0.6468944 0.036844321 2173217
0.64427626 0.64930606 0.035197496 2895908
0.67698514 0.70208997 0.005328685 2105641
0.67755949 0.70506811 0.0055047795 2039591
0.6347363 0.63735121 0.039724752 2633770
0.64007616 0.64503169 0.035559185 2370337
0.64105046 0.64738369 0.034503102 3027493
0.64173973 0.64943826 0.035073116 2699046
0.67203975 0.69870144 0.005763486 1776661
0.67361248 0.70059943 0.0050039962 1908253
0.63512707 0.64296061 0.034726769 2502438
0.63776076 0.6450904 0.034005836 3093033
0.63817441 0.64687735 0.03418947 2962212
0.66835213 0.6972419 0.0046258532 2368021
0.66932374 0.69895017 0.0036316589 1841683
0.63181937 0.64107257 0.033349857 2699049
0.63354397 0.64307505 0.032438651 3224619
0.63445926 0.64468306 0.033216015 3158827
0.66292727 0.69216311 0.0048610494 3486510
0.66546106 0.69325525 0.0046170503 3486520
0.66534048 0.69734007 0.0039029084 3618098
0.62783724 0.64006084 0.032583289 2961700
0.62987155 0.6403091 0.03248319 2895912
0.63060558 0.64236951 0.030680016 3421737
0.66074139 0.69192451 0.0035019368 2039318
0.62651014 0.63902545 0.031481937 2961699
0.62836385 0.64177835 0.029560782 3421738
0.62845099 0.64320129 0.030964248 3488043
0.65735388 0.69077837 0.0024465024 2171165
0.65924358 0.69139951 0.0035803095 1907993
0.62187159 0.63782531 0.029826947 2895403
0.62365204 0.63808024 0.029928006 2961446
0.62534159 0.64108348 0.028354414 3421482
0.65368283 0.6882301 0.0024169236 1973529
0.65587187 0.6896385 0.0017705709 2105121
0.61926031 0.63771123 0.028572731 2829863
0.62186229 0.640127 0.026837111 3289894
0.62220597 0.63989073 0.025207691 3355686
0.64835012 0.68062478 0.0035815611 3617837
0.64874744 0.68380058 0.0024958923 3290151
0.65016365 0.68489969 0.001835268 2566431
0.6512084 0.68689138 0.0016817264 2105886
0.61826086 0.63645375 0.026919007 2698527
0.61965966 0.6400193 0.0256593 3355430
0.61520648 0.63588107 0.025867127 2698268
0.61713958 0.63746339 0.025370196 2895390
0.61779839 0.63917547 0.023496281 3092514
0.64297491 0.67888063 0.0012057684 2695708
0.643884 0.68105626 0.00099902228 3485480
0.64469433 0.68332517 0.00061476603 3617075
0.61221564 0.63477075 0.024018742 2435097
0.6143055 0.63827908 0.022522938 3223843
0.61526072 0.63944721 0.022023723 3093022
0.63697958 0.67888373 0.00014979392 2762793
0.63946915 0.67963445 6.0595572e-05 2565412
0.60871518 0.63484472 0.022344239 2566430
0.61173844 0.63793409 0.020214103 2828827
0.63566983 0.67692077 -0.0011297911 2565919
0.60586894 0.63459712 0.019629933 1776915
0.60783148 0.6358462 0.019504603 2170901
0.60974932 0.63791692 0.018540718 2565651
0.63069391 0.67426294 -0.001288794 3749680
0.63287556 0.67444122 -0.0011135153 2696994
0.60358298 0.63498682 0.019191612 1579536
0.60483176 0.63518286 0.016685255 1842198
0.60684276 0.63817805 0.016296379 2236942
0.62810308 0.67105263 -0.0028588437 2961956
0.62821805 0.67302126 -0.0020849481 3158313
0.6028682 0.6350342 0.016573016 1907982
0.60436022 0.63790542 0.015450373 2170640
0.60476363 0.63985032 0.012587775 2960397
0.62330389 0.66878116 -0.0022279173 2435629
0.62539256 0.67046618 -0.0029545166 2304289
0.59996855 0.63585377 0.015519522 2631701
0.60202384 0.63648975 0.012711242 2302482
0.6025089 0.63949096 0.011879046 3551499
0.61793172 0.66339129 -0.0017912909 2698285
0.62043929 0.66718507 -0.0031630173 2698032
0.62060094 0.66938162 -0.0032245554 2632498
0.59853327 0.63709331 0.011900987 4210460
0.60000628 0.63952142 0.010893807 3485962
0.60295224 0.64190632 0.0081434771 3616779
0.61590105 0.66210634 -0.003589876 2699054
0.61491144 0.66414177 -0.0028704852 2764332
0.61808777 0.66613698 -0.003701169 2698543
0.59854805 0.6386779 0.0079388358 3617051
0.60028249 0.64173639 0.0073147006 4734222
0.60162985 0.64371079 0.004026968 5062152
0.61228693 0.66273201 -0.0048549064 2764593
0.59631085 0.63900447 0.0074401498 5130275
0.59724158 0.64074284 0.0053866282 5456908
0.59854376 0.64376801 0.0027890094 6180365
0.60919654 0.66022325 -0.0051866435 2895666
0.60924077 0.66271019 -0.0054807365 2830130
0.5945071 0.64056456 0.003519468 6115343
0.59588361 0.64297849 0.0026147217 6969106
0.59612745 0.6448971 0.0021362081 7298837
0.60605526 0.65858781 -0.0066643544 3026994
0.59191048 0.64057589 0.0032240376 7101985
0.59347755 0.64210761 0.0010737441 8152857
0.59470809 0.64428532 -0.00058718771 8481556
0.60279214 0.65547764 -0.0063151345 3225136
0.60411394 0.65851539 -0.0070866272 3027251
0.58947706 0.6404348 -0.00055101141 9139753
0.59082973 0.64272428 -0.0002265498 9072666
0.59343016 0.64356411 -0.0026395544 9664790
0.59814811 0.65434009 -0.0081781819 3290674
0.60008824 0.65575367 -0.0083829034 3159345
0.58568227 0.63831306 -0.0015405193 10454580
0.58729327 0.64010626 -0.0021323524 10191145
0.58898675 0.64374387 -0.0032834038 10125341
0.59095037 0.64389253 -0.003171213 9862168
0.5952729 0.65463036 -0.0086318068 3290162
0.58149147 0.63344175 -0.0014322698 11374905
0.58276278 0.63663131 -0.0022788979 11046451
0.58365953 0.63807595 -0.0015255176 10717748
0.58470011 0.64029348 -0.003050603 10717477
0.57523775 0.62877458 -0.0011390708 11704383
0.57712525 0.63211793 -0.0011073798 11506745
0.57934552 0.63322687 -0.0018719584 11506751
0.57966775 0.63612819 -0.0032293834 11177523
0.58146816 0.63925594 -0.0033749528 11111719
0.57197332 0.6279844 -0.00080857426 11572539
0.57326698 0.62913799 -0.0016257502 11506744
0.57544112 0.63218093 -0.0015452579 11507011
0.57666689 0.63434523 -0.0043839067 11243052
0.56978816 0.62522942 -0.0013228357 11769923
0.57039404 0.6276387 -0.0023925081 12364645
0.57360321 0.63260704 -0.0049731955 10914871
0.56647253 0.62508184 -0.0014144592 12033098
0.56759167 0.62708044 -0.0040838867 15526085
0.56481588 0.62562817 -0.0046548508 16711381
0.76584405 0.72737634 0.05825673 2500384
0.77050257 0.73415041 0.053144239 2434075
0.77146482 0.73573977 0.052515104 2368535
0.77284026 0.73897111 0.05204092 2236434
0.7742117 0.74067134 0.050454006 2103569
0.77572775 0.74309427 0.050039664 4932134
0.75594354 0.71615535 0.062595963 3093040
0.75825846 0.71709865 0.061832294 2896174
0.76053458 0.71985316 0.060390413 2830376
0.76188207 0.72205019 0.0596883 2501156
0.76297724 0.72426248 0.057660662 2895404
0.76457453 0.72663116 0.056645036 2566439
0.76632309 0.72916228 0.055662751 2105627
0.76731527 0.73115385 0.054547012 1842709
0.76930416 0.73316753 0.054026261 2368537
0.77185714 0.73921734 0.051027671 1184526
0.77311957 0.74053633 0.048935048 1576968
0.77489519 0.74298114 0.047824562 4996131
0.75263762 0.71289557 0.061989166 3619886
0.75537515 0.71450418 0.061537236 3553840
0.75530964 0.71814764 0.059284061 4671799
0.75739306 0.71960878 0.058635056 4408630
0.75930238 0.72204489 0.057600617 4079669
0.75970948 0.7259053 0.054813772 2895396
0.76259464 0.72947502 0.052269474 1776410
0.76730978 0.73364753 0.050995365 1119241
0.76738894 0.73649395 0.051321313 1250571
0.77056956 0.7414335 0.047587037 790284
0.77266645 0.74270773 0.044809505 2300429
0.74973953 0.71120018 0.06099236 3159336
0.75240135 0.71621794 0.058122903 4079663
0.75455272 0.71729511 0.057736233 4672057
0.75475311 0.72035855 0.055668712 4474676
0.75799 0.72230208 0.054692544 4014137
0.75904417 0.72451544 0.054481283 3158568
0.76108724 0.72797358 0.053276122 1974296
0.76387602 0.73152894 0.050834298 1513749
0.76486802 0.73353982 0.049706422 1579284
0.76565099 0.73648113 0.047438055 1645072
0.76743126 0.73841882 0.046114698 1250316
0.76830971 0.74098134 0.045396335 1184780
0.76882684 0.74390233 0.043265112 1118993
0.77173686 0.74567139 0.041956909 2693130
0.77144063 0.74842292 0.04216022 4008471
0.74548364 0.70929086 0.060525909 1645849
0.74824119 0.70983559 0.060123026 2106916
0.7494837 0.713889 0.057564214 2500131
0.75071108 0.71526033 0.057902634 3487275
0.75199181 0.71798491 0.056153923 4145712
0.76618457 0.73995262 0.044911332 1776401
0.76759338 0.74135828 0.043261573 1578768
0.76819599 0.74421209 0.041103825 1447697
0.76959562 0.74560153 0.04012648 1314574
0.74200559 0.70756948 0.059500098 658955
0.74468803 0.70824605 0.058898628 856073
0.74480164 0.71279228 0.057395786 1447701
0.74656403 0.71331644 0.055934608 1513240
0.74883914 0.71613169 0.055253342 3092518
0.76768053 0.74497926 0.038724653 1710864
0.76909131 0.74833804 0.036861509 1708299
0.77010381 0.74991316 0.036619507 2691845
0.73855811 0.70535827 0.058678612 725265
0.74143422 0.70609599 0.05817049 593676
0.74097794 0.71139747 0.055748522 1382679
0.74357748 0.71211541 0.05515293 1118995
0.7447803 0.71345323 0.053953767 1118225
0.7677123 0.75089037 0.032747373 1182728
0.73505473 0.70373839 0.057692029 1251868
0.73778999 0.70410407 0.057292096 1186078
0.73960358 0.70994085 0.053860605 1909279
0.74166155 0.71120644 0.05434785 1382938
0.73016095 0.69856524 0.057047322 1449502
0.73220885 0.70106953 0.057421759 1449245
0.73458749 0.70178354 0.056783617 1449246
0.73400104 0.70555848 0.054025784 2435111
0.73599905 0.70745325 0.053717211 2304039
0.73744214 0.70905286 0.053751528 2040611
0.72740012 0.69591594 0.056908786 1383969
0.72744691 0.69843215 0.057304516 1383712
0.72933567 0.70099521 0.057488531 1383712
0.73143291 0.70320451 0.052865297 2303780
0.73174047 0.70570493 0.053265207 2237734
0.73401725 0.70703685 0.053076245 1843490
0.72313976 0.69380957 0.056312941 1580830
0.7243669 0.6960569 0.056952499 1449500
0.72719616 0.70159525 0.053137049 2172451
0.72895706 0.70275539 0.052692309 2304038
0.7634021 0.76086617 0.01983365 4667439
0.71919692 0.69155324 0.055799618 1777955
0.72036362 0.69376588 0.056426361 1712418
0.72387385 0.69915378 0.052325964 2304037
0.72602284 0.70145178 0.052334726 2632488
0.71317387 0.68800604 0.056271523 1843222
0.71550643 0.68966436 0.055770665 1777692
0.71725607 0.69159973 0.055833653 1843484
0.71822596 0.69568014 0.051948152 2501411
0.72069913 0.69688892 0.051968336 2369571
0.71138239 0.68538731 0.055975989 1513995
0.71152854 0.68773991 0.056540154 1776914
0.71516824 0.69296032 0.051642179 2303000
0.71661407 0.69475865 0.051684663 2369310
0.70561564 0.68256688 0.055814564 3091989
0.7082755 0.68315107 0.05537419 1382409
0.70824772 0.68581551 0.055720359 1381895
0.71001852 0.68872797 0.051742092 2960155
0.71169066 0.69065058 0.051479407 2171414
0.71360803 0.6928426 0.050913468 2369308
0.70153427 0.67821681 0.054390237 1448464
0.70361602 0.68113983 0.055294417 2171156
0.70645237 0.68632889 0.051075712 2039055
0.70842731 0.68813688 0.051040106 2039567
0.7089566 0.69041485 0.051661596 2434832
0.69974458 0.67991984 0.054310054 1448209
0.70319933 0.68477803 0.050675958 2039825
0.70516658 0.68653268 0.050593197 2171153
0.6945107 0.67564583 0.053031579 1844499
0.69669735 0.67794281 0.053182282 1909277
0.69959223 0.68260926 0.049515069 2237723
0.70038879 0.68429887 0.049655125 2500378
0.74384546 0.75754344 0.0092548653 2894888
0.74577248 0.75834829 0.0081553981 2565925
0.69048178 0.67329109 0.052993074 1383692
0.69327819 0.67416477 0.05307959 1975826
0.695225 0.68069822 0.048504181 2238236
0.69694459 0.68178928 0.04884389 2501149
0.73957992 0.75290704 0.009471871 2764083
0.74089557 0.75461775 0.0095829219 2698545
0.74294949 0.7557655 0.0087809786 2698027
0.68759441 0.67099655 0.052492008 1316366
0.69174778 0.6780653 0.048181571 2763552
0.69371474 0.67993623 0.047866717 2303254
0.73246735 0.7435261 0.012495458 2633782
0.73306203 0.74680704 0.012537766 2633013
0.73422515 0.74810052 0.0098112002 2567733
0.73637563 0.74967992 0.0090791732 2633015
0.7373898 0.75253373 0.0086918473 2764340
0.73944497 0.75327832 0.0071515739 2633010
0.68378174 0.6691277 0.051293328 3749410
0.68526244 0.67021877 0.051521942 3157272
0.68845814 0.67570335 0.047023959 2894877
0.6895951 0.67790931 0.047288217 2171671
0.69095856 0.68018305 0.047734536 1908240
0.72841811 0.74109143 0.012247842 2896189
0.73022449 0.74290299 0.011988845 2699063
0.73298001 0.7468676 0.010418959 2567734
0.68057352 0.66717887 0.050392121 1382417
0.68212914 0.66813797 0.05081936 2368282
0.68446279 0.67363495 0.046677962 1710348
0.68574309 0.67548633 0.046829142 2433557
0.6872223 0.67775619 0.046903893 2763283
0.72141612 0.73438644 0.013894644 3224891
0.72346073 0.73615068 0.012966722 3159358
0.72514915 0.73857111 0.012722559 3093054
0.72661668 0.73949945 0.012281597 3093310
0.67630601 0.66350758 0.049766049 2041621
0.67799997 0.66616583 0.050024062 1186317
0.6812138 0.67157155 0.046161734 2105874
0.68299526 0.6735124 0.045747787 1513485
0.71779168 0.73168576 0.012984566 2895921
0.71982157 0.73353899 0.013153508 3093563
0.67355096 0.6625635 0.049675927 1646869
0.677692 0.6698854 0.045519397 2040342
0.67899752 0.67186546 0.045341276 2500119
0.71465182 0.73075688 0.012745924 2435371
0.66866565 0.65871257 0.048736013 1711630
0.66911459 0.66057813 0.048866168 1514767
0.67115664 0.66158909 0.048749819 1580306
0.67213237 0.66624147 0.044852182 4078377
0.67412412 0.66724384 0.045256652 2237200
0.67520243 0.66922027 0.04440055 2566423
0.7104764 0.72800088 0.012399554 1580322
0.71217477 0.72947782 0.012512751 1843494
0.66599834 0.65791976 0.048310496 4999739
0.66837466 0.66366827 0.044322573 3487523
0.67042506 0.66531634 0.043603502 3158050
0.67132056 0.66759199 0.04372339 1974541
0.70703709 0.72643739 0.011350814 1317150
0.70930052 0.72774053 0.010833077 1317408
0.66097188 0.65440106 0.047820844 1776143
0.66236329 0.65644169 0.047593892 4209449
0.66461635 0.66126782 0.044109464 5197114
0.66667068 0.66263664 0.043618694 2894874
0.66825616 0.66578364 0.043261975 3092252
0.70316482 0.72493273 0.0094474778 1382436
0.70582038 0.72509634 0.0097739957 1382944
0.65809131 0.65465641 0.045990556 1645585
0.66300792 0.65938389 0.043112777 4341040
0.66323709 0.66168177 0.042458743 2565911
0.66467428 0.6643284 0.042785875 3683878
0.69918275 0.7209 0.0094299614 1777451
0.70182216 0.72340423 0.0091655962 1514279
0.65252215 0.6480217 0.046295494 1976591
0.65427965 0.65045035 0.046678975 1844240
0.65557981 0.65235823 0.046461284 1843728
0.65781832 0.6566869 0.042047605 1843732
0.65978283 0.65887266 0.041957416 1908495
0.6605913 0.66093695 0.041575275 2565910
0.69377077 0.71493721 0.010432318 1776921
0.69461715 0.71758026 0.01101299 1909025
0.6970402 0.71928787 0.0090421923 1843752
0.69711673 0.72109282 0.0088784099 1777708
0.69982946 0.72325397 0.0078298002 1645611
0.65024889 0.64807683 0.045139246 1977107
0.65142834 0.65053862 0.0465938 1515788
0.65399504 0.65560019 0.041322358 2106394
0.6559422 0.65689683 0.040554769 2567200
0.65677857 0.65924269 0.0408158 2566421
0.69354385 0.71902764 0.0074712932 1711906
0.6478132 0.64874673 0.044452816 2173978
0.65044522 0.65403831 0.040983438 2041367
0.65250516 0.65420109 0.040993258 2172439
0.65322334 0.65661883 0.039273985 2698531
0.68801403 0.7130357 0.0092371628 3158310
0.69026208 0.71765411 0.0078991503 1974304
0.64449573 0.64653444 0.042826302 2501662
0.64622366 0.64730579 0.043340564 2370591
0.64868182 0.65327275 0.039489575 2304287
0.64985132 0.65462697 0.038188078 2829862
0.6515193 0.65708774 0.039004222 2961444
0.68498415 0.71012026 0.0078318939 2828847
0.68476099 0.71286374 0.0081029572 3223601
0.64107919 0.64335752 0.043037832 2174248
0.64234394 0.64603925 0.043171659 2239775
0.64483428 0.65106326 0.038457721 2435615
0.64665413 0.65333426 0.037315831 2830122
0.6808728 0.70901072 0.0078084953 2040355
0.6370399 0.64243662 0.04138422 2240038
0.63939685 0.64214677 0.041610211 2305831
0.64092433 0.64863813 0.038147159 2238754
0.64300835 0.65148246 0.036455646 2830374
0.64497292 0.65260756 0.036461204 2764581
0.67725873 0.70813757 0.0054553971 2105893
0.63398707 0.63983583 0.04112383 2437151
