# .PCD v0.7 - Point Cloud Data file format
VERSION 0.7
FIELDS x y z rgba
SIZE 4 4 4 4
TYPE F F F U
COUNT 1 1 1 1
WIDTH 1135
HEIGHT 1
VIEWPOINT 0 0 0 1 0 0 0
POINTS 1135
DATA ascii
0.6641767 0.55282629 0.032208383 2301489
0.66779292 0.55813187 0.030683875 2434118
0.66998947 0.55871779 0.030646145 2368068
0.65330464 0.5435878 0.031269252 1447721
0.65594649 0.54446036 0.031920373 1447970
0.65671265 0.54773295 0.029817462 2104874
0.65926099 0.54977286 0.031088829 2170157
0.66536617 0.55856639 0.030257285 2499912
0.65022773 0.5438785 0.029987156 1447727
0.65227258 0.54727221 0.028937936 2170408
0.65436238 0.54771972 0.029273629 2170409
0.66065615 0.55692893 0.027980506 2236473
0.66322881 0.55771255 0.0291816 2302528
0.64756072 0.54094052 0.02786696 1709382
0.6482603 0.5444088 0.028897226 1644091
0.64768064 0.54606718 0.02832824 2104614
0.64969742 0.54728436 0.028151512 2170407
0.65801966 0.55713516 0.027435958 2170678
0.64535594 0.54474145 0.027439177 2038082
0.64790034 0.54557222 0.026011586 2169636
0.65483093 0.55655652 0.025576532 2170931
0.64154994 0.54460406 0.025696099 2103371
0.64355886 0.54455698 0.025436878 2170145
0.6498934 0.55555332 0.024724126 2236721
0.63546753 0.54051673 0.023819029 2565221
0.63710642 0.54303944 0.022973537 2103586
0.63864642 0.54452676 0.02388531 2169890
0.64450806 0.55194205 0.022848189 1514298
0.64758092 0.55387598 0.022797585 2170925
0.63128698 0.54066545 0.022061229 1184801
0.63408208 0.54331255 0.023413956 2103345
0.63951302 0.54947996 0.021657348 1120312
0.64140433 0.55049038 0.022358954 1185855
0.64155948 0.55351889 0.022240162 2236461
0.62920564 0.5409106 0.021047354 1184539
0.63184702 0.54462761 0.020261943 1645119
0.6356197 0.54836553 0.020986557 1185335
0.63800949 0.54938418 0.020361066 1185845
0.63892007 0.55303091 0.019482553 2235945
0.64118487 0.55356926 0.019500256 2170666
0.62386203 0.53794378 0.018230498 4689480
0.62636805 0.5426743 0.019201338 659215
0.63107395 0.54771668 0.018453717 1119536
0.63362008 0.5476647 0.018520653 1119280
0.6349988 0.55198383 0.017882586 2104357
0.63666761 0.55273676 0.019478559 2170410
0.62361586 0.54187602 0.017697811 731396
0.62694156 0.54218578 0.017175913 67330
0.62769949 0.54659128 0.016414344 922407
0.6289022 0.54761928 0.018518865 1119535
0.63171756 0.55137783 0.016834617 1973026
0.63510144 0.55568415 0.016301572 2045290
0.63630772 0.5569554 0.016868114 2242669
0.62015808 0.54136169 0.017606437 2380550
0.62399924 0.54664207 0.016324461 922408
0.62676042 0.55133748 0.016230524 1973026
0.62903118 0.55140209 0.015204072 1906976
0.63130111 0.55526745 0.015273213 1979238
0.62337971 0.5466001 0.013266027 790302
0.62610507 0.55170488 0.013206422 1840924
0.62706316 0.55365491 0.013578415 1913185
0.62935627 0.55521882 0.014020085 2044515
0.61294949 0.54038143 0.013920605 268034
0.6181283 0.54717916 0.012834132 790303
0.62036067 0.54735583 0.01276207 790559
0.62123132 0.55136347 0.012782574 1709595
0.62353486 0.55297595 0.012051105 1780046
0.61575174 0.54722446 0.012732804 790558
0.61966145 0.55240774 0.0099615455 1647682
0.62039578 0.55323142 0.010905564 1781085
0.61296606 0.54841226 0.0090680122 855317
0.61605239 0.55047828 0.0092041492 1252664
0.61780143 0.55241781 0.009164989 1646389
0.609936 0.5477432 0.0095192194 723987
0.61209714 0.55082548 0.0058971643 1845842
0.61364102 0.55214989 0.0078812242 1580596
0.61635351 0.55296183 0.0069969893 1715286
0.60945362 0.55112714 0.0060287714 1516610
0.6114397 0.55288243 0.0048643351 1838867
0.60310102 0.54934633 0.0054246783 1182740
0.60622883 0.55028838 0.0049071312 1449014
0.6079663 0.55441028 0.0034185052 1772843
0.60239464 0.5502646 0.0032061338 1776686
0.60409862 0.55031908 0.0021474361 1579305
0.59776473 0.54982984 0.0024023056 1710892
0.60015237 0.55018461 0.0017511249 1514805
0.59606755 0.55006337 3.4511089e-05 2040627
0.59175467 0.54947776 -0.0016494989 2960161
0.59386861 0.55110967 -0.0020106435 1974317
0.5854097 0.54561841 -0.0032179952 5984328
0.58883667 0.54894972 -0.0029572845 4274704
0.59119236 0.55201674 -0.0050295591 988202
0.58263683 0.54395747 -0.0046542287 5391716
0.58381259 0.54595083 -0.003311038 5721171
0.58638799 0.54752868 -0.0045866966 5919023
0.58966821 0.55157971 -0.0046102405 988471
0.58462679 0.55102068 -0.0046538115 4143398
0.58573902 0.55407929 -0.0083573461 1118780
0.57680428 0.55610764 -0.01373899 2964048
0.70960629 0.57529742 0.047838449 8163492
0.70210385 0.5681054 0.046399534 6911115
0.70321029 0.57075119 0.047125459 7239820
0.70624638 0.57222331 0.04712981 7700371
0.70815158 0.57426608 0.047843099 8096413
0.69260824 0.5601356 0.044583797 5332086
0.69614398 0.56534326 0.045597792 6253185
0.69855213 0.56661642 0.045888782 6516355
0.70021832 0.57029724 0.046993315 6976394
0.68849885 0.55812413 0.044041038 5068908
0.69046003 0.56022894 0.044873774 5200751
0.6922859 0.56286323 0.045515776 5398646
0.69461346 0.56448609 0.045484722 5858682
0.6825074 0.55611771 0.042934597 4739686
0.68511826 0.55736905 0.044038594 4805992
0.68643743 0.56020063 0.044662297 4872043
0.6880666 0.56159627 0.044574797 5069166
0.6789307 0.55536991 0.04200834 4739424
0.68075693 0.55565667 0.042530358 4739428
0.67577815 0.55362427 0.040606081 4410454
0.67726374 0.55460787 0.041784286 4673373
0.68173331 0.56084657 0.041090965 4803170
0.66766226 0.54895866 0.038843215 2962757
0.66917765 0.55006921 0.038831651 3094856
0.67118633 0.55220175 0.039674819 3884368
0.67383695 0.55384767 0.039851904 4213334
0.67709351 0.55943429 0.037659109 4474963
0.67805737 0.5618583 0.03918153 4606299
0.66569191 0.54889369 0.038147926 2633023
0.66824293 0.55177081 0.039998233 4147024
0.67246497 0.5580675 0.037045896 4080463
0.67482293 0.56076062 0.038705707 4672090
0.66046327 0.54713035 0.03712225 2105394
0.66198623 0.54811424 0.037173033 2237240
0.66383535 0.54911375 0.037376583 2631997
0.66721654 0.55703115 0.036217093 3620171
0.66945791 0.5571301 0.036788344 3817551
0.65470856 0.54586494 0.035728872 1710636
0.6577369 0.54711205 0.035009325 1842219
0.66136378 0.55299157 0.034008503 2630199
0.66326672 0.55392361 0.033907831 2630456
0.66551483 0.55583358 0.035031676 3158339
0.66796011 0.55872166 0.033146441 3290965
0.66700774 0.56117463 0.034077406 4014933
0.65385556 0.5452795 0.034053504 1579306
0.65730548 0.55116177 0.033828974 2367029
0.65917528 0.55200547 0.033873439 2432821
0.66437232 0.56121916 0.032401979 3554645
0.65021342 0.54573363 0.031594396 1513267
0.65441245 0.54977685 0.032326639 2301487
0.66012102 0.55956566 0.030357778 2632522
0.66184002 0.56108034 0.030982733 3028305
0.64711368 0.54654115 0.03024298 1906748
0.65022779 0.54846126 0.030399978 2235948
0.65764093 0.55919832 0.028949201 2433601
0.64374864 0.54596388 0.029076338 2103876
0.65283144 0.55827689 0.027498484 2367549
0.65522438 0.55900848 0.028695822 2499138
0.63636959 0.54197973 0.028288484 2565468
0.63846135 0.54269993 0.027413487 2629751
0.64042127 0.54503882 0.027727306 2037847
0.64980793 0.55686069 0.026670456 2302007
0.63445008 0.54125196 0.027683556 2170439
0.63653111 0.5431186 0.026092052 2564429
0.63835847 0.54506928 0.026146412 2235687
0.64186794 0.55078298 0.024742603 1186627
0.64345282 0.55355936 0.025622785 1777469
0.64615589 0.55546731 0.025644064 2236722
0.63057482 0.54147327 0.023629785 1185054
0.6331408 0.54276204 0.02513659 1973048
0.63665509 0.54903924 0.023353815 1186366
0.63775826 0.55018735 0.025233328 1252167
0.64174473 0.55445045 0.024432838 2236721
0.62676781 0.54065305 0.022744656 1250588
0.62873673 0.54237437 0.024080098 1447710
0.63075638 0.54503936 0.024119556 2167879
0.63194495 0.54886699 0.023414433 1186110
0.63420492 0.54903442 0.023480773 1251904
0.63821542 0.55403495 0.022411287 2236463
0.62443328 0.541206 0.021584868 724754
0.62810451 0.54736245 0.021623433 1316918
0.63103968 0.54797614 0.021151125 1250869
0.63303292 0.55303866 0.021415353 2301997
0.62171984 0.54263037 0.019836068 67077
0.62699115 0.54708731 0.018792331 1119790
0.63048434 0.55212295 0.018900156 2104616
0.63372988 0.55663669 0.018565118 2835316
0.63506639 0.55933022 0.018718541 3230846
0.61846721 0.54159254 0.019403994 1053722
0.62255943 0.54682237 0.018791199 1119536
0.62481946 0.54698986 0.018857539 1119536
0.62683159 0.55198413 0.018499255 2104616
0.62930763 0.55673736 0.017273784 2440047
0.63030547 0.55815643 0.018433571 3164537
0.61499488 0.54119098 0.017564654 4216606
0.61812705 0.54121745 0.016918004 9416521
0.61943662 0.54656976 0.015928745 922407
0.62177229 0.54656297 0.016112924 922408
0.62426573 0.55173236 0.016934812 2038820
0.62565541 0.55463606 0.0158512 2044776
0.62809724 0.55558753 0.015885234 2045033
0.61158991 0.53847367 0.014859796 3493160
0.61243409 0.54144681 0.015828311 264705
0.61650074 0.54396933 0.015329659 2432090
0.61590976 0.54655039 0.015835822 922406
0.62029397 0.55153835 0.015257061 1907233
0.62300617 0.55416352 0.01489079 1913444
0.6096921 0.54206079 0.014681637 332032
0.61359525 0.54687351 0.012922764 790558
0.61639535 0.55038857 0.012670338 1709337
0.6179235 0.55264372 0.012497425 1780047
0.62001044 0.55451417 0.013560474 1782115
0.60710394 0.54210198 0.014116526 1713924
0.60916352 0.54660857 0.012921572 724766
0.61153996 0.54656339 0.01302278 790301
0.61404568 0.55205178 0.012165427 1714253
0.61062932 0.55138737 0.011068225 1313583
0.61241221 0.55240935 0.0094800591 1716058
0.60408193 0.54749185 0.0094773769 789527
0.60684133 0.54976606 0.0083919764 1252405
0.60839182 0.55246103 0.0083884597 1647946
0.60418785 0.5509966 0.007124126 1715028
0.60650766 0.55342942 0.0068956017 1839184
0.59895754 0.54863769 0.0057702065 1248786
0.60134065 0.54990691 0.0055481195 1646396
0.59636867 0.54895228 0.0054401755 1183251
0.59911025 0.55020171 0.0047598481 1714000
0.59040755 0.54668754 0.0038047433 1314306
0.5945549 0.55055797 0.0020789504 1646134
0.5913527 0.55048048 0.0010263324 1710114
0.58856201 0.55055606 -0.0014229417 3485215
0.58116013 0.545591 -0.0032396913 4537189
0.58447731 0.55069739 -0.0016829967 3484733
0.58679855 0.55317932 -0.0013304949 1512967
0.57910037 0.54905808 -0.0033211708 2695546
0.58135831 0.5494498 -0.0036007762 3945315
0.58257914 0.5505839 -0.0044913292 4340290
0.57162154 0.53929961 -0.0042849779 7245627
0.5703885 0.54206932 -0.0036382675 4870458
0.56459737 0.54198372 -0.0063189864 11322181
0.57753009 0.55911946 -0.0089869499 11912535
0.57535905 0.55874872 -0.0091568232 14806412
0.71015161 0.57715273 0.049298048 8558244
0.70326644 0.57361776 0.048882365 7503250
0.70635039 0.57620627 0.049439073 7964825
0.70816088 0.57783955 0.049812913 8229027
0.69664896 0.56832981 0.046634912 6450817
0.69798243 0.56979883 0.0476951 6713992
0.70002711 0.5721491 0.048455179 7042700
0.69120097 0.56521106 0.04624933 5530484
0.69242579 0.56736624 0.047220111 5859193
0.69473076 0.56808591 0.047254086 6253950
0.69577235 0.57060838 0.047683597 6581890
0.68316394 0.5587557 0.044207335 4739688
0.68473375 0.56153709 0.045741141 4674921
0.6878376 0.56353521 0.045977592 5069933
0.68065578 0.55773944 0.043808877 4673639
0.68130481 0.5605042 0.045019269 4608359
0.67444199 0.55594361 0.042435527 4476769
0.67567587 0.55753267 0.043270648 4542053
0.67772746 0.55912322 0.043581545 4542309
0.6716305 0.55562443 0.041565895 4476253
0.67872417 0.56294018 0.04154098 4606048
0.68015629 0.5643518 0.041349292 4606306
0.66474211 0.55084878 0.039189756 3752523
0.66646808 0.55234456 0.040630996 4081747
0.66896033 0.554488 0.041264057 4410458
0.67264426 0.56051642 0.038473487 4606554
0.67376912 0.56317252 0.039726436 4671838
0.67602301 0.56351578 0.040311396 4671584
0.66074347 0.55019152 0.03922075 3488841
0.66244465 0.55092978 0.03947252 3686475
0.66366339 0.55277228 0.040182889 4081749
0.66816127 0.5592255 0.037836373 4344149
0.66986442 0.56072044 0.038824499 4409689
0.67147177 0.56227231 0.03961879 4606302
0.65646541 0.54857159 0.03732872 2435131
0.6593011 0.54935485 0.037935317 2895937
0.6605677 0.55437386 0.035631895 2960966
0.66217858 0.5565455 0.036322117 3685453
0.66422927 0.55792505 0.037594557 4278357
0.66622812 0.55880028 0.037687778 4343893
0.6526863 0.54760545 0.036464393 2040121
0.65654254 0.55263245 0.035307169 2434368
0.65863723 0.553451 0.035594165 2763330
0.65978408 0.55600041 0.037268996 4080722
0.64921486 0.54686642 0.034379721 1710650
0.65212512 0.55179155 0.034614563 2236473
0.65435141 0.55214405 0.03506124 2302781
0.66106004 0.56302869 0.031990349 4147027
0.66358858 0.56382686 0.03442955 4344415
0.64629883 0.54763561 0.032754183 2169430
0.64932847 0.5502255 0.033333838 2236211
0.65759122 0.56230712 0.030863702 3423056
0.66037303 0.565418 0.033080876 4343902
0.64318776 0.54686534 0.032046735 2826872
0.65398645 0.56213993 0.030559659 3290964
0.65593046 0.56349277 0.031309724 3818074
0.63570029 0.54252493 0.030120075 2040394
0.63716263 0.54452264 0.029672205 2828149
0.63958192 0.54574239 0.030174136 2301065
0.639498 0.54784447 0.030366659 2367531
0.64314836 0.55110145 0.030288935 1382992
0.6478858 0.55864233 0.028039098 2499134
0.64997149 0.5595879 0.028986752 2631239
0.65182996 0.56105638 0.029580951 2895184
0.63363397 0.54251677 0.029230833 1514039
0.63559121 0.54556715 0.027815044 2235946
0.63758624 0.54655528 0.029180884 2367275
0.63958943 0.55009955 0.028041661 1384011
0.64090705 0.55199641 0.026604474 1383753
0.64437789 0.55702716 0.027186036 2433592
0.63099366 0.5442645 0.027488947 1710631
0.63288426 0.54604524 0.026869118 2038069
0.63450605 0.5503248 0.026468813 1317960
0.63738263 0.55013794 0.02790612 1384010
0.64092594 0.55621302 0.02586925 2433589
0.64276165 0.55811107 0.027580261 2564667
0.62610888 0.54166687 0.024243951 1644320
0.626917 0.54395634 0.025752306 1645345
0.62925535 0.54566252 0.026049793 1906496
0.63248456 0.5495317 0.025663137 1252166
0.63627046 0.55512851 0.024629951 2302515
0.63844603 0.55644166 0.025511801 2368309
0.62398636 0.54281974 0.024599135 1579299
0.62742376 0.5478493 0.024139702 1841241
0.62994057 0.5491733 0.024520695 1252161
0.63283992 0.55418301 0.023444653 2236977
0.6208818 0.5412941 0.022515535 789778
0.62197661 0.54343045 0.023089468 2169939
0.62375849 0.54623646 0.02411294 2431098
0.62533098 0.54798663 0.022506773 1251644
0.62720358 0.55243134 0.021128237 2236460
0.62937522 0.55326152 0.022231579 2236719
0.63322282 0.55822915 0.020313442 3493507
0.61435187 0.53954142 0.021027505 4140
0.61555183 0.54075688 0.020893157 1052443
0.6180678 0.54226333 0.021671772 2038836
0.61883354 0.54689366 0.021634102 1251639
0.62188125 0.54749471 0.021283269 1251639
0.62470365 0.55254239 0.020694673 2236460
0.62958956 0.55902773 0.019970894 3559300
0.63256967 0.56043351 0.02102375 3822220
0.61174917 0.54065555 0.019597232 2638614
0.61273408 0.54082477 0.020062327 1315340
0.6178472 0.5468744 0.018505812 1119791
0.6200816 0.54682684 0.018779695 1185073
0.62216759 0.55187106 0.018193245 2104616
0.62173283 0.55313313 0.020170152 2236461
0.62502456 0.55687416 0.0181247 2835315
0.62729317 0.55796599 0.018732548 3230328
0.60952318 0.54164445 0.01786679 3687189
0.6136831 0.54632175 0.019010246 1120047
0.61581957 0.54655516 0.01874429 1119791
0.61684817 0.55113131 0.017976284 2169899
0.61918426 0.55221748 0.017654955 2104618
0.62207246 0.55520654 0.016483009 2110826
0.62195289 0.55678624 0.017623365 2506353
0.60690278 0.54241681 0.016706526 5001232
0.6097182 0.54554182 0.016461194 922407
0.61292899 0.54615068 0.016186655 922406
0.61391562 0.55071616 0.014920592 1775397
0.61650175 0.55089927 0.015139699 1906979
0.61679405 0.55466884 0.015067041 2045030
0.61937207 0.55610484 0.016069472 2111084
0.60477054 0.54219478 0.014949143 7238948
0.60753298 0.5457598 0.013479233 790303
0.61085927 0.55183208 0.013869941 1643059
0.61267936 0.55328017 0.014133096 1979235
0.60101414 0.54149443 0.012978017 15399721
0.60223508 0.54252893 0.014344811 5134361
0.60451579 0.54519832 0.013826728 724508
0.60928452 0.55187172 0.012777567 1909097
0.59886456 0.54178727 0.01190865 13688894
0.60523438 0.55191493 0.010227978 2101889
0.60794067 0.5522567 0.011156261 1843041
0.59629726 0.54276544 0.010679245 8030237
0.59988016 0.54688966 0.0098053813 789780
0.60246146 0.55221629 0.0095725656 1512056
0.59337139 0.54445916 0.0087016821 3751470
0.59675944 0.54651159 0.0098966956 724245
0.59991795 0.55177045 0.0096164942 2368887
0.59018916 0.54422599 0.0077309012 1838597
0.59417701 0.54873741 0.0054293275 1117718
0.58853012 0.54597062 0.0036978126 2891534
0.58892262 0.54872108 0.0053919554 1248553
0.59123367 0.54931879 0.0050432086 1183257
0.59407258 0.55179018 0.0047498345 1909566
0.58551073 0.54759568 0.0044800639 3021836
0.58583724 0.54723901 0.0017900467 4206618
0.58687377 0.55032229 0.0013546944 1971493
0.58757031 0.55259943 0.0017284751 1773574
0.58431816 0.55072516 0.00087952614 1971248
0.58422852 0.55366129 0.00044214725 787977
0.57634068 0.54647291 0.00074219704 8941332
0.58060253 0.5506447 -0.00086587667 2629481
0.58162719 0.55373156 9.8407269e-05 393999
0.58309269 0.55485922 -0.0030813813 1973763
0.57629037 0.55006701 -0.0026938915 2039679
0.56791061 0.54207367 -0.0036498308 4738337
0.56893259 0.54463995 -0.0028882623 5066068
0.57072806 0.54620403 -0.0039371252 3159135
0.57244676 0.5496316 -0.0038352609 1710962
0.57872462 0.55822504 -0.0058162808 3619851
0.564022 0.54378945 -0.0051449537 5002788
0.5659039 0.54574668 -0.003800571 4802616
0.57505512 0.55749542 -0.0058919191 7238443
0.56085914 0.54212165 -0.0064678788 10400618
0.56083882 0.54464948 -0.0058983564 5989660
0.57306856 0.5579952 -0.008967042 16186541
0.5575664 0.54156488 -0.0063179731 10458981
0.56667471 0.55430895 -0.0075038075 16645782
0.56852835 0.55644983 -0.00867033 16514992
0.57053053 0.55764699 -0.0092067122 16646072
0.56050158 0.55094719 -0.0090976357 16250746
0.70324391 0.57557499 0.050136924 7700632
0.70431715 0.57734174 0.050871313 7963800
0.70614702 0.57977593 0.051426828 8228003
0.69996291 0.57425678 0.049619555 7305872
0.70098442 0.57611525 0.050225854 7371923
0.70222586 0.57757759 0.051123202 7700889
0.69319624 0.57176304 0.048418522 6319743
0.69552195 0.57267857 0.048955023 6648199
0.69769597 0.57492375 0.049646199 7042701
0.6988008 0.57648128 0.050432622 7306129
0.68468654 0.5631671 0.047376156 4543329
0.6861186 0.56457871 0.047184467 4609120
0.68797886 0.56705236 0.047736704 4937059
0.68984401 0.56989717 0.048240244 6055032
0.69148839 0.57103938 0.048277318 6187900
0.68190724 0.56353676 0.046967328 4279388
0.68431628 0.56592309 0.048211157 3750988
0.67578065 0.56143463 0.044773519 4542055
0.67830515 0.56263196 0.045216799 4476772
0.67062765 0.55737364 0.042676926 4476259
0.67211872 0.5591172 0.043928504 4542053
0.67392129 0.56105965 0.044396698 4542056
0.66464591 0.55433303 0.0421139 4279135
0.66660011 0.5559268 0.042817712 4279649
0.66793591 0.55862892 0.043549836 4410979
0.67395508 0.56560695 0.041043222 4540258
0.67438084 0.56776273 0.042727411 4474979
0.66109192 0.55320507 0.041374683 4212825
0.66288036 0.55412549 0.041585028 4278877
0.66726673 0.56116211 0.039155006 4475227
0.66758525 0.56301838 0.040804446 4409437
0.67065299 0.56403488 0.041055202 4540513
0.65728253 0.55201322 0.039092422 3883599
0.65905064 0.55368531 0.040512919 4147287
0.66311461 0.55916482 0.039127588 4474966
0.66501641 0.56094164 0.040022552 4540507
0.6534521 0.55091929 0.038242042 3423306
0.65532988 0.55315936 0.039413393 4147026
0.65699053 0.5567556 0.037298203 4080466
0.65862405 0.55800068 0.038428068 4408916
0.66100973 0.55897069 0.038667202 4474710
0.64957511 0.5496338 0.0367136 2764356
0.6507197 0.55302036 0.037336707 3751499
0.65317357 0.5548954 0.035984635 3619659
0.65497667 0.55613363 0.037080288 4014671
0.64578468 0.5495699 0.034984291 2696786
0.64710891 0.55231708 0.035649538 3092800
0.64938837 0.55287546 0.036027014 3224646
0.64002669 0.54635173 0.032401979 3747501
0.64169699 0.54870224 0.033983409 4406154
0.64385438 0.55039406 0.034701347 2762295
0.65732431 0.56640732 0.032092571 4343902
0.6362642 0.5454793 0.032768905 1710927
0.63833237 0.54675776 0.033272564 3486083
0.63946718 0.54990363 0.031268299 2039873
0.64207083 0.55198115 0.0323686 1451104
0.6487084 0.56291401 0.030687928 3686234
0.65057915 0.56462663 0.031295776 3949662
0.63234979 0.54485631 0.03029263 1710644
0.63459146 0.54604828 0.030358493 2104885
0.63663477 0.54839897 0.031841397 2630191
0.63769174 0.55073023 0.030196011 1449551
0.63930762 0.55302441 0.031615973 1517409
0.64451396 0.56031001 0.029111266 2697803
0.64673007 0.56158495 0.029910207 3158868
0.63031119 0.54483891 0.02954185 1645349
0.63183153 0.54784799 0.029619336 2037818
0.63386738 0.54879779 0.030902326 2367278
0.63511544 0.55128908 0.029879689 1449553
0.64110565 0.55704701 0.028345585 1122658
0.64075053 0.55942559 0.028357565 2565701
0.64371318 0.56241429 0.030277729 3488602
0.62543869 0.54419929 0.027869642 1711141
0.62827253 0.5448215 0.02879101 1710629
0.62963641 0.54928643 0.027515233 2170717
0.63221896 0.55135834 0.028366446 1449548
0.63558233 0.55726963 0.02722162 2564923
0.6378271 0.55769044 0.027163327 2630460
0.6223641 0.54412895 0.026815951 1711140
0.62366021 0.54634345 0.026668608 3682960
0.62687171 0.54727483 0.027210176 3682701
0.62784916 0.54989326 0.02671963 1384006
0.63133764 0.55505502 0.025319517 2368564
0.63334608 0.55642378 0.026093781 2433847
0.6188314 0.54290318 0.024644911 2039348
0.6206584 0.54433215 0.025724471 2630737
0.62371099 0.54916269 0.024906993 1318212
0.62767714 0.55397069 0.02462846 2302771
0.6144855 0.54155827 0.023627579 1052437
0.61669642 0.54276037 0.024025381 1710116
0.61975396 0.54807758 0.023769259 1317695
0.62324786 0.55308837 0.022863746 2302769
0.62930155 0.56148309 0.021708965 3690892
0.63116503 0.56250262 0.02227211 3429004
0.61052805 0.5414421 0.022735 986642
0.61228883 0.54235089 0.023540258 1709853
0.6163888 0.5469864 0.021477461 1251637
0.61964273 0.55305785 0.022677302 2302770
0.62537235 0.55979675 0.020682216 3624838
0.62686694 0.56119984 0.020947218 3821962
0.6095944 0.54119825 0.02064091 789264
0.61224812 0.54684025 0.020559072 1186100
0.61657065 0.5521425 0.01990515 2236207
0.61901271 0.5525474 0.019950986 2236462
0.62161946 0.55931872 0.01912266 3493758
0.62401718 0.55957687 0.019998431 3559045
0.60466081 0.54184574 0.018705189 657676
0.60696 0.54197514 0.019411445 657929
0.60834748 0.54569912 0.019273877 1119791
0.61272669 0.55154568 0.018355846 1906744
0.61394173 0.55222189 0.019423008 1973294
0.61582083 0.55507517 0.016492188 2373995
0.61849201 0.55708027 0.017357469 2571887
0.61947489 0.55875283 0.018392563 3230583
0.60269177 0.54281521 0.017813385 657671
0.60536969 0.54511255 0.016757727 922150
0.61104918 0.55204183 0.016519427 1578048
0.59891313 0.54231703 0.015546978 2171670
0.60013646 0.54284167 0.015663147 5065230
0.60154223 0.54529268 0.016304433 922405
0.60557353 0.55237263 0.01560998 4207771
0.60821539 0.55226398 0.01587075 2825853
0.59646034 0.54286569 0.015115023 855048
0.59910828 0.5451088 0.014140129 1053728
0.60560906 0.55186439 0.012967944 2431888
0.59299004 0.5435667 0.013992965 526083
0.59593844 0.5446977 0.013046801 4080413
0.60284364 0.55203903 0.012374759 2695565
0.59095907 0.54416811 0.010969698 6972695
0.59329766 0.54512918 0.010928571 4342558
0.59534848 0.55165052 0.011530995 1447453
0.59817743 0.55248159 0.010685027 3091812
0.58668375 0.54357827 0.0093260407 2297869
0.58819717 0.54466456 0.0097469091 7825933
0.5901562 0.54669559 0.0097080469 657952
0.59437186 0.55237317 0.0083055496 1513245
0.59179324 0.55206335 0.0081487298 1117703
0.58429199 0.54633617 0.0083243251 11707419
0.58698881 0.54856944 0.0054783821 1051177
0.58889335 0.55210876 0.0077906251 1445386
0.58152521 0.54745567 0.0040370226 14604096
0.58317626 0.55011088 0.004101038 1248866
0.58729768 0.5539813 0.0036088228 1773322
0.58091068 0.54984576 0.0043184161 1907347
0.58209008 0.55375099 0.0029698014 1050627
0.58436263 0.55416274 0.0030499697 1510404
0.57037377 0.54252058 0.001452446 8084242
0.57341999 0.54496026 0.0016574264 6702344
0.57559979 0.54783672 0.0026425123 4925440
0.57771307 0.5487237 0.0024245381 10123829
0.57952946 0.55122483 0.00071138144 1709167
0.57927638 0.5540908 0.0023972392 787969
0.57529777 0.55099279 0.00067251921 1711771
0.57831299 0.5547843 -0.0010495186 1183762
0.56960106 0.54829258 -0.0029232502 3422039
0.57083082 0.55131143 -0.0023899078 1975160
0.5738368 0.55058479 -0.0016645789 1514891
0.57499874 0.55583709 -0.002197504 2761743
0.56722134 0.54886031 -0.0021221638 4342364
0.56894726 0.55077028 -0.0019780397 2501226
0.57193208 0.55648446 -0.0029158592 4668957
0.55946338 0.54326856 -0.0048487782 7041573
0.56190175 0.54624563 -0.0043061376 4210484
0.56331956 0.54853106 -0.0032809377 5394248
0.57082444 0.55739987 -0.0065360665 12632419
0.55359745 0.54122055 -0.0060553551 11977296
0.55631226 0.54210603 -0.0048517585 8949820
0.55861229 0.5457623 -0.0040076375 4670523
0.56261301 0.55215734 -0.0070537329 15790397
0.56513584 0.55275893 -0.0069386959 16579438
0.56737113 0.55633754 -0.0063517094 14274389
0.54059696 0.52731216 -0.0075669885 12235396
0.55141002 0.54135191 -0.0064052939 12826450
0.55407548 0.54321021 -0.0065603256 11307349
0.55538547 0.54596651 -0.0068912506 9859634
0.55725873 0.54713207 -0.0074762702 9334053
0.55925614 0.55064905 -0.0075203776 12825398
0.56360215 0.55572808 -0.0066523552 12297243
0.53755313 0.52664769 -0.0071849227 12695193
0.54214948 0.53357702 -0.007532537 11842685
0.54670119 0.53896862 -0.0070699453 12634931
0.54940039 0.54216945 -0.0074676871 12098145
0.53375077 0.52663314 -0.0074754953 12695467
0.53885913 0.53192669 -0.008322835 12037519
0.70557255 0.58108449 0.053675592 8096675
0.70214641 0.57939225 0.052415729 7832473
0.70332664 0.58312297 0.053439915 8095643
0.69519103 0.57669646 0.050612628 6845835
0.69852418 0.57885838 0.051368237 7437713
0.68872458 0.571859 0.049316347 5462644
0.69024003 0.57296968 0.049304783 5925758
0.69268757 0.57445329 0.049457312 6386048
0.69228327 0.57777953 0.050011873 6648451
0.68016768 0.56424773 0.047554076 4147030
0.68225622 0.56829727 0.048635125 1381164
0.68384743 0.56923366 0.048741341 1052701
0.68610561 0.57169938 0.048346698 2500665
0.68960828 0.57681876 0.049505889 6122362
0.67834145 0.56396085 0.047032058 4344669
0.67867196 0.56767619 0.047646523 2761799
0.68066514 0.567361 0.04852885 2169403
0.67140794 0.56206918 0.045470715 4608100
0.67316878 0.56299877 0.045542657 4673129
0.67497414 0.56510568 0.046478808 4344671
0.67684579 0.56738949 0.047124565 3158353
0.66392362 0.55576533 0.043509185 4279394
0.66454715 0.55831498 0.04492718 4344408
0.66699469 0.55979866 0.045079648 4542043
0.66948289 0.56124395 0.045149326 4608098
0.66194642 0.5568949 0.043906212 4213339
0.66890186 0.56604105 0.042886436 4606303
0.67165947 0.56772393 0.042978346 4606307
0.67319798 0.5701431 0.043699443 4606562
0.6582545 0.55608612 0.042228043 4147548
0.65890622 0.55733472 0.043457687 4212827
0.66234404 0.56076229 0.040543377 4475228
0.66335726 0.56400198 0.041712821 4540763
0.66561407 0.56494051 0.041903257 4409692
0.65511584 0.55484492 0.04094094 4212828
0.65788102 0.55958885 0.039982319 4343385
0.65956807 0.56144947 0.040672839 4409433
0.66122192 0.56322181 0.041508555 4475227
0.65002429 0.55517226 0.039015353 4212824
0.6522581 0.55564666 0.038745999 4146772
0.65358013 0.55853534 0.039324641 4343640
0.65580642 0.55888778 0.039771378 4343387
0.64613563 0.55284929 0.037555218 3685969
0.64827758 0.55434996 0.038116753 4015185
0.65051079 0.55682391 0.038570404 4212051
0.63988423 0.54977673 0.035692751 4539273
0.64200324 0.55212098 0.03631109 3815528
0.64339381 0.5535152 0.037011683 3750743
0.63479477 0.54742068 0.034888923 1710654
0.63723201 0.54898226 0.035121024 3289448
0.63945466 0.55019301 0.034505427 2761782
0.6399498 0.55218917 0.036418021 3092551
0.63120008 0.54628152 0.032928824 1776940
0.63335967 0.54659408 0.033783376 1776947
0.63471907 0.5496195 0.033352256 2564661
0.63885081 0.55439317 0.033170819 2571627
0.64055252 0.55578983 0.032274067 2636396
0.64552629 0.56469244 0.031801879 4344157
0.64759266 0.5660916 0.032711089 4278626
0.64944702 0.56776005 0.033391654 4278370
0.62921309 0.54617244 0.032306015 1777194
0.63120341 0.54911214 0.032827139 2235710
0.63280565 0.5527029 0.031590283 1714271
0.63544464 0.55347705 0.031079412 1517407
0.63633513 0.5550313 0.032847643 2505835
0.63914639 0.55874145 0.032028019 3031918
0.6394006 0.5614391 0.030422449 3554650
0.64125746 0.56260991 0.03121388 3883356
0.64334464 0.56385314 0.031964183 4343903
0.62457895 0.54584277 0.030245602 1776936
0.62668109 0.54747838 0.031284034 2565445
0.628479 0.54906225 0.030729711 3286643
0.63032377 0.55217463 0.030496538 1581909
0.63602346 0.55982381 0.029633641 3027023
0.62159073 0.54513109 0.028626382 1711398
0.62243539 0.54673773 0.029865384 3223640
0.62530828 0.548962 0.028476954 4209796
0.62717164 0.55236626 0.028861582 1515599
0.63078481 0.55721313 0.027849197 2499645
0.63280475 0.55839181 0.028716981 2631237
0.61767268 0.54462105 0.027422726 1842469
0.61905903 0.54530257 0.027877986 2105141
0.62297404 0.55053335 0.027408957 1449803
0.62491161 0.55219877 0.028795242 1515346
0.62652755 0.55548698 0.027101934 2499640
0.62879252 0.55602527 0.027119756 2368568
0.61387551 0.54356164 0.026050031 2104613
0.61588162 0.54456282 0.026932836 2170408
0.61945271 0.54958105 0.025338113 1384007
0.62045348 0.55080044 0.027134478 1450059
0.62296134 0.55447507 0.024674833 2368564
0.62382287 0.55574077 0.026502013 2499641
0.60955858 0.5434202 0.024842024 1841701
0.61148375 0.54356223 0.025298595 2104613
0.61521453 0.54850668 0.024630487 1317956
0.61885411 0.55431336 0.024363041 2368564
0.60746777 0.54323155 0.023107588 1775388
0.61081755 0.54777092 0.023507357 1252418
0.61610883 0.55387294 0.022677243 2302514
0.60386455 0.5430727 0.021817505 1446678
0.60553163 0.54349303 0.02210921 855311
0.60812134 0.54675519 0.021448433 1251896
0.61141169 0.55293894 0.02134788 1907011
0.61369181 0.55322397 0.021490276 2039604
0.60181659 0.5426299 0.020082891 854796
0.60477781 0.54612863 0.020339251 1185843
0.60876846 0.55256385 0.01986289 3023467
0.59835976 0.54315466 0.018868148 394501
0.59999841 0.54592985 0.018750012 1119791
0.6021626 0.54615402 0.018622458 1119791
0.60575378 0.55293334 0.017851233 5128855
0.5937531 0.54366028 0.01745981 131585
0.59606135 0.54366249 0.017505646 723211
0.59695101 0.54568923 0.01742667 987946
0.60090381 0.5519135 0.016365886 4340098
0.60303843 0.55266917 0.016279578 4997787
0.58929658 0.54094458 0.016650438 1183500
0.5922268 0.54303175 0.015645027 1183499
0.5928939 0.54551119 0.015177011 724772
0.59862506 0.55133033 0.014975131 2828865
0.59008402 0.54411942 0.013115823 854545
0.59573555 0.55184424 0.01428473 1578270
0.58654463 0.54317701 0.012217402 1511181
0.58767235 0.54544723 0.012685418 1643310
0.59245598 0.55156922 0.011235237 1446416
0.58401918 0.5466252 0.01071018 1576454
0.58544648 0.54698265 0.010702252 1907058
0.58704579 0.55125719 0.010775805 1511956
0.58983684 0.55129766 0.011161387 1446163
0.58143884 0.54689997 0.0085332394 4338186
0.58328068 0.54788953 0.0085569024 2433931
0.58610237 0.55206829 0.0074050426 1576970
0.58056486 0.54794824 0.0085242391 3290276
0.58342516 0.55231291 0.0069434643 1511179
0.57784081 0.54912794 0.0057979226 2958960
0.5805763 0.55278856 0.006170094 1379591
0.57162201 0.54511082 0.0030375123 6439174
0.57425821 0.54784787 0.004753232 3545096
0.57585907 0.54991132 0.0041015148 3093171
0.57714558 0.55405384 0.0049872398 1182468
0.56851852 0.54603124 0.0029587746 6110737
0.57066667 0.54696834 0.0043630004 5189402
0.57280487 0.55080307 0.0033968091 3619977
0.57610631 0.55492169 0.0014227033 656128
0.56615037 0.54548997 0.0012633801 7228942
0.56767428 0.5503487 0.00084894896 3487840
0.57038701 0.55116868 0.0012778044 3093615
0.57347935 0.55477691 0.001286447 786944
0.56442285 0.5512563 4.0113926e-05 4078919
0.57002109 0.55605149 -3.4809113e-05 983552
0.56397706 0.55075908 -0.0023607612 4473429
0.56912595 0.55669743 -0.0034261942 5851407
0.55427921 0.54494292 -0.0037039518 6051120
0.55706531 0.54461241 -0.0032697916 5656631
0.55894721 0.54952598 -0.0042578578 5788995
0.56106699 0.55142891 -0.0028921366 4999503
0.56575859 0.55754417 -0.0045049191 6046725
0.54910982 0.54015452 -0.005592823 12240431
0.55107117 0.54246414 -0.0049452186 9337903
0.55204684 0.54476631 -0.0036318898 6182443
0.55423397 0.54870898 -0.0051065087 7758647
0.55631196 0.54973179 -0.0055251718 7035690
0.55781305 0.55239952 -0.0044548512 5982503
0.55942327 0.55406243 -0.0060021877 6898953
0.56194013 0.55642134 -0.0050947666 6176012
0.53524947 0.5289163 -0.0042988658 13150569
0.54444802 0.53869933 -0.0060607195 9605953
0.54705328 0.54162079 -0.0054104924 8158502
0.55051184 0.54572403 -0.0047073364 9728814
0.55169231 0.54798949 -0.0060204864 9663023
0.55523187 0.55215275 -0.0053657293 7163664
0.53389901 0.52901781 -0.0063349605 11905939
0.53577602 0.53159821 -0.0080551505 11971470
0.53729111 0.53357816 -0.0067804456 11511174
0.53856432 0.53562617 -0.0068620443 10919036
0.54147601 0.53808147 -0.0062076449 9604196
0.53005505 0.52915382 -0.0067157149 10788756
0.53490698 0.53375012 -0.0069441199 11510922
0.70162177 0.58299464 0.052904129 7963802
0.70401841 0.58562505 0.054913402 8097187
0.69646609 0.58046186 0.052390993 7241106
0.6989553 0.58179492 0.052633584 7569556
0.69960833 0.58504277 0.053622425 7897240
0.70219004 0.58556259 0.054045379 8161179
0.69273973 0.57983822 0.051575005 6649227
0.6942656 0.58141732 0.051231265 6912400
0.69601107 0.58376765 0.052990377 7306132
0.68417263 0.5728513 0.049639523 1117969
0.68684 0.57614958 0.050085604 5331820
0.68865955 0.57866168 0.050720632 6056566
0.69117904 0.57948792 0.051212549 6517123
0.67942446 0.57025737 0.049113154 591646
0.68129891 0.57239723 0.049947441 2960183
0.68309391 0.57477486 0.050632656 6183270
0.68512744 0.5756014 0.049740314 3489358
0.67497861 0.56885475 0.048244417 2500417
0.67769665 0.56941622 0.048895955 985399
0.66538084 0.56081951 0.046227932 3093823
0.66757375 0.56346846 0.046641111 4344157
0.67026037 0.56533217 0.046735168 4740194
0.67163312 0.56752068 0.047702789 4739934
0.66264611 0.55966741 0.045901775 3093059
0.66415542 0.5634625 0.046936929 1513510
0.66587269 0.5638352 0.047486424 2304314
0.67131948 0.57125205 0.044978619 4737889
0.65894294 0.55907351 0.044902623 3554897
0.66476017 0.56683898 0.043138981 3947854
0.66630775 0.5681994 0.04411298 4276819
0.66785067 0.57028192 0.044630229 4868450
0.65327549 0.55572999 0.042161465 4147297
0.65492421 0.55836928 0.042995632 3949915
0.65685749 0.56149381 0.041252375 4278105
0.65828794 0.56432158 0.042816877 4014160
0.66047907 0.56480998 0.043062806 3882318
0.66238689 0.566113 0.042913556 3816013
0.64919567 0.55619282 0.04054898 4343905
0.65061909 0.55734622 0.041678488 4147296
0.65242338 0.5592674 0.041916132 4146781
0.65492702 0.56057113 0.041214585 4277850
0.65630919 0.56356388 0.042799771 3949138
0.64668876 0.55632299 0.03929919 4212569
0.64842999 0.55840969 0.041137874 4278365
0.65066618 0.55975258 0.040709078 4343385
0.64294553 0.55473632 0.038880229 4278105
0.64527643 0.55672663 0.038258851 4343893
0.64628947 0.55887341 0.039933622 4474714
0.63522768 0.55002105 0.037395954 3356236
0.63770461 0.55146027 0.03729409 3684440
0.63968498 0.55453742 0.037855208 4212055
0.64920259 0.56885964 0.035175264 4081250
0.63168436 0.54947346 0.035428703 2500411
0.63360262 0.5507232 0.035851896 2894912
0.6352793 0.55391622 0.036885917 3949136
0.64568138 0.56754667 0.034537673 4147297
0.62805223 0.54765105 0.03473115 2237234
0.63019991 0.54935873 0.034813881 2499387
0.63378698 0.55530739 0.032434762 2374250
0.63535869 0.55781502 0.033010662 3097199
0.6387412 0.56272626 0.032156885 4212573
0.64045829 0.56506133 0.033486962 4409698
0.64274871 0.56581473 0.033297181 4343904
0.62386608 0.54770219 0.033256948 2171182
0.62555927 0.54938704 0.033428788 2433338
0.62769777 0.55037725 0.033899128 2629699
0.62889504 0.55377984 0.032007933 2110051
0.63142383 0.55591935 0.033163249 2702956
0.63284004 0.55785781 0.033082008 3031406
0.63427198 0.56172872 0.032114446 4081243
0.63653684 0.56226707 0.032132208 4147037
0.63815266 0.56456119 0.03355211 4409698
0.6208173 0.54613322 0.030436754 1777192
0.62109065 0.54792184 0.031633079 2565440
0.62322474 0.54964203 0.031743467 3484772
0.627123 0.55486596 0.032505631 2373736
0.62832695 0.55781925 0.029860735 2829128
0.63142759 0.55935889 0.03060931 3159378
0.63217121 0.56108594 0.032346129 4015451
0.61661518 0.5459162 0.030103981 1842473
0.61844504 0.54682285 0.030521929 2105392
0.62158966 0.55203688 0.028868616 1581138
0.62352091 0.55371684 0.030365705 1647965
0.62615907 0.55692577 0.028788388 2565185
0.62557828 0.55863392 0.030246079 2961487
0.61295074 0.54452705 0.028285623 1908007
0.61410904 0.54566687 0.029243171 2170665
0.61833292 0.55118257 0.028088331 1450063
0.62136072 0.55649734 0.027296066 2499388
0.62333786 0.55739218 0.028153539 2564931
0.60884857 0.54400373 0.026756525 2498856
0.61033666 0.54488736 0.027530074 2170665
0.61195302 0.54873425 0.025729418 1384009
0.6128338 0.55009294 0.027342081 1384267
0.61609006 0.550488 0.027188838 1449804
0.61862975 0.55553037 0.026222825 2565430
0.60651106 0.54464465 0.025856137 2235942
0.60943997 0.5488745 0.025517166 1449801
0.61342716 0.5549385 0.024366498 2368313
0.61599588 0.55523896 0.025789142 2565175
0.6024133 0.54417372 0.024727106 2301477
0.60468537 0.54476762 0.024963856 1973286
0.60657793 0.54796374 0.024172664 1318211
0.6109494 0.55421031 0.023186386 2104892
0.59901112 0.54360014 0.021031916 1381149
0.60035634 0.54400319 0.022651136 1775905
0.60182303 0.54713571 0.022584915 1252157
0.607126 0.55419016 0.022646725 2235208
0.5968734 0.54416198 0.020989716 1775387
0.59900904 0.54633307 0.021213889 1251896
0.60458374 0.55339658 0.020138383 3747442
0.59305835 0.54330724 0.019634187 1643797
0.59468168 0.54444408 0.019422114 1316132
0.59943938 0.55244982 0.019077957 2696255
0.58824557 0.5431568 0.018307626 1577489
0.59050888 0.54435402 0.018261075 1117976
0.59216481 0.54587734 0.018790901 1119797
0.59615284 0.55153114 0.017287612 1644065
0.58599758 0.54327142 0.015764832 1314833
0.58841616 0.54501313 0.015723526 460577
0.59320873 0.55149215 0.015559912 1841185
0.58415562 0.54520482 0.014971972 788770
0.58652127 0.54589164 0.015653908 855379
0.59017503 0.55168146 0.014948964 1906976
0.58257365 0.54611218 0.012409329 1512498
0.58655339 0.55087405 0.013666391 1775132
0.57960576 0.54729807 0.011490226 2499948
0.5849098 0.55075049 0.01080668 1643025
0.57660168 0.5478003 0.011110902 1776967
0.57846916 0.54777545 0.011314929 1181193
0.58188373 0.55135947 0.010005355 1642765
0.54940188 0.51519048 0.010681629 10782537
0.57525146 0.54879636 0.0082188845 2299695
0.57665598 0.55096221 0.0079863667 1378056
0.57864541 0.55223799 0.0089752078 1642508
0.57022709 0.54785943 0.006388545 4533778
0.57273483 0.54846603 0.0071572661 2892073
0.56844258 0.54894972 0.0060942769 4207656
0.57434702 0.55414009 0.0045394301 1247238
0.56516075 0.54755765 0.0039825439 5650706
0.56844884 0.5503639 0.0035134554 3750997
0.57000136 0.55455464 0.003663063 1641739
0.56552082 0.5506919 0.0032519698 3947577
0.53411216 0.51605415 0.0019373894 12951636
0.56148767 0.55217016 0.00064998865 4604989
0.56679791 0.55667645 -0.00094020367 1574144
0.53508061 0.52223998 0.001721859 12688715
0.53987461 0.52625936 0.0016112328 12096580
0.55861765 0.55234253 -0.00089806318 5262913
0.56267828 0.55681705 -0.0015185475 3480067
0.53066289 0.51774806 -0.00029700994 13016655
0.53170842 0.52025652 0.0014675856 12886096
0.53287983 0.52210253 0.001067698 12820302
0.53600138 0.52728695 -0.00040233135 12228174
0.54969794 0.54480231 -0.0035947561 6182455
0.55262899 0.54812467 -0.003452599 6511679
0.55602294 0.5513677 -0.0030465722 6183249
0.55611217 0.55235612 -0.0010478497 5985864
0.5588547 0.55620116 -0.0031093359 4729609
0.52630967 0.51730818 -0.0016260743 12950860
0.52818441 0.5185228 -0.0016301274 13016395
0.52845347 0.5213393 -0.0002682209 12885070
0.54633272 0.54474157 -0.0041923523 7496525
0.54901731 0.54810876 -0.0035285354 6773831
0.55142152 0.55110955 -0.0030134916 6511700
0.55298287 0.55168337 -0.0044426918 7298103
0.55623555 0.55574346 -0.0046046376 5979662
0.5263617 0.52111614 -0.00094991922 12885069
0.53942639 0.53937578 -0.0055202842 9800821
0.54183632 0.54208899 -0.0046283603 8747611
0.54479873 0.5438112 -0.0044541955 7366985
0.54689634 0.54724962 -0.0059805512 9465643
0.54838288 0.55167341 -0.0059106946 8413728
0.55047703 0.55552256 -0.0056388974 7689764
0.55360168 0.55545211 -0.0050382614 6966559
0.5308696 0.53088224 -0.0050653219 10789011
0.53307706 0.53332758 -0.0054151416 11248012
0.5351035 0.53596973 -0.0058241487 10852992
0.53609639 0.53893071 -0.0051388741 10392707
0.5380643 0.5421139 -0.0049223304 9536619
0.54508901 0.55068231 -0.0056811571 8084762
0.70033205 0.58719885 0.055030406 7898778
0.70232511 0.58964086 0.055662334 8162724
0.69335097 0.58323663 0.052473783 6780560
0.6974507 0.5873127 0.054167271 7635605
0.69980741 0.59080112 0.055518806 7964829
0.68882906 0.58204532 0.052645862 6320256
0.69106835 0.58374733 0.052745998 6518409
0.69309562 0.58616549 0.053405821 6781586
0.69545758 0.58762789 0.053285003 7372946
0.6818608 0.57754451 0.051279306 9536411
0.68455005 0.57836401 0.05173707 6449504
0.68642783 0.58076984 0.052389622 6056821
0.67729199 0.57233274 0.049820721 2301747
0.67785239 0.57516408 0.051017106 8748154
0.68026954 0.57660818 0.051173091 10392215
0.6705128 0.56959474 0.048605919 5462630
0.67164242 0.57232392 0.049284637 4737890
0.67436844 0.57367754 0.049674034 3159615
0.66238981 0.56325495 0.046408057 1184292
0.66382402 0.5660193 0.048003793 2236462
0.66691935 0.56825632 0.048005044 4804962
0.67167211 0.57308435 0.046655834 5263200
0.65957612 0.5626092 0.046612978 1316393
0.66139162 0.56428212 0.047975957 1446424
0.66458488 0.57126862 0.046069503 3026729
0.66660458 0.57308084 0.045498252 4868953
0.66897774 0.57380676 0.045723557 5329506
0.65565366 0.56134731 0.044950843 2765902
0.65651983 0.56421369 0.046341419 658980
0.65943766 0.5674662 0.044097245 2039351
0.66091204 0.56918663 0.044929206 1512231
0.6630348 0.56972241 0.045119643 1842211
0.65185183 0.56076133 0.043899596 3884120
0.65349007 0.56367326 0.043899 3554382
0.65517664 0.56555492 0.044097185 3421516
0.65721118 0.56602085 0.044156134 2697284
0.64643478 0.55760783 0.041193366 4147807
0.64791441 0.56037778 0.042527497 4212827
0.64949095 0.56200624 0.041743398 4277853
0.65104997 0.56372321 0.042558253 4146521
0.64287031 0.55601126 0.040786386 4343902
0.64338452 0.55854273 0.04102546 4212827
0.64519346 0.56047964 0.041487217 4278620
0.63541794 0.55339777 0.039424956 4474971
0.63793093 0.55509561 0.039470315 4540510
0.64004457 0.55767143 0.039798081 4409183
0.64156508 0.55884248 0.04004252 4409176
0.63099992 0.55027217 0.037135661 3487812
0.63288325 0.55227852 0.039061129 4081234
0.63311082 0.55530792 0.038133204 4343630
0.63542533 0.55573034 0.038711429 4474963
0.64773411 0.57265115 0.038248956 4014689
0.62702119 0.54968292 0.035938799 2895420
0.62837493 0.55113268 0.036957443 3488069
0.63003021 0.55317801 0.036943972 3816780
0.63055563 0.55543745 0.037422895 4212046
0.64004904 0.56653839 0.035256326 4343906
0.6421603 0.5676496 0.034692585 4212834
0.64286119 0.56963956 0.036166251 4212834
0.62321961 0.54896027 0.034770012 2369077
0.62453908 0.55079007 0.03549552 2960958
0.62646002 0.55159593 0.036286175 3355718
0.62906051 0.55653137 0.033891857 2900590
0.63101929 0.55968034 0.034361005 3097457
0.63370478 0.56110966 0.034534693 3162996
0.63565528 0.56490725 0.034398198 4409698
0.63774353 0.56603837 0.035321474 4409442
0.62082684 0.54948294 0.033716261 2564920
0.62242639 0.55143476 0.034442306 3024956
0.62530565 0.55450141 0.032626987 2373225
0.62664342 0.55661488 0.033873558 2900334
0.62770343 0.55964047 0.034441292 3097459
0.62983054 0.56072187 0.032210529 4015193
0.6310153 0.56318402 0.033944249 3688041
0.63334715 0.56417221 0.033183813 4409697
0.61659354 0.54780263 0.032738507 2236976
0.61861336 0.54928362 0.033205032 2433845
0.62041688 0.55397892 0.031435311 1977954
0.62307334 0.55432487 0.032699108 2373226
0.62369061 0.55754733 0.033079147 2834543
0.62480509 0.56072897 0.031551003 3818074
0.62706995 0.56126738 0.031568766 3883865
0.62846577 0.56395769 0.032697618 4278366
0.6121974 0.54564667 0.03017205 1908266
0.6124987 0.54707807 0.031868994 2236717
0.61437529 0.54812652 0.031420112 2565168
0.61574054 0.55318701 0.030472517 1648476
0.61783648 0.55345869 0.030289471 1648221
0.62304252 0.55915433 0.029846907 3027537
0.62248176 0.56098014 0.031380534 3752280
0.60879427 0.5458312 0.030088663 2171180
0.6124227 0.55179429 0.0287655 1515858
0.61486661 0.55240965 0.029800415 1647959
0.61819559 0.55779815 0.028880537 2763078
0.62017834 0.5587905 0.02945441 2829642
0.60582864 0.54521912 0.027908981 2236201
0.60882026 0.55032229 0.028000891 1515599
0.6143316 0.55653739 0.027507901 2565695
0.60159093 0.54489613 0.026763499 2170920
0.60400772 0.54571313 0.026968062 1908008
0.60493547 0.54942864 0.026307523 1449802
0.61054832 0.55601978 0.025951684 2499388
0.59825259 0.54434025 0.025302589 2236198
0.60167426 0.54861319 0.025205493 1384265
0.60677886 0.55549771 0.024464607 2302523
0.59508383 0.54480022 0.024188638 2104868
0.59775579 0.54769325 0.02437222 1384003
0.60242307 0.55443782 0.022757888 2301757
0.58871919 0.54276264 0.023064256 1841699
0.59204489 0.54394192 0.022371233 2038558
0.59415483 0.54569948 0.02123642 1448490
0.5948897 0.54780221 0.022855461 1318210
0.59858048 0.55348033 0.021918833 2236722
0.58789438 0.54343474 0.020599842 1906460
0.58963966 0.54543769 0.020529568 1447982
0.59222859 0.54665059 0.020997226 1252157
0.59587908 0.55321139 0.020416439 2170925
0.58322448 0.54360932 0.019916713 2038040
0.5854677 0.54387361 0.019005418 1840405
0.58721 0.54675508 0.019331276 1054020
0.59071803 0.55192256 0.018903017 2236458
0.59326094 0.55264175 0.01909411 2170924
0.58316165 0.54395354 0.017495513 1643539
0.58350199 0.54633665 0.018127918 790585
0.58700258 0.55089819 0.016468704 1973027
0.58812922 0.55223715 0.018572927 2236460
0.5796324 0.5454753 0.015482306 1708562
0.58146209 0.54608387 0.01537472 986433
0.58341157 0.55072623 0.016233921 1906979
0.57713002 0.54635739 0.014690995 1117471
0.5812465 0.55067676 0.013988674 1709594
0.57181478 0.54728079 0.012319684 3088151
0.57344455 0.54805565 0.010167658 2037532
0.57555509 0.55145198 0.011923552 1708568
0.56981546 0.54879075 0.0096153617 3157025
0.57288152 0.55301243 0.0077190995 1708058
0.54527068 0.51718557 0.010264933 11244340
0.54712218 0.51960021 0.010056257 10125356
0.54836613 0.5270111 0.0096504092 9203757
0.56736398 0.54841405 0.0078632832 5520147
0.56975406 0.55358064 0.0070076585 2234902
0.54095221 0.517479 0.010422826 11770685
0.54277349 0.51985413 0.010217547 11178546
0.54459471 0.52222931 0.010012329 10323236
0.54647666 0.52468354 0.0098001957 9862443
0.56449795 0.54936731 0.0066193938 5650449
0.56664431 0.55034268 0.0062562227 4079421
0.56703627 0.55386358 0.0066289306 3484186
0.5369668 0.51783603 0.0084232092 12362821
0.56296051 0.55191576 0.004927516 4868672
0.56015939 0.55249971 0.0043687224 5460549
0.56372285 0.55618352 0.0018799305 4600857
0.55771732 0.55308872 0.0012097359 5460288
0.53306848 0.52581543 0.0018548369 12557130
0.55353391 0.55318862 -0.00040620565 6182989
0.55768335 0.55696273 0.00042623281 5849374
0.53027958 0.52456951 0.0014249086 12622668
0.53403044 0.52852601 0.000831604 12293449
0.53589666 0.53175569 -4.8398972e-05 11701316
0.53778082 0.53532708 -0.0011983514 11042360
0.55062068 0.55321383 -0.0018469691 6380109
0.55339181 0.5566889 -0.0028188229 6703906
0.55595797 0.55675465 -0.0026757121 6046235
0.52108437 0.51733196 -0.00094401836 12950603
0.52290601 0.51834065 -0.00087887049 12950604
0.52378559 0.52128971 -0.00060534477 12884812
0.52573192 0.52419442 -0.0001500845 12819021
0.53659588 0.53916138 -0.00096017122 11043650
0.5423547 0.54520756 -0.0034044385 9076083
0.54442459 0.54761165 -0.0032599568 7629399
0.54550785 0.55066675 -0.0028754473 7234901
0.54829049 0.55233705 -0.0027050972 6839893
0.51992095 0.52158147 -0.00082713366 12885068
0.52955687 0.53033739 -0.0032863021 13478240
0.53272122 0.5370847 -0.0038300157 10918790
0.53379911 0.53990555 -0.0032794476 10458490
0.53607941 0.54153204 -0.0044208169 9800048
0.53868705 0.54409248 -0.0035421252 9208172
