# .PCD v0.7 - Point Cloud Data file format
VERSION 0.7
FIELDS x y z rgba
SIZE 4 4 4 4
TYPE F F F U
COUNT 1 1 1 1
WIDTH 1143
HEIGHT 1
VIEWPOINT 0 0 0 1 0 0 0
POINTS 1143
DATA ascii
0.73241162 0.58660728 0.022768676 1643791
0.65958458 0.48439169 0.032932281 2367778
0.66161603 0.4850108 0.033426642 2301986
0.66327024 0.48858032 0.03302604 2960420
0.66645819 0.49472022 0.031860292 3026471
0.66853058 0.4961735 0.031742692 2895141
0.67070103 0.49770319 0.031704426 2894885
0.73010647 0.58409458 0.020900667 1052682
0.73004478 0.58785069 0.019894123 1512458
0.65566039 0.48427245 0.030929208 3089957
0.65776706 0.48425305 0.03095299 3024679
0.65948689 0.48712569 0.030619979 2828832
0.66252351 0.49326938 0.03003484 3026724
0.66484022 0.49468029 0.029733717 2895138
0.66650897 0.4963643 0.030175984 2829344
0.73117876 0.59006137 0.016981721 2563603
0.65401375 0.48404977 0.029866695 3549984
0.65574622 0.4859176 0.028957605 3419679
0.65793496 0.48655698 0.028525591 3091477
0.65959787 0.49234149 0.028341353 3158051
0.66117334 0.49398848 0.027975798 2894879
0.66306734 0.49524164 0.028643847 2829087
0.72820473 0.59362113 0.016469002 2169620
0.73129642 0.59500217 0.016197503 3812125
0.65306234 0.48529631 0.027792156 4273441
0.65363008 0.48620066 0.026439071 4800025
0.65776217 0.49252245 0.026056588 2960671
0.6593622 0.4934628 0.026266277 2894619
0.72727078 0.59290224 0.013393998 3813415
0.65120494 0.48612469 0.024716854 5588005
0.65340054 0.49148697 0.024075806 2829081
0.65571892 0.49239743 0.02457422 2828569
0.64949036 0.4873285 0.022990346 6180377
0.65025824 0.49065989 0.022161245 3157776
0.65224278 0.49129799 0.022794366 2828565
0.72562027 0.59850359 0.010143459 5062191
0.64797837 0.48825097 0.02158761 6113825
0.64809227 0.49084824 0.021537662 3354130
0.72454107 0.59855056 0.0075237155 5719864
0.72498518 0.60242295 0.0077843666 6574658
0.7324059 0.61332864 0.0045778751 6575424
0.73448634 0.61461276 0.0043224096 8482381
0.73584294 0.61795038 0.0043350458 8876874
0.73820704 0.62049919 0.0038077235 8942151
0.73932672 0.6231575 0.0036677122 8876356
0.64525509 0.48916057 0.018800378 7297827
0.647071 0.49174029 0.017218173 5984021
0.72377849 0.60254025 0.0050275326 6969922
0.7242018 0.60571474 0.00349015 7693122
0.7298156 0.61173999 0.0025250912 5918009
0.73119628 0.61502069 0.0034346581 7298368
0.73282856 0.6168502 0.0036205649 8087367
0.73431146 0.61922622 0.0034598708 8876355
0.73590398 0.62140465 0.003375411 9073730
0.73774052 0.62383986 0.0038403273 9139270
0.6432876 0.49045515 0.017063737 7166754
0.64512563 0.49199915 0.017069817 5063186
0.64711213 0.49283212 0.016426802 4405772
0.72399849 0.60809326 0.0022245049 7758910
0.72491407 0.60999006 0.00064349174 7956027
0.72732401 0.61431313 0.0016407967 4536358
0.72930503 0.6141578 0.0024900436 6903872
0.63791949 0.48635304 0.013630927 11504961
0.63911629 0.48878503 0.01478672 10584894
0.64099574 0.49057773 0.015222251 8613425
0.64251602 0.49207062 0.015352011 6904356
0.72362739 0.61178023 0.0010815859 7824446
0.63432407 0.4844639 0.013575315 11570246
0.63598824 0.48682341 0.013626575 11307331
0.63768721 0.49018717 0.012312412 10191175
0.63887519 0.49134019 0.013914585 8416048
0.64042908 0.4936986 0.011562943 7035944
0.63062567 0.48363796 0.013334453 11899716
0.63185585 0.48483977 0.011492968 11571790
0.63362896 0.48889112 0.011374772 10914381
0.63606656 0.48972383 0.011904836 10585418
0.63741493 0.49307021 0.011455238 7956272
0.62832373 0.48456839 0.01074934 11703893
0.63095766 0.48685533 0.010663629 11309137
0.63637632 0.49428642 0.0076832175 9139264
0.63322341 0.49440092 0.006663084 9336644
0.62543178 0.48748922 0.0039465427 11440724
0.62761813 0.49080604 0.0034681559 11045970
0.62971628 0.49382851 0.0048662424 10125641
0.63149619 0.49441755 0.003901422 9929289
0.62165731 0.48462278 0.0032155514 11769689
0.62261587 0.48720402 0.0032834411 11441237
0.62498069 0.48996234 0.0029724836 11046484
0.62585729 0.4930757 0.0033529997 10520142
0.62788874 0.4935149 0.0032202005 10257487
0.61722982 0.48319197 0.0030751228 11769691
0.61933345 0.48586625 0.0029519796 11704154
0.62050676 0.48857728 0.0028620958 11375703
0.62270606 0.49078745 0.0027036667 11046483
0.62331671 0.49244905 0.0027691722 10585942
0.73249042 0.53986347 0.053623974 2237997
0.72338915 0.5308215 0.053988099 2040365
0.72569317 0.53276533 0.053899288 1975337
0.72673893 0.53582013 0.054479122 2106411
0.7294184 0.53783351 0.054419637 2237481
0.73130524 0.53990227 0.054260433 2237737
0.73322093 0.54185855 0.053603113 2171697
0.73390853 0.54528618 0.053591371 2237232
0.73579156 0.54804546 0.052026749 1974308
0.73689634 0.55024654 0.051641762 1776671
0.71481276 0.52206719 0.052867889 2041133
0.71603513 0.52383727 0.052930653 2041137
0.71830857 0.52704108 0.053164363 2040873
0.72046983 0.52887762 0.053627849 2106412
0.72131205 0.53061742 0.053882778 2040372
0.73770976 0.55358768 0.051140189 1710883
0.73909926 0.55595499 0.050234854 1710617
0.7406143 0.5586729 0.04973346 1840941
0.70826286 0.51555824 0.051002204 2172463
0.70928252 0.51812428 0.051771462 2106666
0.7117582 0.52033895 0.052449942 2106926
0.71276861 0.52187437 0.053114891 2106671
0.72284663 0.5371297 0.048573256 2566953
0.72481304 0.54047847 0.048607767 2698280
0.72649485 0.54273283 0.048564315 2763564
0.72774547 0.54537523 0.048610568 2763563
0.72931451 0.54694366 0.048636317 2763308
0.73103434 0.55029929 0.048186183 2763563
0.73294693 0.55233848 0.047197461 2566440
0.70137954 0.51058269 0.050476909 2106924
0.70262194 0.51216412 0.05076468 2237994
0.70460683 0.51414251 0.051022351 2237999
0.70695895 0.51598555 0.051170409 2237745
0.70792961 0.51900226 0.052350223 2172464
0.71174943 0.52486062 0.048007667 2763822
0.7124157 0.52704418 0.048654079 2698540
0.7143172 0.52885449 0.048944533 2763564
0.7164495 0.53110695 0.048918784 2763563
0.71837616 0.53334343 0.048857093 2698026
0.71977973 0.53624326 0.049039066 2632490
0.72203529 0.53903818 0.047851145 2698281
0.72303021 0.54154152 0.047820985 2698023
0.72436416 0.54256707 0.047251761 2763815
0.72606671 0.5463447 0.045854867 2763815
0.72797215 0.54850829 0.045337856 2763816
0.72891837 0.55156589 0.045734584 2763559
0.73120797 0.55332416 0.045381546 2566435
0.73328984 0.55564409 0.045977235 2368800
0.7348882 0.5580669 0.046141863 2368289
0.73630756 0.56078124 0.04541117 2302492
0.73766541 0.56350279 0.043914557 2236953
0.69411552 0.50321811 0.049225986 2238260
0.69542199 0.50535613 0.049362659 2107183
0.69771105 0.50714684 0.049428046 2041394
0.69913197 0.51026285 0.050215602 2172715
0.70045519 0.51222193 0.050719142 2303279
0.70388997 0.51740372 0.047628164 2829613
0.70587772 0.52029657 0.047870874 2763821
0.70742166 0.52186251 0.04806459 2763823
0.70945823 0.52441496 0.04845196 2763564
0.71148646 0.52736211 0.049025416 2763819
0.7145021 0.53299022 0.045580566 2435363
0.71583563 0.5346126 0.046047807 2698026
0.71787429 0.53714031 0.045690954 2435107
0.71924782 0.53943622 0.046065211 2566692
0.72159892 0.54207236 0.046652734 2763815
0.72370875 0.54474294 0.045135617 2566436
0.72382641 0.5469979 0.044967353 2369058
0.72600073 0.54964328 0.044252813 2040349
0.73255706 0.55768907 0.044469059 2040091
0.73346257 0.55957997 0.044086099 1973786
0.73428547 0.5616135 0.043415248 1842455
0.73491073 0.56465995 0.042937577 1973781
0.73892117 0.56763405 0.042409718 2302492
0.6874187 0.49779332 0.048077583 2829879
0.6888032 0.49899757 0.048404276 2698294
0.68996787 0.50151491 0.04892838 2369589
0.6920774 0.50363046 0.049145222 2303796
0.69717097 0.5113855 0.046487808 2960684
0.69885945 0.51329702 0.046663463 2829356
0.7004739 0.51624036 0.047277093 2829355
0.70270562 0.5178622 0.04772532 2895150
0.70368779 0.5213505 0.046157122 2106912
0.7058813 0.52361524 0.046029687 1844253
0.70761645 0.52617002 0.04517138 2106910
0.70908308 0.52862555 0.045216084 2304033
0.71106517 0.53080243 0.045398057 2238240
0.71266752 0.53315848 0.045477271 2172448
0.71448064 0.5357697 0.045190811 1909532
0.71592951 0.53787357 0.045834184 2303779
0.71820974 0.54051733 0.04487431 2040610
0.72017848 0.54320335 0.04425025 2105892
0.72132313 0.54585302 0.044180095 2105633
0.72345519 0.54867285 0.042840302 2237474
0.72378874 0.55070096 0.04285568 2303522
0.72586584 0.55239511 0.041960001 1711129
0.72686684 0.55604053 0.041670918 1119508
0.7351076 0.56403601 0.040974915 1907987
0.73529971 0.56891906 0.041113198 1908243
0.73618901 0.57025433 0.04009521 2039831
0.73913741 0.57168955 0.040933371 2302238
0.6834296 0.49542466 0.046901822 2895157
0.68557024 0.49661982 0.047809184 2895164
0.68879658 0.50329256 0.04502058 3026734
0.69001138 0.50504518 0.045227349 2895406
0.69209981 0.50764424 0.045785069 2829358
0.69407755 0.50932229 0.046167552 2894895
0.69577563 0.51200867 0.046744168 2895405
0.697052 0.51543236 0.044078708 1910305
0.69875878 0.51709414 0.044631898 1975328
0.70068908 0.51917148 0.044991374 1909789
0.70196933 0.52186251 0.043750763 2632485
0.7036463 0.52451521 0.043697298 2895145
0.70585126 0.52655619 0.044492543 2895146
0.70904332 0.53229642 0.041938424 2369062
0.71047157 0.53473872 0.042008519 2434848
0.71209407 0.53666508 0.042265296 2434847
0.71350592 0.53913403 0.042133331 2434848
0.71562046 0.54133177 0.042059541 2434594
0.71685463 0.54397798 0.041721642 2500642
0.71961534 0.54623532 0.04177016 2435107
0.72067475 0.54839623 0.042440414 2500647
0.72483039 0.55404353 0.041179299 2565925
0.72601807 0.5559327 0.040703058 2565669
0.72741991 0.55892581 0.039669633 1514004
0.7285853 0.56207597 0.03859669 1645077
0.73530132 0.56864512 0.038928032 1973780
0.73614579 0.57031214 0.037392437 2104852
0.73654699 0.57400638 0.037455738 2105622
0.67784482 0.4921461 0.044968784 2106416
0.67980975 0.49394035 0.045724571 2566446
0.68141043 0.49554932 0.046899199 2960950
0.68371069 0.49932957 0.043925822 3290420
0.6843226 0.50060678 0.044498324 3158322
0.68637693 0.50327313 0.045000672 3026735
0.68816108 0.5052247 0.04529047 2960941
0.69049549 0.5084604 0.044000089 2238244
0.69149804 0.5110206 0.043408275 1909788
0.69382042 0.51332152 0.043595076 1910043
0.69510543 0.51585919 0.043154299 2435362
0.69651616 0.51859736 0.042859912 2698025
0.69896024 0.52082133 0.043049514 2829609
0.69975865 0.52269375 0.041929901 2697767
0.70182759 0.52605903 0.041439593 2434598
0.70363432 0.52814758 0.0414868 2434598
0.70572513 0.52997458 0.041974247 2500133
0.70743138 0.53213471 0.042042077 2434856
0.70830578 0.53481728 0.04245919 2369063
0.72726852 0.5604285 0.037371397 987403
0.72732008 0.56244272 0.037189782 922122
0.72847295 0.56541979 0.03671062 1118991
0.7299211 0.5691883 0.036187768 1381905
0.67627621 0.49238586 0.044460058 2369329
0.67839229 0.49593094 0.04216975 3223851
0.67945671 0.49740672 0.042994559 3289648
0.6813699 0.49945623 0.044126332 3289651
0.68669689 0.50707924 0.0421471 1975836
0.68807399 0.50955701 0.042414248 2172702
0.68977875 0.51166636 0.04101032 2895401
0.69128692 0.5139944 0.041579843 2829610
0.69293672 0.51608646 0.040874839 2632230
0.69494969 0.51943684 0.04052633 2369316
0.69681346 0.5213753 0.040905416 2500389
0.69872808 0.52409315 0.041296721 2434854
0.72856188 0.5665639 0.034063041 921611
0.72899091 0.5685553 0.034795225 987659
0.72988617 0.57129693 0.034335375 1250315
0.73665726 0.57855719 0.033997357 1974292
0.73705906 0.58056426 0.033729255 2105111
0.67159253 0.48932725 0.041752636 2237224
0.67327273 0.4902311 0.042598486 2237226
0.6741724 0.49379173 0.040913284 2960683
0.67604303 0.49553353 0.042437553 3092780
0.68330193 0.50593424 0.040399432 2501412
0.6841687 0.50836325 0.039963901 2960939
0.68627167 0.51082432 0.039902091 2698022
0.68782985 0.51333493 0.039312243 2435363
0.68984973 0.51572895 0.039770126 2434851
0.69194961 0.51812941 0.040263951 2369315
0.72850388 0.57258749 0.031225324 921865
0.72955358 0.57461423 0.031094015 1250316
0.7299118 0.57696187 0.032014072 1512975
0.73774779 0.5843842 0.031011224 3024668
0.66713166 0.48878217 0.040225089 2237476
0.66948998 0.48900867 0.040590882 2302756
0.6704855 0.49294099 0.040210962 2895405
0.67265111 0.49321705 0.040647864 2895149
0.67834586 0.50277233 0.038135767 3289900
0.67902905 0.50403178 0.038632631 3224106
0.68099952 0.50664806 0.038647413 2829608
0.68294889 0.50894749 0.038188457 2566182
0.68325651 0.51122344 0.039070249 2435366
0.7279408 0.57562774 0.028566837 987144
0.72767985 0.57782137 0.029570699 1053193
0.66580468 0.48782182 0.038719952 2368548
0.66727316 0.49116504 0.037960052 2894888
0.66973495 0.49198255 0.03915298 2895148
0.67376459 0.50082409 0.036912203 3289645
0.67577279 0.50298578 0.036845803 3026987
0.67729419 0.50528151 0.037082314 2698279
0.67926133 0.50712019 0.037472188 2566440
0.72825766 0.57932502 0.027214527 1118731
0.72975111 0.58013654 0.028247595 1512975
0.7299751 0.58390522 0.02647084 1710611
0.66197979 0.48671967 0.037394464 2302765
0.66350985 0.48991531 0.036734939 3026474
0.66503119 0.49048999 0.037000418 2960681
0.66855264 0.49718952 0.034826577 3092269
0.67077661 0.49883801 0.035543561 3158059
0.67214668 0.50143343 0.035593271 3026988
0.67348731 0.50267261 0.036039472 3027248
0.72864652 0.58243799 0.025239825 1250061
0.72938657 0.58527201 0.024181247 1250062
0.73090863 0.58816344 0.024212241 1578771
0.73236012 0.58984244 0.023990571 1578259
0.73358691 0.5919283 0.02270329 2695452
0.65844768 0.48564866 0.035535216 2302503
0.66018653 0.48783988 0.034567356 2828841
0.66223323 0.48923874 0.035532892 3026472
0.66515434 0.49555844 0.033528268 3026472
0.66639394 0.49736458 0.033812165 3026725
0.66874945 0.49907801 0.034274817 3092771
0.72916442 0.58786273 0.023127437 987402
0.72997057 0.59052217 0.021844983 1052937
0.73271877 0.5944249 0.022311747 2103311
0.65445852 0.48494348 0.033608198 2433569
0.65617758 0.4859553 0.034230053 2631458
0.65809494 0.48778996 0.033095241 3026469
0.66220224 0.49412543 0.032524288 3026726
0.66288579 0.49613705 0.032278478 2960932
0.72999513 0.59427905 0.020831466 1184267
0.65287131 0.48507655 0.031164885 2959393
0.65507853 0.48694974 0.031604409 2960419
0.65785265 0.49332565 0.030543745 3026725
0.65909982 0.49451971 0.03036052 3026467
0.6610204 0.4956736 0.030624568 2829344
0.72880721 0.59428906 0.018294036 1775631
0.65084237 0.48405281 0.030046999 3484703
0.65005326 0.48629597 0.029524863 2894618
0.65585321 0.49331695 0.028119326 3026206
0.65766329 0.49448827 0.029054523 2960668
0.72817224 0.59820849 0.015934885 3024414
0.64835644 0.48525348 0.028452992 3748376
0.65001559 0.48635864 0.026892364 4471321
0.65265578 0.4925558 0.026885986 3026209
0.65416253 0.49300313 0.026734948 2959904
0.7264328 0.59895879 0.012393534 4272934
0.64461756 0.48603052 0.026348233 4404759
0.64678562 0.48721105 0.024279773 5194262
0.64904535 0.49142641 0.024763346 2894619
0.65029919 0.49191093 0.025245905 2894621
0.72585791 0.60271573 0.010040939 5983294
0.64259368 0.48659727 0.02465564 5128216
0.64484799 0.48956001 0.022691667 4143386
0.64686334 0.49087131 0.023434877 2894364
0.72543252 0.60483915 0.010067344 5523002
0.72958696 0.61409628 0.0074495077 5325358
0.63994372 0.48678288 0.022328556 6443042
0.64184976 0.48781586 0.022033393 6246426
0.64354247 0.4896287 0.021344662 4865815
0.72383487 0.60872519 0.005084753 7232833
0.73091161 0.61816412 0.0040236712 7232577
0.73294508 0.62050426 0.0046455264 7890768
0.73495311 0.62310648 0.0043798089 9008200
0.63791811 0.4880777 0.01962477 7364135
0.64099199 0.48922706 0.018375397 7757857
0.64092129 0.49052489 0.019107223 5457425
0.72355199 0.61054361 0.0054056048 7232834
0.72884583 0.61544359 0.0034313202 6443318
0.7290377 0.61992264 0.0042381287 6377266
0.73138678 0.62098646 0.0036922097 8613703
0.63606507 0.48897052 0.017575562 8416315
0.63840789 0.49000263 0.017068028 7429924
0.64012802 0.49151173 0.017287374 4800527
0.7228182 0.61364567 0.0027918816 7758917
0.724015 0.61518335 0.0011782646 8021564
0.72551715 0.61834431 0.00057548285 8416575
0.6342532 0.48828003 0.015113294 10519621
0.63580167 0.49037588 0.015915275 7824425
0.72384691 0.61840838 0.00070351362 8153151
0.72643781 0.62306863 2.7179718e-05 8482370
0.62879157 0.4847773 0.013364077 11834181
0.63079727 0.48741835 0.013315082 11439683
0.63254213 0.48949617 0.014155984 10191430
0.62634408 0.48616588 0.012998223 11767624
0.62815523 0.48825133 0.011726081 11177296
0.63051999 0.48947719 0.011686742 10783055
0.63332725 0.49281517 0.011370897 8087857
0.6344229 0.49322081 0.011362076 7496500
0.62380034 0.48379809 0.011304796 11769426
0.62554032 0.48601228 0.011259437 11506514
0.63022161 0.49345824 0.010043144 8285237
0.62807661 0.49423265 0.0067454576 9402440
0.62450302 0.49406111 0.0052065849 9994316
0.62620658 0.49500489 0.0059151649 9797190
0.61591244 0.48523319 0.0034031868 11703379
0.61736023 0.48704356 0.0029118061 11507036
0.61955607 0.48954755 0.0028099418 11243859
0.62042129 0.49239674 0.0031853914 10914638
0.62247425 0.49403715 0.0040277243 10520396
0.61292231 0.48372385 0.0032743812 11769435
0.61450589 0.48604298 0.0033035874 11572315
0.61580348 0.4882206 0.0030092001 11440727
0.61752778 0.49060339 0.0028608441 11112275
0.72400004 0.53448057 0.054677129 2040876
0.72488439 0.53750181 0.055745006 2105906
0.72678745 0.53937036 0.055942237 2237485
0.72901285 0.54149103 0.05561614 2171947
0.73119032 0.54373091 0.055249989 2171952
0.73248363 0.54683542 0.055408478 2303023
0.73362219 0.54908788 0.054969609 2303021
0.73557663 0.55153185 0.05371201 2105129
0.71549779 0.52605402 0.053741395 1975600
0.71648836 0.5280053 0.05430752 2106412
0.71841288 0.53088152 0.054965258 2040876
0.72068506 0.53293586 0.05485338 1975085
0.72275239 0.53499007 0.054834962 2040624
0.7235654 0.53777051 0.056186259 2237491
0.73582023 0.55539137 0.053094745 1973796
0.73739707 0.55700415 0.052381814 1776670
0.73897922 0.55919051 0.051082909 1842462
0.73963404 0.56233656 0.05026412 1841689
0.70846081 0.52059793 0.053404391 2303531
0.70969301 0.52245951 0.05360198 2106675
0.71173817 0.52440143 0.054028213 2040880
0.71381652 0.52572054 0.054040492 2041136
0.71499658 0.52852523 0.054673553 2106411
0.71640992 0.53081429 0.054897845 2106151
0.72823006 0.54895318 0.049339175 2698028
0.72943848 0.55181521 0.049610317 2763822
0.73147762 0.55355835 0.048899055 2698025
0.73931146 0.56445944 0.050851047 1645592
0.70269883 0.51574278 0.052189052 2237998
0.70510602 0.51757371 0.052347898 2237490
0.70657599 0.52032328 0.053217769 2172460
0.70762253 0.5222218 0.053996444 2106927
0.71384603 0.53143853 0.049724102 2763563
0.71663594 0.53530264 0.049621463 2698284
0.71732855 0.53805327 0.049585938 2763565
0.71973455 0.54035258 0.049730659 2698027
0.72214234 0.54214799 0.049590826 2698283
0.72381115 0.54478729 0.050036728 2698282
0.7254476 0.54762489 0.050103903 2763817
0.72697359 0.54970109 0.05038166 2763817
0.72816908 0.55195516 0.048966348 2763561
0.73017991 0.55437744 0.049797595 2829355
0.73176563 0.5570811 0.048432291 2763303
0.73418701 0.55955791 0.047887743 2499877
0.73528957 0.56307626 0.047463357 2368288
0.7363739 0.56482083 0.046401143 2171163
0.73763454 0.56612086 0.045676053 2236698
0.73810315 0.56913155 0.046493232 2301981
0.69484758 0.50772238 0.050272465 2172720
0.69642472 0.50932401 0.050283253 2106927
0.69718695 0.51212865 0.051305056 2303530
0.69954121 0.51428419 0.051869333 2238000
0.70136362 0.51607978 0.052437186 2303534
0.70622349 0.52379489 0.048663378 2829358
0.7075628 0.52679837 0.049323201 2829357
0.70954454 0.52848518 0.049633622 2829358
0.71154267 0.53123784 0.04986769 2763821
0.71389151 0.53361714 0.049851358 2763818
0.71449596 0.53648925 0.049814224 2763819
0.71666902 0.53939497 0.046948195 2763818
0.71736509 0.54089153 0.048600733 2698282
0.71934795 0.5434289 0.047109067 2698024
0.72104824 0.54594737 0.047329903 2763816
0.72331417 0.54854119 0.047354758 2763814
0.72539687 0.55086207 0.047118366 2829605
0.72636169 0.55311561 0.047522902 2763812
0.72914529 0.55552626 0.046972096 2763813
0.73034376 0.55908382 0.04739058 2698021
0.73217177 0.56017691 0.046007037 2303007
0.73319858 0.56344354 0.045268714 2039834
0.7341159 0.5674054 0.044940352 1974040
0.73838615 0.56849235 0.04488039 2236699
0.73886847 0.57143968 0.044776559 2236446
0.73974633 0.57391173 0.043039441 2301982
0.74055499 0.57538682 0.044648945 2630431
0.69036698 0.50556767 0.049736977 2303541
0.69266266 0.50761425 0.050097883 2237747
0.6945439 0.50975418 0.050722122 2171950
0.69861662 0.51834339 0.048323929 2829612
0.70096815 0.51992476 0.048357725 2829613
0.70303899 0.52296579 0.048210084 2566954
0.70411915 0.52451766 0.049241662 2829617
0.70565659 0.52763629 0.046541393 1909786
0.70741272 0.53013623 0.046433151 2106910
0.70938236 0.53282076 0.046240568 2238238
0.71088588 0.5350278 0.046207428 2238241
0.71267134 0.53721374 0.046411753 2303779
0.71437609 0.53957218 0.046637654 2172450
0.71644366 0.54218054 0.046544492 2237987
0.71797174 0.5444743 0.045971215 2105888
0.71938896 0.5469147 0.045722246 2171424
0.72186214 0.54892713 0.045401931 2171687
0.72256255 0.55150962 0.045199871 2106403
0.72462076 0.55418122 0.044546008 2040350
0.72585618 0.55677462 0.044034123 1711642
0.73433894 0.56655699 0.043275893 1908246
0.73509169 0.56953323 0.042935193 1908500
0.73599994 0.57116497 0.041468143 1974296
0.73651481 0.5756278 0.041966021 1776915
0.68370032 0.49924111 0.048365235 2698037
0.685736 0.50110435 0.048759878 2500656
0.68728065 0.50406015 0.049481273 2369075
0.68903935 0.50604594 0.049855947 2369334
0.6922673 0.5107764 0.0468961 2829614
0.69327211 0.51425081 0.047537327 2960940
0.69607645 0.51566482 0.047659576 2895405
0.69757324 0.51892155 0.047062278 2369575
0.69870311 0.52123976 0.046354175 2041118
0.70125043 0.52335846 0.04690218 1910047
0.70286548 0.52610064 0.046088874 2172963
0.70375776 0.52886331 0.045941889 2632743
0.70581961 0.53044868 0.046288729 2369827
0.70739371 0.53274477 0.046232939 2500901
0.70932269 0.53612846 0.04520148 2369316
0.71056992 0.53857499 0.043010116 2500383
0.71280903 0.54147518 0.042414725 2435107
0.71548426 0.54590523 0.04312259 2500389
0.7175802 0.54815078 0.043005466 2434853
0.7193827 0.55065334 0.043414831 2500387
0.72182238 0.55311322 0.04291743 2500643
0.72282958 0.55554575 0.042547643 2565926
0.72455823 0.55793864 0.042081714 2565924
0.72608709 0.56017494 0.042353988 1842971
0.72698665 0.56303555 0.041277289 1711384
0.72851205 0.56505406 0.039755344 1579541
0.73543191 0.57359302 0.041199863 1777176
0.73638505 0.57489306 0.040250361 1908503
0.67870432 0.49617606 0.046820879 2895414
0.67971456 0.49754995 0.047753036 2829624
0.68196315 0.49866688 0.048057795 2763829
0.6840384 0.50321579 0.047074676 2698033
0.68515432 0.5057019 0.045779705 2829869
0.68753111 0.50734711 0.046138883 2895150
0.68878132 0.5098334 0.046883583 2895406
0.69071507 0.51234174 0.047003746 2895660
0.69182324 0.51522017 0.044579566 1910045
0.69347858 0.51747531 0.04504782 1975327
0.69568908 0.51965606 0.045690358 2106654
0.69678581 0.52223361 0.044046938 2895144
0.69919169 0.52444291 0.044624746 2895401
0.7005192 0.52739096 0.045164943 2829865
0.70212913 0.52977002 0.042309523 2500646
0.70349956 0.53212821 0.042852283 2369062
0.70533878 0.5341813 0.042938471 2434852
0.70721823 0.53690672 0.043132901 2434596
0.70869845 0.53933924 0.043246925 2434851
0.71073449 0.54147112 0.043029904 2434593
0.7128005 0.54421628 0.042844355 2434853
0.72713006 0.563676 0.039677799 922125
0.72745383 0.56644833 0.039741099 1119502
0.72848278 0.56834441 0.038370252 1184784
0.72972453 0.57021612 0.037482023 1447952
0.73679268 0.57904494 0.038645387 1908501
0.73705864 0.58220136 0.03658855 1973784
0.73928529 0.58635938 0.036723137 3221785
0.67479539 0.49321175 0.045544446 2631986
0.6767993 0.4954384 0.047047675 2895159
0.67808914 0.49851841 0.04414463 3355444
0.67946601 0.50140846 0.045076072 3092529
0.68187201 0.50331199 0.045710862 2960942
0.68351704 0.5069263 0.046107709 2895406
0.68499577 0.50851846 0.044527173 2370083
0.68699968 0.51111251 0.043847501 1975583
0.68859118 0.51347572 0.04377389 2172702
0.69012272 0.51551729 0.043152869 2566949
0.69150209 0.51851404 0.043164074 2829608
0.69392407 0.51998919 0.043223321 2829609
0.69472116 0.52269924 0.042133629 2566183
0.69621223 0.52545416 0.042123318 2500644
0.69867313 0.52813339 0.042244077 2500389
0.70040619 0.53088558 0.042758703 2565925
0.72812998 0.57069135 0.036437273 921611
0.72865069 0.57241881 0.036292017 1052940
0.72957373 0.57431459 0.036612451 1250062
0.73782051 0.58458436 0.034475684 2170648
0.66946971 0.49069682 0.043993294 2237990
0.6716491 0.49179035 0.044802845 2369319
0.67338228 0.49538046 0.042463958 3224113
0.67431092 0.49728176 0.043998301 3224626
0.67599243 0.49912411 0.044801593 3224372
0.6829766 0.5096482 0.042243361 2238491
0.68435949 0.51153845 0.042035878 2632484
0.68595231 0.51417142 0.042014301 2895145
0.68813086 0.51682621 0.041787028 2698023
0.68976533 0.51946115 0.040888429 2434852
0.69161165 0.52154946 0.041068792 2434597
0.69348502 0.52381617 0.041850746 2500390
0.72832096 0.57523823 0.032901764 987403
0.73003519 0.57841849 0.034105897 1381647
0.6660713 0.48976845 0.042301834 2303269
0.66812599 0.49018645 0.042938888 2237991
0.6692462 0.49420896 0.042258263 3092527
0.67115021 0.49527478 0.04302758 3224112
0.6776396 0.50623864 0.039891005 2961447
0.67927295 0.50828779 0.04054141 2961192
0.68155217 0.5102399 0.04062587 2829353
0.68279147 0.51317048 0.039663196 2435109
0.68490165 0.5152005 0.040419221 2369826
0.68658817 0.51723415 0.040586531 2435618
0.72785807 0.57717216 0.033157706 855819
0.72776961 0.57961953 0.031285584 921610
0.73004138 0.58138788 0.030589521 1381647
0.66216457 0.48840964 0.040716529 2368814
0.66407955 0.48916274 0.041400433 2303017
0.66543907 0.49250185 0.040547431 3092262
0.66748911 0.493025 0.040537596 3092520
0.67204481 0.50221705 0.038461447 3224368
0.67434561 0.50415158 0.039173663 3092779
0.67535877 0.50622547 0.03889364 2764070
0.6772368 0.5086503 0.038609326 2566180
0.67941737 0.51098484 0.039018333 2500644
0.72789073 0.58259714 0.029928327 987149
0.73020184 0.58519179 0.02874434 1447696
0.7326299 0.58996457 0.030028462 1775892
0.6599701 0.48789138 0.039647281 2434346
0.6620279 0.49056655 0.038205087 3026475
0.66459739 0.49150246 0.039309978 3026730
0.6672408 0.49883142 0.036379158 3355182
0.66914511 0.50026453 0.036838233 3289901
0.66978157 0.50245249 0.037113428 3027244
0.67229551 0.5046562 0.037327528 2698534
0.67430866 0.50725621 0.038211048 2566694
0.72794825 0.58355182 0.027154326 1118737
0.7281968 0.58623505 0.027229905 1118992
0.73039579 0.58904153 0.026964188 1578769
0.73107076 0.59177876 0.025259972 1579027
0.73322797 0.59415817 0.026224792 1644049
0.65690434 0.48640323 0.037577689 2499879
0.65778852 0.4895817 0.036975384 3026730
0.65996659 0.49010667 0.037358165 3026475
0.66332036 0.4970637 0.035837173 3224106
0.66522634 0.49917269 0.035860777 3224106
0.66673738 0.50079095 0.036423206 3158312
0.66840088 0.50360072 0.037017584 2895660
0.72848272 0.59017485 0.02455914 1118734
0.72915959 0.59250385 0.024151683 1053195
0.73073298 0.59359658 0.023807645 1315854
0.65332019 0.48551804 0.035862386 2368292
0.65454441 0.48800865 0.035198629 3026472
0.65694916 0.4885323 0.036001921 2961192
0.66020191 0.49535131 0.034285426 3092521
0.66179109 0.49792719 0.034031034 3092777
0.66288841 0.49869466 0.034814239 3224363
0.72998369 0.59612507 0.022373319 1052942
0.73034036 0.59821665 0.021071613 1906451
0.64965653 0.48412794 0.033572555 2433318
0.65161383 0.48622829 0.033743322 2697508
0.65400207 0.48738033 0.033046007 3026217
0.65608543 0.49393481 0.032063127 3092262
0.65795946 0.49618298 0.032538116 3026726
0.65954256 0.49751925 0.033384919 3027492
0.64554965 0.48377001 0.031909049 2695464
0.64765531 0.48491925 0.031589806 2893604
0.64950329 0.48688266 0.03201586 2960421
0.65441632 0.49472108 0.03079915 3026724
0.72821856 0.60252619 0.015626788 4667697
0.64389926 0.48419568 0.030161142 3221283
0.64588821 0.48511878 0.029440463 3550242
0.6504311 0.49329826 0.02889955 3092003
0.65264213 0.49392784 0.029208064 3026466
0.72754925 0.60479999 0.015519619 4076073
0.64164227 0.48465964 0.028316498 4010786
0.64390284 0.48587364 0.028975964 3551269
0.64713049 0.49223447 0.026707053 2960673
0.64895105 0.49315277 0.027137816 3026205
0.63909036 0.48436019 0.026549041 5391140
0.64021879 0.48572427 0.027074456 4668441
0.64420044 0.49099493 0.024964809 2828828
0.64524269 0.49192649 0.02623862 3026210
0.63805425 0.48627171 0.025429845 5326619
0.64001298 0.48921981 0.023028195 4274455
0.64100969 0.49074218 0.024098039 2698009
0.72845978 0.61697793 0.0067669749 3945249
0.63624448 0.48772284 0.021583915 6311964
0.63831997 0.49013579 0.021474361 3945748
0.64092529 0.49061808 0.021340251 3157010
0.72268116 0.61350143 0.005763948 6640699
0.72679591 0.62151229 0.0046594143 3155998
0.72896862 0.62263286 0.0040880442 6969149
0.63375944 0.48845491 0.019821405 7167016
0.63512033 0.49060327 0.020095229 4406040
0.72251117 0.61714053 0.0033876896 7824457
0.72284311 0.61910534 0.0027250051 8153667
0.63045371 0.48849213 0.019050062 7823921
0.63254964 0.48958239 0.018060207 7167015
0.63410211 0.49053669 0.01641202 7232550
0.7228201 0.62078947 0.001932621 8153410
0.72328508 0.6227622 0.00076109171 8350786
0.62843001 0.48985052 0.016377211 8613944
0.63130915 0.49028334 0.015641809 8021808
0.6334675 0.49175835 0.015878558 5655314
0.62438029 0.48481774 0.012893558 11899464
0.62522256 0.48750174 0.013632953 11438919
0.62704068 0.4896054 0.013944745 10322507
0.62929833 0.49197239 0.015198767 6049304
0.62213612 0.48519835 0.01240468 11702345
0.62386739 0.48824906 0.012176752 11111758
0.62464052 0.48945373 0.012403786 10783314
0.62739033 0.49326822 0.010707796 8219187
0.6186862 0.48376238 0.01157093 11703633
0.62020689 0.48660859 0.011640608 11309133
0.62135041 0.48832792 0.011677623 11045709
0.62505835 0.49380261 0.009504199 8548155
0.62051982 0.49451929 0.0078938007 8745282
0.62265134 0.49454796 0.0081137419 8745275
0.61934066 0.49424061 0.0048497915 10191689
0.62117016 0.49466255 0.0062677264 9468228
0.61069465 0.48478377 0.0035288334 11572310
0.61278903 0.48693752 0.0033174753 11506520
0.61404532 0.48968846 0.0034505129 11243345
0.6157583 0.49217397 0.0038250089 10783311
0.61743391 0.4936862 0.0044522882 10389071
0.60744226 0.48361439 0.0035441518 11637849
0.60901487 0.48603731 0.0034493208 11572313
0.61104107 0.48806959 0.0035185218 11374934
0.6124714 0.4903897 0.0035970807 11046485
0.72561753 0.54127353 0.056949735 2171952
0.7278738 0.54324377 0.056809604 2106410
0.72916722 0.54568791 0.05664134 2303023
0.73025233 0.54859412 0.056101501 2237745
0.7318334 0.55054098 0.055483222 2237490
0.71670473 0.53244352 0.055897295 2106156
0.71840024 0.53440899 0.056349516 2106665
0.72062325 0.53687197 0.056653678 2106413
0.72182441 0.53922528 0.057057261 2106413
0.7237004 0.54124773 0.057115555 2171952
0.7258991 0.54417795 0.056864858 2040873
0.72674537 0.5475949 0.056663454 2172461
0.72836781 0.54947066 0.056189239 2172205
0.73050022 0.55145264 0.055951357 2171953
0.73294771 0.55343533 0.054764152 2171439
0.73381174 0.55642653 0.054911315 2236713
0.7353375 0.55852532 0.053741634 2039590
0.73642975 0.56118017 0.053017378 1842984
0.73826635 0.56358105 0.052394331 1973788
0.70979118 0.52589184 0.055272222 2237745
0.71177 0.52770257 0.05550313 2171951
0.71343648 0.52998126 0.055814564 2106413
0.7149424 0.53277218 0.05617398 2106158
0.73792791 0.56660891 0.052658081 1841949
0.70348132 0.51961112 0.053300142 2303538
0.7044611 0.52180594 0.054390311 2237745
0.70661253 0.52424669 0.055099964 2172210
0.70845222 0.52634931 0.055488348 2368562
0.71821851 0.54222035 0.050750315 2698030
0.71972126 0.54404843 0.050946653 2763817
0.72110498 0.54671282 0.051573396 2763818
0.72334957 0.54830062 0.051478982 2698281
0.72508436 0.55103171 0.051314712 2829354
0.72673106 0.55280513 0.051130116 2763818
0.72854936 0.5561105 0.050818026 2697771
0.73083526 0.55821407 0.050280988 2763306
0.7319994 0.56097412 0.050468087 2697771
0.73365033 0.56267023 0.049364269 2631464
0.73479605 0.56618881 0.048936427 2302755
0.73638821 0.56871879 0.048412383 2039836
0.73772955 0.57102108 0.047859251 1973531
0.73939037 0.57379818 0.047982097 2236443
0.74073756 0.57680172 0.048196793 2564895
0.69591165 0.51401281 0.052802205 2303788
0.69726968 0.5161587 0.053040862 2237998
0.69958222 0.51772237 0.053369343 2238256
0.70161355 0.51928878 0.053802907 2238257
0.70569348 0.52695191 0.050047338 2960687
0.70781541 0.53027141 0.050213754 2895151
0.70942414 0.53222692 0.050303876 2698284
0.71120763 0.53514636 0.05028832 2698284
0.71284974 0.53776658 0.050761402 2698028
0.71487737 0.53965282 0.0508883 2698028
0.71651793 0.54247326 0.051246643 2698029
0.71953762 0.54791296 0.048431158 2763816
0.72310668 0.5527243 0.048235357 2764066
0.72491109 0.55500364 0.048820376 2764068
0.7268616 0.55703753 0.04848671 2763558
0.72815275 0.55914927 0.048247278 2763559
0.73011285 0.56158948 0.047966957 2698021
0.73130596 0.56488293 0.047379494 2500385
0.73266298 0.56712329 0.045928776 2171421
0.73359013 0.56957513 0.046251178 1974043
0.73543954 0.57374704 0.046379209 1645078
0.7388885 0.57343763 0.04673183 2170395
0.74020076 0.57617843 0.046114445 2301727
0.69082677 0.50933933 0.050904095 2303540
0.69276714 0.51123804 0.051872492 2237743
0.69426364 0.51333827 0.052749395 2237996
0.6951862 0.51542926 0.053328753 2434612
0.7007165 0.52390242 0.049709022 2895149
0.70246416 0.52663159 0.050006092 2829359
0.70418066 0.52901721 0.050472021 2829614
0.70627981 0.53102547 0.050424576 2829359
0.70783937 0.53359193 0.05058217 2632492
0.70890427 0.53519309 0.050704777 2764077
0.71084952 0.53845066 0.047209859 2369315
0.71241444 0.54132628 0.04759407 2369570
0.71417034 0.5435276 0.047655106 2369317
0.71602178 0.5460012 0.047858179 2303523
0.71774197 0.54864424 0.047680557 2369062
0.71970469 0.55104518 0.04742676 2303525
0.72104329 0.55312312 0.046931028 2303778
0.72237659 0.55591995 0.046439648 2171936
0.72413319 0.55808723 0.045654476 1975072
0.72454196 0.56032676 0.045985579 2106653
0.73483133 0.5705961 0.044160843 1842712
0.73445809 0.57186645 0.04545188 1777175
0.73608029 0.57490516 0.044042408 1776659
0.73740834 0.57816929 0.044773519 2170901
0.73878181 0.57985151 0.043337107 2170903
0.68536717 0.50588882 0.049909472 2434869
0.68684983 0.50771308 0.050793827 2303790
0.68942273 0.509655 0.051253974 2172461
0.69337308 0.51788759 0.048908412 2895661
0.69582218 0.51945162 0.049012661 2829869
0.69775456 0.522264 0.049542844 2895149
0.69868255 0.52450764 0.047291577 1975583
0.69996035 0.5272156 0.047686636 1910300
0.70238638 0.52954978 0.047424436 1910301
0.70401442 0.53249598 0.047158659 2106910
0.70552611 0.53484005 0.046900153 2172706
0.70752847 0.53710294 0.047274053 2303780
0.70916361 0.53947932 0.047409773 2303778
0.71080756 0.54153025 0.047807813 2238241
0.71443999 0.54837406 0.044145465 2434596
0.71585488 0.54882216 0.043788314 2434854
0.71668178 0.55201089 0.044582248 2434851
0.71869457 0.55437243 0.044285655 2500644
0.72027624 0.55686897 0.044167876 2566182
0.72234368 0.55931628 0.043718815 2566179
0.72453272 0.56189692 0.044006467 2106397
0.72570461 0.56449926 0.043323755 1974299
0.72632468 0.566697 0.042852998 2105884
0.73691475 0.57871753 0.04157418 2105364
0.73947352 0.58400315 0.041662216 2105112
0.68015802 0.50130248 0.049003541 2434872
0.68258697 0.5034284 0.049592495 2434611
0.68332297 0.50606167 0.050806105 2500404
0.68574417 0.50975186 0.046798468 2960944
0.68674546 0.51194978 0.047773004 2895150
0.68842328 0.51367605 0.048033595 2829612
0.69093519 0.51570678 0.048562229 2829867
0.69189364 0.51932997 0.045990825 2172187
0.69346237 0.52099377 0.046844125 2041117
0.69548327 0.52340323 0.047367156 2041119
0.69724083 0.5260635 0.046549618 2435621
0.69846427 0.52837938 0.046514452 2567207
0.69972831 0.53049827 0.045695961 2829865
0.70219243 0.53262806 0.04641211 2698023
0.70340568 0.53606689 0.045082688 2566184
0.70529425 0.53815424 0.04386127 2500133
0.70681691 0.54049611 0.044132411 2434597
0.70862067 0.542768 0.044166923 2434596
0.71021867 0.54539531 0.044210374 2500386
0.71240968 0.54800278 0.044421673 2500387
0.71469951 0.55029762 0.044380426 2500645
0.72679174 0.56787294 0.042146385 1053455
0.72759032 0.5699296 0.040759683 1382162
0.72799969 0.5724774 0.0405882 1447953
0.73938107 0.58703196 0.038730204 2433820
0.67362058 0.4953109 0.0471192 2895161
0.67454898 0.4972918 0.048166931 2698039
0.67682153 0.49959499 0.048634946 2500663
0.67978859 0.50541168 0.046368182 2895404
0.68125039 0.50743967 0.046802521 2895405
0.68332899 0.50960451 0.047000527 2895149
0.68532598 0.51135391 0.047571957 2895406
0.68644524 0.51570368 0.045114398 2041372
0.68861902 0.51702476 0.045666575 1910041
0.69006473 0.51920724 0.045703709 2172705
0.69200563 0.522057 0.044367552 2895145
0.69358182 0.52459651 0.044970155 2960937
0.6954177 0.52712548 0.044474304 2829608
0.69629145 0.52968562 0.043418705 2566176
0.69868791 0.53199703 0.043687761 2500385
0.70080751 0.53421897 0.043935299 2500643
0.70151424 0.53645778 0.044660032 2565926
0.70320177 0.53891909 0.044352651 2500645
0.70499796 0.54101324 0.044631362 2500385
0.72824788 0.57418263 0.038362443 987663
0.72914946 0.57623398 0.038916647 1118990
0.73092687 0.57914364 0.038463891 1184526
0.73210454 0.58073938 0.038186789 1316367
0.73293722 0.58293736 0.036934674 1447181
0.66985834 0.49343449 0.046379089 2763571
0.67154759 0.49562931 0.047071636 2895420
0.67278373 0.49876809 0.044832408 3158834
0.67427725 0.5012064 0.045715272 3027248
0.67693591 0.50289828 0.0460428 3026735
0.6775502 0.50572407 0.046665907 2895405
0.68125296 0.51141202 0.043731332 1910305
0.68311685 0.51304102 0.044072986 2041627
0.68476164 0.51537478 0.044299424 2304287
0.68605465 0.51813984 0.043444872 2895145
0.68817532 0.52020919 0.043189943 2698023
0.68999141 0.52384531 0.043073952 2697765
0.69162703 0.52542865 0.042364538 2566180
0.69341677 0.52786267 0.042969346 2500898
0.69469929 0.53086376 0.043461919 2631715
0.72835171 0.57780325 0.035065055 790285
0.72842467 0.57958651 0.036568999 855562
0.73127711 0.58092242 0.035110772 1315856
0.66347206 0.49069008 0.04468298 2500652
0.6661436 0.49200338 0.045302808 2566447
0.66786784 0.49604344 0.043850064 3487027
0.66903579 0.49717978 0.044477344 3355698
0.67098022 0.4988814 0.045109808 3224626
0.67786735 0.50905639 0.040930569 2960937
0.67936605 0.51196396 0.041939914 2895145
0.68176007 0.51405305 0.04245013 2829610
0.68286002 0.51659036 0.04204762 2632486
0.68454993 0.51921511 0.041646719 2369572
0.68664575 0.52178156 0.042015374 2435110
0.68847501 0.52326572 0.042144895 2435369
0.72798324 0.58122021 0.03307569 855818
0.72844064 0.58352447 0.033540606 921355
0.73222333 0.58810359 0.033391714 1644559
0.7333771 0.59072906 0.034395039 1775885
0.66114354 0.48944694 0.042928815 2500392
0.66217989 0.49040121 0.044059277 2565933
0.66412216 0.49408185 0.042389452 3289899
0.6660313 0.49494573 0.043196261 3355438
0.67290258 0.50593042 0.040371537 3026985
0.6739428 0.5081293 0.040264368 2829606
0.67602402 0.51002318 0.040894866 2829608
0.67709148 0.51252741 0.040551901 2632228
0.67979109 0.51462865 0.040722847 2435108
0.68091321 0.51719493 0.04132396 2435365
0.72847795 0.58680457 0.031054735 921867
0.72903329 0.59054005 0.031482041 1118473
0.73212934 0.59170926 0.030514002 1775888
0.73321998 0.59403074 0.030690432 1775891
0.65737623 0.48789066 0.040528655 2499883
0.65892833 0.48895621 0.041965842 2434601
0.66130865 0.49203759 0.040504992 3092522
0.66171777 0.49356323 0.041953087 3289644
0.66793567 0.5019995 0.038233995 3290159
0.66926968 0.50413793 0.039257348 2961450
0.67064583 0.50697124 0.039242923 2698278
0.6727379 0.5092777 0.03959167 2632226
0.67432904 0.51124835 0.039705634 2500641
0.67584968 0.51363939 0.040198624 2566177
0.7285403 0.58918226 0.029128075 1053195
0.72870386 0.59269321 0.028369904 1118735
0.7325387 0.59403622 0.02797091 1775891
0.73395967 0.59679776 0.027627945 1972752
0.65273702 0.48674917 0.039590597 2434349
0.65521657 0.48735732 0.039528787 2499629
0.65663385 0.4910368 0.039441347 3092524
0.6591568 0.4917376 0.040116131 3158317
0.66187358 0.49860629 0.037318707 3421488
0.66348743 0.50042957 0.037744701 3290158
0.66543251 0.50286162 0.038087368 3026987
0.66761482 0.50514692 0.038250923 2632742
0.72880614 0.59291232 0.026781857 1053453
0.72928512 0.59601259 0.025932729 1118988
0.73020983 0.59867781 0.026975155 1513231
0.73240495 0.60138518 0.025081277 1841162
0.73388231 0.60424495 0.024371386 3418131
0.65157378 0.48624802 0.03758496 2434341
0.65348095 0.48906928 0.037462354 3092009
0.65809828 0.49674714 0.035864949 3289897
0.65995371 0.49895668 0.036415219 3224364
0.66216516 0.50121099 0.036596358 3092779
0.72951728 0.5992468 0.023825645 1053197
0.73008287 0.6017127 0.023251474 1184266
0.73320568 0.60360086 0.023794949 2957844
0.73362994 0.60599852 0.024338961 3352086
0.64777803 0.48518461 0.036339819 2434343
0.64941329 0.48817819 0.036364079 3157801
0.65179288 0.4881593 0.035939574 3092265
0.65476328 0.49556535 0.034932852 3289641
0.65648973 0.49703294 0.034983993 3224105
0.65837604 0.49883348 0.034901738 3158823
0.72913563 0.60660303 0.021097481 1644044
0.64470679 0.48481408 0.03417778 2433830
0.64621967 0.48630583 0.034094751 2894376
0.64851391 0.48781884 0.034730494 3157799
0.65111595 0.49462926 0.032301784 3223846
0.65239948 0.49594283 0.032948792 3158310
0.65457523 0.49751824 0.033921361 3158822
0.72844565 0.60553163 0.018490136 2761239
0.6422925 0.48484677 0.032603502 2761765
0.64420074 0.48655277 0.03181994 2960679
0.64956242 0.49452773 0.031093001 3092517
0.63924611 0.48428494 0.03050983 3221540
0.64093184 0.48567367 0.030908585 2960668
0.64571375 0.49338442 0.02962333 3092262
0.64744854 0.4937695 0.028706849 3092003
0.72666228 0.61310291 0.01564455 3615526
0.63519335 0.48382491 0.029171407 4009513
0.63687211 0.48445061 0.028757095 4010272
0.64216346 0.4921121 0.027411997 3092001
0.64418507 0.49245167 0.027565479 2895134
0.72493035 0.61373597 0.012181997 4536106
0.63342667 0.48433089 0.027427137 5127204
0.63473982 0.48577151 0.026652515 4602901
0.63860768 0.49121392 0.02574867 2960673
0.6394425 0.49205354 0.026156545 2960672
0.63120973 0.48573124 0.024517775 5917230
0.63375378 0.48604119 0.024862885 5456411
0.63528901 0.49019343 0.023595095 3026194
0.63701934 0.49074945 0.024371445 2829339
0.72339857 0.61916745 0.0082230568 6707011
0.63148803 0.4868384 0.022711039 6443040
0.63287836 0.49009818 0.022773862 3354639
0.72175032 0.61662149 0.006115675 5917752
0.72250849 0.6203779 0.0052217245 7693383
0.72328514 0.6224438 0.0065077543 7890250
0.62807721 0.48757169 0.02108115 6706467
0.62928683 0.4891499 0.020838439 5523482
0.63181072 0.49082839 0.019180536 4537620
0.62547731 0.48837528 0.019097507 7495724
0.62712383 0.4902724 0.018927932 5654807
0.62902856 0.49115056 0.017873526 5260823
0.6230576 0.48906332 0.017178953 8152368
0.62553978 0.49066803 0.015351832 8021805
0.62742198 0.49200499 0.014918625 6246426
0.62025452 0.486541 0.013312638 11439171
0.6219061 0.48936045 0.014049411 10125124
0.62416905 0.49182227 0.013814807 7758890
0.61643934 0.48542279 0.012901843 11439687
0.61847574 0.48779812 0.012962162 11110984
0.61889726 0.49003291 0.013814151 9599295
0.62146205 0.49302346 0.012475312 7298598
0.61316586 0.48385876 0.011966467 11505741
0.61444175 0.48701477 0.01203388 11243343
0.61753362 0.49458712 0.0079836845 8679229
0.61512953 0.49422124 0.0063657165 9665353
0.61656183 0.49498931 0.0055437088 9862723
0.60526741 0.48396766 0.0041236281 11571796
0.60719681 0.48684478 0.0037558079 11308884
0.60871834 0.49025518 0.003909409 11111763
0.61059058 0.49230748 0.0044084787 10717263
0.61261737 0.49338749 0.0048318505 10454349
0.60198438 0.4832989 0.0039588213 11835483
0.60368782 0.48578244 0.0038010478 11506519
0.60535681 0.48872739 0.0036861897 11177555
0.60665965 0.4906683 0.00393188 10980175
0.71857333 0.53745174 0.057458103 2172463
0.72162127 0.54300624 0.057180226 2172207
0.72342956 0.5457238 0.057147324 2172208
0.72506708 0.54831725 0.057136774 2106926
0.72612005 0.55077529 0.057223618 2041129
0.72864807 0.55292779 0.056520522 2172204
0.73054636 0.55497885 0.056623459 2302767
0.73193794 0.5579583 0.056303024 2236972
0.73336762 0.56073117 0.05570972 2236465
0.73772985 0.56831467 0.055469036 1185306
0.71000731 0.52906024 0.056453824 2172461
0.71145636 0.53127313 0.056751728 2106673
0.71295059 0.5346033 0.057216227 2040878
0.71567309 0.5363692 0.057266712 2106673
0.71706331 0.5397473 0.057463467 2171948
0.71899289 0.5417977 0.057473898 2172205
0.7208395 0.54434055 0.057717025 2106926
0.73468697 0.56354928 0.05428642 2040109
0.73646605 0.56543559 0.053781271 1712158
0.73687708 0.56755781 0.054487884 1448478
0.70277035 0.52322245 0.055377483 2238254
0.70437145 0.52613026 0.056218684 2237999
0.70670563 0.52789199 0.056300461 2303532
0.70867592 0.52965903 0.056540906 2172460
0.7103498 0.53301525 0.057143331 2106665
0.72015345 0.54880631 0.052621245 2829358
0.7216863 0.550497 0.052451611 2763563
0.72296029 0.55249953 0.052707076 2829612
0.72465068 0.5550642 0.05226773 2763819
0.72633177 0.55772781 0.052568853 2763565
0.72871232 0.55984241 0.052070856 2697771
0.72993863 0.56276727 0.052211761 2763563
0.73193467 0.56480479 0.051180959 2697770
0.7330361 0.56799644 0.051064014 2500394
0.73455596 0.57013053 0.050306976 2039840
0.73716033 0.57290208 0.050035477 1907741
0.73835981 0.57441801 0.050864458 2170906
0.7405622 0.57714963 0.050994933 2433823
0.74193776 0.57934445 0.04977107 3748145
0.69766271 0.51933998 0.054563105 2369326
0.69975913 0.52127278 0.054953933 2369580
0.70074689 0.52395749 0.055521727 2303786
0.70221478 0.52548969 0.056328297 2369836
0.71107507 0.53793657 0.051405787 2698029
0.71294433 0.54127377 0.052035511 2698026
0.71473455 0.54397124 0.052799523 2698029
0.71707404 0.5458647 0.052664101 2763307
0.7183913 0.54866272 0.05302006 2698030
0.71948421 0.55030489 0.0531376 2829616
0.7215265 0.55428296 0.051308513 2829351
0.72263479 0.55688632 0.049934864 2895143
0.72457963 0.55841845 0.050188065 2763813
0.72612047 0.56170726 0.049602866 2763561
0.72797596 0.56318033 0.048972607 2763816
0.72932017 0.56608331 0.049016774 2763558
0.73143166 0.5687449 0.047760963 2434850
0.73246598 0.57154113 0.048500955 2040351
0.73447055 0.57365048 0.047766566 1579543
0.73608124 0.57605129 0.04818058 1842198
0.73755026 0.5785411 0.048042536 2170903
0.73940074 0.58102536 0.048325062 2302489
0.74125743 0.58376521 0.047273457 2104858
0.69071406 0.51311338 0.053420186 2106668
0.69256949 0.51595515 0.054234087 2369328
0.69459856 0.51760483 0.054590821 2565940
0.69597816 0.51936734 0.055050433 2500658
0.70248747 0.53048497 0.050976992 2895405
0.703861 0.53307825 0.051467359 2829359
0.70617563 0.53482276 0.05130291 2763822
0.70795751 0.53736091 0.051640332 2763821
0.70968604 0.53979355 0.052143574 2763819
0.71100825 0.54165375 0.052500069 2829354
0.71325648 0.54571354 0.048551202 2040608
0.71414745 0.54726493 0.049028873 2435108
0.71589184 0.55008698 0.049043536 2435108
0.71783364 0.55222064 0.049265206 2632232
0.71957815 0.55460954 0.049081624 2566695
0.72111559 0.55698109 0.04869765 2435364
0.72253948 0.55968535 0.046936393 2172446
0.72481835 0.56169176 0.046720743 2040863
0.7268219 0.56533307 0.049789369 2829610
0.73035502 0.56974876 0.04891336 2632229
0.73920166 0.58109617 0.045847118 2171159
0.68503654 0.51017046 0.052122653 2172206
0.687392 0.51151758 0.052416742 2106925
0.68836486 0.51301879 0.053186595 2172207
0.69373739 0.52123427 0.050213814 3026735
0.69538414 0.52414268 0.050660312 3026478
0.69744563 0.5257706 0.050696075 2960686
0.69935739 0.52863586 0.051000118 2960943
0.70060146 0.53035289 0.051278174 2895151
0.70427239 0.53626049 0.047974944 1975324
0.70536697 0.53938287 0.048485756 2172449
0.70754147 0.54128009 0.048321664 2304034
0.7093367 0.54349518 0.048742056 2435362
0.71128321 0.54573685 0.048919439 2369570
0.71306694 0.54815328 0.049152672 2566437
0.71479607 0.55017728 0.048825502 2106401
0.71661723 0.55329704 0.048342526 2106401
0.71873546 0.55561268 0.047608256 2172195
0.71946383 0.55810988 0.047202587 2237989
0.721066 0.56109071 0.046438634 2369312
0.72262853 0.56336105 0.046113133 2369312
0.72407728 0.56597787 0.045461535 2303520
0.72568643 0.5681411 0.044893503 1383186
0.72626203 0.57138389 0.045389652 1119762
0.67876643 0.50381655 0.050757051 2434864
0.68062711 0.50494707 0.050991952 2434866
