# .PCD v0.7 - Point Cloud Data file format
VERSION 0.7
FIELDS x y z rgba
SIZE 4 4 4 4
TYPE F F F U
COUNT 1 1 1 1
WIDTH 1116
HEIGHT 1
VIEWPOINT 0 0 0 1 0 0 0
POINTS 1116
DATA ascii
0.42004958 0.58702242 -0.010825455 1512197
0.6195128 0.59070057 0.076605856 1975558
0.62153369 0.59305114 0.076583743 2040832
0.6228376 0.59456778 0.076569498 1387037
0.61358315 0.58918691 0.074719787 2302258
0.61488694 0.59070331 0.074705541 2302258
0.616256 0.59229577 0.074690521 2173199
0.6365546 0.61492538 0.073572755 1579291
0.63924807 0.61564916 0.07423681 1645082
0.64256257 0.6222527 0.074417472 1579029
0.64342296 0.62367958 0.075747669 1973525
0.61128283 0.59049106 0.073217273 2302258
0.63112003 0.61259907 0.072619081 1382421
0.6325919 0.61508179 0.073829591 1447449
0.63483447 0.61602259 0.075061917 1644318
0.63692081 0.6184451 0.074636042 1512984
0.63863313 0.62078774 0.073615313 1710614
0.6419853 0.62686455 0.072626889 922377
0.64421207 0.62732363 0.072611153 922384
0.64566958 0.63008249 0.071493089 1053706
0.62441671 0.60925478 0.071792722 1382175
0.6277858 0.61071491 0.072294831 1381916
0.63278574 0.61845136 0.071232975 1711127
0.63481271 0.62082231 0.071591079 1579796
0.63577992 0.62414467 0.071546435 1447953
0.63872486 0.62464166 0.07109648 1513746
0.63934314 0.6270265 0.072685897 988429
0.64264834 0.63128608 0.070524573 1250828
0.60861266 0.59276867 0.071295619 2236465
0.62058407 0.60878104 0.070709944 1382177
0.62747377 0.61636651 0.069758177 1711382
0.62919116 0.61759186 0.069573283 1448725
0.63027275 0.6203686 0.071059704 1580053
0.63218927 0.62115371 0.070321202 1383190
0.63462776 0.62427026 0.070707321 1579540
0.63645673 0.62751639 0.071240604 1448465
0.63857454 0.62925225 0.070802927 1448460
0.6405952 0.62975794 0.070910692 1447949
0.60190058 0.59034526 0.069418073 3026478
0.60326964 0.59193754 0.069403112 1907997
0.60525799 0.59425026 0.069381356 2170672
0.6135332 0.60393524 0.067764521 1448985
0.61482704 0.60546994 0.068779647 1448479
0.61693704 0.60768867 0.069887638 1513764
0.62210089 0.61583006 0.068433285 1711639
0.62460226 0.61658895 0.069289327 1514772
0.62706584 0.61935383 0.069647789 1317397
0.6284973 0.62266207 0.068481028 1711381
0.63052607 0.62428981 0.06943363 1711125
0.63284558 0.62493378 0.069502831 1711383
0.5954932 0.58687246 0.067960382 1715232
0.59754682 0.589261 0.06793797 2436399
0.59953511 0.59157366 0.067916214 3091774
0.60633636 0.60101163 0.06656158 1777192
0.60890108 0.60316741 0.067467868 1448994
0.61102873 0.60470432 0.067823946 1448478
0.61230159 0.60671741 0.068704009 1448475
0.61777693 0.61155194 0.066631258 1842720
0.61842155 0.61466491 0.067422628 1645847
0.62115198 0.61653757 0.067430437 1514516
0.62538749 0.62090868 0.067510545 1645589
0.59076959 0.58676153 0.066061199 2105422
0.59282315 0.58915001 0.066038728 1976906
0.6033268 0.60075504 0.065638483 1711405
0.61006904 0.60966241 0.0655604 2040348
0.61279577 0.61070031 0.065270424 1974556
0.61490071 0.61364895 0.066404343 1776919
0.61689246 0.61626172 0.065883458 1777430
0.61953807 0.61907947 0.067457199 1842962
0.62146199 0.62019211 0.067174375 1777168
0.58768183 0.58722699 0.064653337 2497623
0.59938341 0.59998107 0.064564824 1909029
0.60545957 0.60635108 0.063320637 2237981
0.60657048 0.60896099 0.063785493 2106144
0.60839349 0.61056155 0.064080715 1909018
0.61128473 0.61302769 0.064740241 1974043
0.61330885 0.61471456 0.064569533 1909017
0.59191555 0.59516394 0.061600327 2303013
0.59368962 0.5962773 0.061714351 2303016
0.59513801 0.59966278 0.063300431 2237221
0.60172266 0.60639071 0.062487245 2369564
0.60302788 0.60850775 0.063341498 2172190
0.60489798 0.61000681 0.064158797 2040606
0.60662472 0.61326045 0.063141465 2106391
0.60858005 0.61369038 0.063249946 2040350
0.58220857 0.58624405 0.06276232 2826784
0.58426207 0.58863246 0.062739849 2563612
0.58754277 0.59508449 0.060073137 2303018
0.5893181 0.59593409 0.060288966 2303269
0.59128141 0.5983544 0.062412083 2171428
0.59548897 0.60394168 0.059555888 2566181
0.59792811 0.60581785 0.061343491 2435107
0.59927624 0.60743654 0.06221509 2304034
0.60233033 0.61060226 0.06101954 2368798
0.6040259 0.61238372 0.061883569 2171929
0.57814187 0.58682036 0.060769796 2436118
0.57951087 0.5884127 0.060754836 3089956
0.58536881 0.59536326 0.059250474 2368561
0.58675778 0.59846979 0.060802221 2237474
0.5934872 0.60469449 0.059435725 2304034
0.59517866 0.60600036 0.060769558 2435364
0.59679371 0.61100048 0.059958339 2566174
0.59970862 0.61047983 0.060734093 2369057
0.57368523 0.5856933 0.059376895 2499635
0.57573873 0.58808184 0.059354484 2436118
0.58221453 0.59503239 0.05823493 2368814
0.5838477 0.59799701 0.060005188 2303278
0.58918262 0.60403121 0.058162332 2566689
0.59158105 0.60538709 0.059322476 2500641
0.59269172 0.60922939 0.057579637 2698016
0.5949266 0.60982621 0.058902144 2566431
0.56688404 0.58154899 0.055692852 2500134
0.56825304 0.58314133 0.055677891 2500134
0.56883109 0.58543086 0.057479084 2565927
0.57020009 0.58702314 0.057464123 2565927
0.57859594 0.59588575 0.056562543 2500648
0.58572799 0.60329378 0.056555331 2501153
0.58619207 0.60532385 0.057751179 2435616
0.59054202 0.60830808 0.057575166 2632221
0.57662272 0.59533644 0.056145132 2435117
0.5809989 0.60325933 0.055279672 2698018
0.58309883 0.60401559 0.056559145 2763557
0.58512396 0.60765928 0.054192364 2697760
0.5875296 0.60876912 0.055565774 2566683
0.55951566 0.5791707 0.054726362 4539151
0.56088471 0.58076304 0.054711401 3486736
0.56293821 0.58315146 0.054688931 2499884
0.5646615 0.58596444 0.055573821 2105376
0.5660305 0.58755678 0.05555886 2500134
0.57191771 0.59619731 0.054112315 2500911
0.57411665 0.59655535 0.054816961 2435121
0.57794166 0.60238498 0.053967595 2698276
0.57917595 0.60381758 0.05550468 2566940
0.58186978 0.60860282 0.053337812 2763804
0.5546478 0.57885367 0.052785635 5129508
0.55673403 0.58128005 0.052762806 4931624
0.56689352 0.593499 0.051109612 2500905
0.56740129 0.59676814 0.052504182 2435369
0.56961221 0.59658825 0.053189337 2631977
0.57392907 0.60256571 0.05271709 2894884
0.57928514 0.6085791 0.052915037 2764060
0.55187672 0.57884014 0.050427496 3352320
0.56397271 0.59514916 0.050707281 2632235
0.56517363 0.59656501 0.0516119 2435628
0.56872934 0.60213852 0.050789773 2829853
0.57160485 0.6022923 0.051906109 2698272
0.57611728 0.60790026 0.051063538 2763804
0.56031978 0.59345746 0.048724949 2631718
0.56174225 0.5945552 0.050079346 2631975
0.56592625 0.60063726 0.048603356 2764062
0.56602168 0.60235262 0.050395548 2829855
0.5719986 0.60690385 0.050037444 3026970
0.55375546 0.59045237 0.047597587 3943968
0.55670696 0.59234327 0.048696816 2959655
0.55794203 0.59504974 0.049737573 2763302
0.56140387 0.60047096 0.047506988 2764067
0.56385183 0.60096741 0.048305511 2698273
0.56832761 0.60614324 0.047227323 2960924
0.568977 0.60817349 0.049043536 3026969
0.55084389 0.58932102 0.046763718 5454873
0.55765408 0.5996834 0.046330214 2697511
0.55864334 0.60134101 0.046587288 2961446
0.56411356 0.60705292 0.046198964 3092761
0.56619442 0.60845 0.048419058 3027225
0.55274421 0.59742397 0.044365287 4011796
0.55411953 0.59878367 0.04543674 3617048
0.55639976 0.60049856 0.046395957 3354397
0.55891216 0.6059711 0.044637859 3092511
0.56129616 0.60670298 0.045915723 3158556
0.54965627 0.59760517 0.043104887 6115349
0.55567414 0.60458869 0.043353498 3157283
0.54977989 0.60257727 0.040864587 4602632
0.55216098 0.60384858 0.043148041 4076566
0.54791528 0.60365832 0.041429698 5655068
0.48269933 0.62783891 0.0020654202 1315846
0.48764873 0.63268828 0.0025908351 1117954
0.48895183 0.63446069 0.0016685128 788740
0.51266861 0.66064638 0.0040278435 1712140
0.51491767 0.66326243 0.0040032864 3091719
0.43845287 0.5802784 0.0009354353 1644806
0.45324188 0.59762496 0.00013965368 2039310
0.48033133 0.6275022 0.0022038817 1447174
0.48441789 0.630835 0.00096994638 1381386
0.48553389 0.6342383 0.0021153688 1972746
0.50781339 0.66163212 0.0015347004 3684360
0.50931275 0.66337603 0.0015183091 1712140
0.43187436 0.57734674 -0.00068885088 1250823
0.43473044 0.58122903 0.00010538101 1447431
0.43932459 0.5821569 -9.9778175e-05 1776138
0.4440203 0.58722043 1.6689301e-06 1710088
0.44871414 0.59267986 -4.9710274e-05 2039559
0.46737558 0.61684972 -0.0010842681 1775627
0.47093791 0.62189829 -0.0010080934 1711116
0.47562122 0.62559706 7.4267387e-05 1316102
0.48124209 0.63105237 0.00019711256 1578247
0.48206711 0.63667178 1.8119812e-05 1184258
0.43567598 0.58318895 0.00045871735 2828304
0.43717542 0.58493298 0.00044232607 1578240
0.43784851 0.58716094 -0.00027394295 1775622
0.44041872 0.58827114 -0.00017809868 1708804
0.44242328 0.59103692 0.0003849268 1184512
0.44429448 0.59448886 -0.0013970733 2236425
0.44807917 0.59902543 -0.00039166212 2303238
0.44961265 0.60053939 -0.0007096529 2960135
0.45216954 0.60237277 0.00027835369 4012288
0.45441866 0.60498881 0.00025379658 5785899
0.45527023 0.60628331 -0.0016067624 2236686
0.46158794 0.6129809 -0.002004385 2039053
0.46354759 0.61828554 -0.0020307899 1578249
0.4716996 0.62501138 -2.1278858e-05 8545327
0.4741748 0.62775636 -0.00072926283 6310942
0.47626314 0.63031918 -7.1167946e-05 8283943
0.47684965 0.63309962 -0.0013841987 3683089
0.47926193 0.63380712 -0.0001039505 4406537
0.48048291 0.63610888 -0.0013230443 2037784
0.48198438 0.63856143 -0.0029403567 1315331
0.4892911 0.64587432 -0.0017556548 3351057
0.50106877 0.65917063 -0.00034242868 7562009
0.50331777 0.66178668 -0.0003670454 6050346
0.50481725 0.66353071 -0.00038343668 3684360
0.40322527 0.54946601 -0.0031581521 9929014
0.40465993 0.55297899 -0.003303647 10059321
0.40725037 0.55471051 -0.0030713081 10192452
0.41065109 0.56035578 -0.003410399 10192448
0.41264597 0.56134117 -0.0037291646 9730344
0.41489506 0.56395727 -0.0037537813 10190900
0.41665494 0.56607044 -0.0037984848 6641693
0.41864365 0.56831717 -0.0037947893 7756614
0.42089272 0.57093316 -0.0038193464 6110309
0.4223921 0.57267714 -0.0038357377 2297106
0.42461821 0.57520622 -0.0035287142 1443848
0.42689037 0.57790911 -0.0038849711 1639432
0.42829418 0.57791114 -0.0015398264 1118727
0.43087432 0.58268785 -0.00097775459 987653
0.43130469 0.58481449 -0.0019536018 3482140
0.4390398 0.59464985 -0.0018975735 1907464
0.44150227 0.59477562 -0.0017983317 2104585
0.44335139 0.59878767 -0.0021283627 1382912
0.44561934 0.60138708 -0.0021961927 2303232
0.4546811 0.61192679 -0.0022952557 7621693
0.45766327 0.61404324 -0.0024448037 4995100
0.45917928 0.61715871 -0.0023444295 8082965
0.46067876 0.61890274 -0.0023608804 8017669
0.46292788 0.62151861 -0.0023854375 8873516
0.46517697 0.62413466 -0.0024100542 8874053
0.46760276 0.62547147 -0.0031001568 4273427
0.46824104 0.62769848 -0.002443552 8282926
0.46984208 0.62974894 -0.0026490092 1579266
0.47351924 0.63436788 -0.002704978 2366979
0.47719854 0.63660675 -0.0032336712 1710082
0.48022947 0.64125282 -0.0034080744 1445394
0.48180097 0.64347011 -0.0025918484 1640201
0.49386159 0.65749776 -0.0027236938 10387052
0.49617589 0.66018957 -0.0027490258 9204015
0.4057745 0.55868477 -0.002869308 10127165
0.40825418 0.56017411 -0.0034595132 10258495
0.41238648 0.56558776 -0.0036222935 9470001
0.41451856 0.56625795 -0.0038758516 6641942
0.41612303 0.57147026 -0.0041372776 3155212
0.41802078 0.57220995 -0.004404068 1380616
0.42018062 0.57298905 -0.0045718551 920841
0.42413723 0.57962751 -0.0027374029 987397
0.43552795 0.5930177 -0.0056914687 1972749
0.44330111 0.60047913 -0.0021636486 2171403
0.4508369 0.60914606 -0.0043476224 2499340
0.4552035 0.61437017 -0.003237009 2105100
0.45888489 0.61830574 -0.005456984 2368264
0.45949355 0.62004459 -0.0033154488 1381636
0.46234575 0.62236971 -0.0048543215 1971713
0.4641616 0.62506121 -0.0037284493 1907461
0.46724856 0.62960356 -0.0027977824 1776387
0.47814995 0.63947183 -0.0042660832 1577223
0.48104143 0.64482909 -0.0046585798 1906699
0.4824073 0.64806944 -0.0050184727 1315077
0.48471236 0.6487329 -0.0042113066 1181700
0.48719856 0.6527822 -0.0054345131 7492649
0.49117395 0.65779543 -0.006436944 6771209
0.49331033 0.65841043 -0.005164206 10783025
0.50101519 0.66774207 -0.005332768 6112268
0.50365531 0.66989064 -0.0052967072 7229715
0.50499254 0.67229742 -0.0057538748 7559186
0.50683171 0.67348677 -0.0056405663 7888156
0.5091939 0.67872411 -0.0040783882 4863506
0.40467966 0.55967093 -0.0051124096 9665069
0.40696138 0.56232488 -0.0051373243 9927983
0.40933445 0.56530762 -0.0039188862 9995062
0.41030931 0.56710458 -0.0041841865 9926988
0.41255838 0.56972051 -0.0042088032 9992774
0.41426724 0.57174647 -0.0041844249 8349744
0.416307 0.57408047 -0.0042497516 10321249
0.41780639 0.57582444 -0.0042662024 10255456
0.41924781 0.57800996 -0.0047086477 4997412
0.42236978 0.58113229 -0.0043160915 8153694
0.42446584 0.58261794 -0.0053032637 4471597
0.42611837 0.58549219 -0.0043570399 4930863
0.43335906 0.59224087 -0.0061066747 1840907
0.43389744 0.59519947 -0.0068922043 2300944
0.43706256 0.59525615 -0.0059980154 2038540
0.44057474 0.60100788 -0.0058667064 2564625
0.44298097 0.60506684 -0.0063768029 2630925
0.44548503 0.60831314 -0.0072262287 2565132
0.44760272 0.6098091 -0.0051435232 2499338
0.45132062 0.61558789 -0.0043550134 2105100
0.45370787 0.6169464 -0.0062649846 2301186
0.45623514 0.61886239 -0.0062081218 2169859
0.45908606 0.62129128 -0.0061685443 1971970
0.4636406 0.62647742 -0.0059443712 2170118
0.46710542 0.63419122 -0.0048525333 3416327
0.46894214 0.63590825 -0.004942894 2957061
0.47128859 0.63679326 -0.0048387647 2498049
0.48152435 0.64862394 -0.0057314634 1707274
0.48290581 0.65146494 -0.0050641298 1510144
0.48439923 0.65359801 -0.0063309073 2497038
0.48663083 0.65590602 -0.0056475401 8019736
0.48894504 0.65860051 -0.0054040551 11045972
0.49046814 0.66026068 -0.0051467419 11112289
0.49212861 0.66369843 -0.0066682696 4800017
0.49492809 0.66528553 -0.0061738491 7692070
0.49722573 0.66808635 -0.0066529512 7625747
0.49942613 0.66916096 -0.0067430139 10453020
0.50153691 0.6703794 -0.0067539811 10518834
0.5015198 0.67370957 -0.0048021674 5059862
0.50371456 0.67695993 -0.0054407716 5323035
0.50630677 0.67934597 -0.005574584 5453849
0.41676581 0.57802898 -0.0052187443 1184516
0.41915065 0.58269423 -0.0063177943 8875840
0.42099905 0.58412123 -0.0081418753 1118467
0.42816198 0.59220833 -0.0078952312 1512204
0.43013084 0.59368134 -0.0078343153 1709580
0.4326618 0.59612215 -0.0077268481 2432522
0.43537855 0.6026302 -0.0069026351 1577220
0.43786371 0.6039204 -0.0071249008 2367240
0.44023839 0.6047824 -0.0068840384 2499084
0.44359618 0.61024541 -0.0071718693 2038022
0.44771826 0.6151619 -0.007379353 2301444
0.45021075 0.61628735 -0.0068991184 2235396
0.45077118 0.61906576 -0.007316947 2366726
0.45505831 0.62527597 -0.0067929626 2891776
0.45789549 0.62534934 -0.0060478449 2563328
0.45848414 0.62865502 -0.0074073672 4008458
0.4657791 0.63458735 -0.0068542361 2169604
0.47367284 0.64368314 -0.0078328252 1708553
0.4793838 0.65072328 -0.0062556267 1709319
0.48231363 0.65220994 -0.0080363154 1378830
0.48285767 0.65484935 -0.0071937442 1641733
0.48538169 0.65695083 -0.0087512732 4336399
0.48695496 0.65871441 -0.0069506168 5716755
0.48730317 0.66229659 -0.0078849792 8546348
0.4904871 0.66422957 -0.0067777038 7626014
0.49243444 0.6663307 -0.0073142052 6967043
0.49470502 0.66741395 -0.0070880651 8744203
0.49855953 0.67597073 -0.0069594979 8283148
0.40476462 0.5676052 -0.0091040134 9993007
0.40641478 0.56921637 -0.0094663501 9795891
0.41849211 0.58350343 -0.0085340142 1182976
0.42435452 0.59138304 -0.009005487 1183237
0.42420548 0.59309679 -0.0086875558 1249282
0.429878 0.59752691 -0.0076862574 2103305
0.43256837 0.60082364 -0.0071632862 1709062
0.43379414 0.60305965 -0.007930994 2235913
0.43580589 0.60436624 -0.0076141357 1906180
0.43815646 0.60735458 -0.00785321 1577474
0.43962747 0.60912555 -0.0076032281 2038021
0.44167989 0.61078948 -0.0076370835 2498824
0.44510406 0.61351413 -0.0078854561 1971458
0.44561833 0.61558002 -0.0076450109 2630403
0.45116594 0.6227985 -0.0090405345 2366981
0.45370752 0.62490714 -0.0082226992 4205833
0.45560056 0.62744284 -0.0072728992 5913359
0.45871055 0.63122696 -0.007717967 5649936
0.46116942 0.63473594 -0.0081481338 4336396
0.46522456 0.63998902 -0.0090536475 4862479
0.4672626 0.64074606 -0.0086879134 4731152
0.4687326 0.64277673 -0.0089428425 4139538
0.4701989 0.64559925 -0.009503305 2561804
0.48239076 0.65946066 -0.0083000064 7952167
0.48536035 0.66119677 -0.0079619884 9335092
0.4877435 0.66416496 -0.0073698163 4862214
0.49049622 0.66849267 -0.010722935 10518304
0.50013936 0.67856163 -0.0077284575 8940560
0.50151247 0.68133092 -0.0084247589 9006616
0.50275558 0.68381697 -0.0090688467 8875535
0.4044618 0.57216799 -0.0097156167 9927468
0.40618506 0.5741114 -0.010134935 9927723
0.40876666 0.57678825 -0.010693312 8152110
0.41026807 0.57902128 -0.0099330544 5850650
0.41177529 0.58201528 -0.0095586777 5784358
0.41492042 0.5843212 -0.0097100139 2628617
0.41786233 0.5861342 -0.01074338 1183750
0.41864276 0.58929259 -0.010228336 2496790
0.42067876 0.59044558 -0.010015368 1313799
0.42212254 0.59302974 -0.0099160075 1380869
0.42421776 0.59638023 -0.0090176463 1380101
0.42630818 0.59668928 -0.0094206929 1775367
0.44245273 0.61565506 -0.0085901618 2695941
0.45482585 0.63098788 -0.0096650124 2497282
0.46315789 0.63938671 -0.009607017 5059090
0.47698888 0.6571722 -0.0092540383 1642250
0.47862756 0.65918958 -0.0095459819 3612172
0.48778173 0.66818535 -0.011093438 9730070
0.40454486 0.57622862 -0.0097349286 9926957
0.40618178 0.57864171 -0.010179639 10124592
0.4078874 0.58033913 -0.010319471 10124856
0.41042992 0.58333755 -0.010632932 7231278
0.41251084 0.58591777 -0.011141002 4403745
0.41467437 0.58689356 -0.011093616 3023643
0.41640747 0.58870387 -0.010744691 3876129
0.4179416 0.59193867 -0.010335445 986113
0.41963267 0.59383744 -0.01142627 1446404
0.45217711 0.63062447 -0.0099853873 2562304
0.4817414 0.6680963 -0.011839986 6044944
0.48503029 0.66777921 -0.011326611 7887634
0.49087265 0.67587745 -0.011428118 10387749
0.49282044 0.67992544 -0.012943089 10716195
0.40791813 0.58373386 -0.011146784 6311213
0.41413519 0.59183794 -0.011434257 1380866
0.49424243 0.68225563 -0.013796329 10716717
0.61282974 0.58985084 0.076449454 2302755
0.61375695 0.5916993 0.077300012 2302507
0.61512601 0.5932917 0.077284992 2368548
0.61104232 0.59336877 0.076748729 2170416
0.62945116 0.61378354 0.074039221 1447703
0.63873571 0.62269104 0.075010717 1644817
0.6403144 0.62530571 0.076660216 3222560
0.62442809 0.61058128 0.073658824 1579038
0.6247251 0.61297083 0.074412644 1644573
0.62689453 0.61466324 0.074091196 1513495
0.62884015 0.61702216 0.075073719 1579030
0.63146615 0.61918211 0.075041413 1710623
0.63366652 0.62124515 0.07486105 1775646
0.63559699 0.62424231 0.074551344 2039317
0.63737667 0.6258322 0.074427009 2039827
0.6070683 0.5941298 0.07484138 2040079
0.6088329 0.59537357 0.073918283 2171417
0.62058055 0.61031699 0.072431386 1644829
0.6220414 0.61118376 0.073775649 1644575
0.6280098 0.61961281 0.071289361 1711126
0.62962592 0.62231833 0.071995318 1448207
0.63146126 0.6233148 0.072296619 1513747
0.63300616 0.62528718 0.07267487 1316369
0.63452017 0.62694967 0.07234925 923147
0.63759279 0.63064307 0.072847843 2500375
0.60410911 0.59526283 0.072019041 1910312
0.6065582 0.59730268 0.071088493 2236962
0.6166684 0.6098448 0.071255565 1579808
0.61853951 0.6102196 0.07181102 1644830
0.62368262 0.61871153 0.070675671 1580052
0.62512577 0.62090445 0.071185052 1579540
0.62777603 0.62263584 0.072185516 1579538
0.63049018 0.62554002 0.072869539 1119760
0.63128746 0.62746876 0.070394933 1579540
0.63383371 0.62765777 0.070853412 1513747
0.6388219 0.6341868 0.071213365 2565904
0.59675574 0.58995807 0.069754064 2697521
0.59874409 0.59227073 0.069732308 2695755
0.60042101 0.59499127 0.070574641 2108189
0.61196774 0.60879785 0.070072591 1579809
0.61462671 0.60987943 0.070584297 1710624
0.61950493 0.61798245 0.069328606 1711382
0.62060791 0.62029368 0.070001066 1580307
0.6251241 0.62391615 0.068727374 1777176
0.62653917 0.62745762 0.069834352 1645332
0.62853217 0.62785441 0.069856286 1710870
0.59066302 0.58825481 0.067869842 2432582
0.59203207 0.58984721 0.067854822 2235459
0.59364378 0.59249187 0.068697929 2370323
0.59532064 0.59521234 0.069540322 2371665
0.59668976 0.59680468 0.069525361 2042957
0.60372913 0.60358691 0.066981375 1711397
0.60598421 0.60581398 0.068207145 1514531
0.60826951 0.60761809 0.069319367 1514272
0.61358029 0.61351931 0.067459285 1843227
0.61520493 0.61736077 0.068195462 1777174
0.61791295 0.61897337 0.068871558 1777686
0.6200099 0.62106365 0.069155931 1843216
0.6225782 0.62359536 0.068319798 1777427
0.6240623 0.62642097 0.069731653 1776917
0.58825988 0.5895164 0.066454411 2889556
0.58956009 0.59256881 0.068161666 2368050
0.59161365 0.59495741 0.068139195 1909772
0.60053384 0.60401481 0.065772295 1842478
0.60171682 0.60512942 0.068056703 1776928
0.60329342 0.6064111 0.068020046 1711137
0.60893095 0.61249352 0.066232681 1908759
0.61022139 0.61481595 0.066539228 1909017
0.61188138 0.61622894 0.067037761 1908506
0.59619486 0.60358948 0.065606713 1974050
0.59800398 0.60421324 0.065923989 1908258
0.59954172 0.60567194 0.067132235 1776933
0.60298336 0.61166692 0.065636158 2040858
0.60644531 0.61231971 0.065910578 1974552
0.60763645 0.61584258 0.065597415 1974553
0.60971165 0.61750066 0.067021012 2105881
0.58145517 0.58690798 0.064491928 2829099
0.58350867 0.5892964 0.064469457 2760991
0.58556223 0.591685 0.064446986 3087447
0.59162945 0.60175866 0.063569427 2171430
0.59484774 0.60242927 0.06448245 2105635
0.59798294 0.60881901 0.062932611 2369565
0.60054469 0.61027521 0.063990474 2106651
0.60185754 0.61314845 0.064153075 2106140
0.60377455 0.6156556 0.064276159 2106389
0.5773508 0.5875175 0.06258589 2633497
0.57871979 0.58910984 0.06257093 2829099
0.58683342 0.60007018 0.062591195 2303008
0.58887202 0.60069519 0.063007891 2171683
0.59440386 0.60924339 0.061326444 2238499
0.59603429 0.60989881 0.062710047 2369566
0.59877634 0.61228788 0.062582612 2237983
0.5996806 0.61593693 0.063483536 2303513
0.58174276 0.59755993 0.059487402 2303278
0.58372498 0.59996343 0.061567307 2106410
0.58933508 0.60593683 0.059694231 2632222
0.59034562 0.60797656 0.060449898 2435356
0.59251761 0.60902005 0.061457813 2435362
0.59376204 0.61211032 0.062085509 2435103
0.59623998 0.61294514 0.061861396 2500636
0.57077813 0.58931267 0.059265256 2565927
0.57214713 0.59090495 0.059250295 2171169
0.57351619 0.59249723 0.059235275 2436118
0.57954133 0.59772944 0.058579147 2434598
0.58051312 0.5999462 0.060579658 2237487
0.58656657 0.60712445 0.05907315 2501151
0.58834201 0.60976464 0.060393929 2501146
0.59057122 0.61080444 0.059231281 2566427
0.57499617 0.59845525 0.056783438 2368812
0.57743394 0.59782016 0.057857692 2434598
0.5783391 0.60022503 0.059757054 2369064
0.58233106 0.60623753 0.057857931 2501152
0.58424735 0.60647237 0.058197677 2697760
0.58541864 0.61114013 0.058592677 2632220
0.58994806 0.61464298 0.059856772 2631967
0.56243622 0.58499342 0.057405591 2497312
0.56387043 0.58666164 0.057389915 2694691
0.56592399 0.58905005 0.057367444 2893353
0.56797761 0.59143865 0.057345033 2697513
0.57473391 0.60119891 0.058102012 2303526
0.57843107 0.60664594 0.056754053 2566943
0.58282077 0.61024362 0.05531925 2632733
0.58309108 0.61325765 0.056939423 2566685
0.55344248 0.579916 0.055553079 7633510
0.55552864 0.58234245 0.05553025 6513507
0.5568977 0.58393484 0.055515289 5265200
0.55895126 0.58632326 0.055492818 2828567
0.57142425 0.59933525 0.055178881 2369064
0.57216185 0.60265988 0.055437982 2566693
0.57447034 0.60515362 0.05485028 2632738
0.57579935 0.60666168 0.056237698 2567198
0.57867521 0.61056948 0.054544806 2632986
0.5670135 0.59935504 0.053712606 2500386
0.57043964 0.60452104 0.053799987 2829857
0.57418031 0.60873932 0.052017629 2829595
0.57582605 0.6110341 0.053819239 2698773
0.56377333 0.5993607 0.052588344 2566182
0.56719071 0.60411292 0.052290916 2961183
0.57129461 0.60897332 0.051480412 2895639
0.57320046 0.61170316 0.053228319 2764312
0.55276108 0.59158689 0.049272835 5590309
0.55399776 0.59521812 0.050614476 3683358
0.55578792 0.5968467 0.050884724 3157030
0.55869401 0.59817713 0.051350653 2894371
0.56149417 0.60012448 0.051649332 2631720
0.56288743 0.60356486 0.050530732 2961441
0.56504023 0.60472381 0.051543772 2830116
0.56817335 0.60954064 0.050828159 2961430
0.55884659 0.60217702 0.048898757 3223591
0.56034678 0.60320199 0.049621284 3158569
0.56431234 0.60921776 0.049154758 3027480
0.55234587 0.60006988 0.047396541 6577193
0.55475938 0.60192102 0.047679305 3815200
0.56042427 0.60865396 0.047446489 3289886
0.56257015 0.61012691 0.049665868 3027482
0.54927719 0.5996213 0.045191467 7364659
0.55508554 0.60603482 0.045143783 3354915
0.55646801 0.60855395 0.046744585 3289378
0.54832149 0.60150522 0.045960009 7694636
0.55142117 0.60555559 0.044830263 4734743
0.54659098 0.60422087 0.043296456 8283970
0.54847044 0.60571373 0.044293702 7102253
0.51183993 0.66137671 0.0059304237 6182498
0.51333934 0.66312075 0.0059140325 5657694
0.50395083 0.6642943 0.0016056299 7494743
0.50545031 0.66603827 0.0015892386 6836813
0.43271995 0.58823198 1.0550022e-05 6177045
0.43421939 0.58997601 -5.8412552e-06 5979667
0.43571877 0.59171999 -2.2232533e-05 6505012
0.44621471 0.60392785 -0.00013703108 6638848
0.44771418 0.6056717 -0.00015342236 7230464
0.44999591 0.60832572 -0.0001783371 7690515
0.46281114 0.62315428 -0.00040459633 10124094
0.46431056 0.62489831 -0.00042098761 9926715
0.46587521 0.62671804 -0.00043809414 10586424
0.46737462 0.62846208 -0.00045448542 10718010
0.4696238 0.631078 -0.00047910213 10717507
0.4722513 0.63395458 -0.0013061166 6049821
0.47337228 0.63543797 -0.00052005053 10323760
0.47565404 0.6380918 -0.00054502487 8415748
0.47793576 0.6407457 -0.00056999922 4925528
0.49605924 0.66182518 -0.00076818466 9927729
0.49755859 0.66356909 -0.00078457594 9927728
0.4990581 0.66531312 -0.00080096722 8807501
0.50062263 0.66713297 -0.00081807375 8807244
0.4263604 0.58470768 -0.0025629997 790786
0.43251455 0.58826262 -0.001478374 1514248
0.4363158 0.5943529 -0.0020449162 1644293
0.44060266 0.60068703 -0.0023780465 2171659
0.45696449 0.620107 -0.0035158992 1381380
0.4765307 0.64199579 -0.0031073689 1577991
0.40563095 0.56414491 -0.0033512115 9995323
0.40782079 0.56543165 -0.0028913617 10060848
0.40953699 0.5688355 -0.0029302239 9994566
0.41113326 0.57101113 -0.0042842627 8877859
0.42071447 0.58058447 -0.003554821 1578503
0.42210758 0.58486414 -0.003087759 1843984
0.42750123 0.58887178 -0.0023925304 7031124
0.42861301 0.59041947 -0.0026180148 4009002
0.43125835 0.59434563 -0.0023949146 1316868
0.43259126 0.59569943 -0.0030277371 1381379
0.43506345 0.59766752 -0.0024752617 6570804
0.43674049 0.60050786 -0.0028930306 4207620
0.43887717 0.60210329 -0.0025169849 6573056
0.44112635 0.60471928 -0.0025415421 7560192
0.44270471 0.60692054 -0.0028146505 3484419
0.44559467 0.60851723 -0.0035564899 1973253
0.45018801 0.61525893 -0.002640605 7820836
0.45168746 0.6170029 -0.0026570559 8543312
0.45388746 0.62018216 -0.0033817887 5719584
0.45625091 0.62231064 -0.0027070045 10322717
0.4585 0.62492669 -0.0027315617 10124834
0.46085906 0.62625003 -0.0039464831 1776643
0.46292105 0.63172919 -0.0041110516 2237707
0.46840581 0.63625151 -0.0034580827 2235402
0.47183105 0.64161527 -0.0034471154 1315843
0.47822568 0.64779276 -0.0030332804 2821415
0.48012981 0.64924383 -0.0042063594 986118
0.48960167 0.66102433 -0.0031576753 11836192
0.49188346 0.66367811 -0.0031826496 10783576
0.49928257 0.67351663 -0.0054711699 5454362
0.40362197 0.56514376 -0.0036845207 9863472
0.40577137 0.56798369 -0.0030292273 10126898
0.40753636 0.56909949 -0.0034981966 10324532
0.40911984 0.57287544 -0.0041424632 9795681
0.41068441 0.57469529 -0.0041595697 9993264
0.41353324 0.57679456 -0.0043027401 8218665
0.41518259 0.57992721 -0.0042087436 10584103
0.41702825 0.58176589 -0.0045731664 3155476
0.42124549 0.58697891 -0.0042750239 8480805
0.42274499 0.588723 -0.0042914152 7952471
0.42477325 0.59047854 -0.0037928224 4731950
0.43365353 0.60269022 -0.0039767623 2565641
0.43817997 0.60789919 -0.0038892627 1644804
0.44891304 0.61568034 -0.0042828321 1974282
0.45084402 0.62113976 -0.0044968724 2169861
0.45763367 0.62703866 -0.0046133995 2498824
0.4620252 0.63314354 -0.0057380199 4336905
0.46466431 0.63351727 -0.0051944852 3745031
0.47570381 0.64959705 -0.0066744089 1644293
0.47891301 0.65397537 -0.0049916506 1638403
0.48078966 0.65649319 -0.005102396 4467237
0.48352474 0.65903777 -0.0056779385 7361296
0.48504105 0.66110289 -0.0050587654 12954172
0.48766252 0.66326416 -0.0053825378 10718506
0.49340764 0.67025232 -0.0061988235 6900279
0.49571145 0.67210466 -0.0052897334 7624494
0.49686095 0.67541122 -0.0043624043 9402437
0.49898618 0.67852491 -0.0048633814 9007682
0.5005967 0.6805653 -0.0052919388 8482362
0.50289917 0.68083388 -0.0046235919 8283699
0.50430208 0.68318468 -0.0050305128 7889457
0.50560099 0.68575668 -0.0054521561 7298614
0.40932649 0.5756619 -0.004486084 10127164
0.41194457 0.58138579 -0.004907012 7956784
0.41373765 0.5824787 -0.0052393675 4996635
0.44479442 0.61723149 -0.0055158734 2236677
0.4468832 0.61924636 -0.0069983006 5782286
0.44830152 0.62120169 -0.0059748292 4535565
0.45163697 0.62294203 -0.0068089366 5914124
0.4515802 0.62775141 -0.0054422617 4930081
0.45463502 0.62737215 -0.0048912168 3747865
0.45924035 0.63283539 -0.0056186318 4601873
0.46345612 0.63930082 -0.0055126548 3483919
0.47293186 0.64959931 -0.0074201226 1578757
0.47512633 0.65076494 -0.0054085255 1512964
0.48117757 0.65834677 -0.0062615275 3809280
0.48307025 0.6639713 -0.0064400434 5652253
0.48582357 0.66398162 -0.006054163 6837806
0.49028084 0.66898394 -0.0062066317 8743478
0.49118322 0.67197835 -0.0073292255 7231764
0.49434927 0.67312777 -0.0070080757 6706434
0.49639294 0.67466623 -0.0071710944 8020739
0.50189525 0.68523782 -0.0067514181 6114310
0.41527706 0.58674675 -0.006669879 10125875
0.4175913 0.5894385 -0.0066952109 9731129
0.42477027 0.59828103 -0.0088127851 2629133
0.42709777 0.60017478 -0.0083526373 1906696
0.4299092 0.6017161 -0.0081245303 1775622
0.43539169 0.6096651 -0.0079208016 2234629
0.43621749 0.61126119 -0.0081160069 2168834
0.43977773 0.61491889 -0.0088943839 2629635
0.44075307 0.61646402 -0.0078486204 3876101
0.44253343 0.61753321 -0.0071945786 3548935
0.44436496 0.62038839 -0.0082637072 3942663
0.4465459 0.62321877 -0.0080919862 3548161
0.44855499 0.62604529 -0.0076660514 6770723
0.45115864 0.62611049 -0.0081179738 3023361
0.45100334 0.63099629 -0.0076329112 10584902
0.45317501 0.633214 -0.0080009699 6639381
0.45618156 0.63314211 -0.0072419047 5586954
0.45785588 0.63564593 -0.0086302161 3418120
0.46499491 0.64283246 -0.008163929 3417862
0.46905157 0.65028936 -0.0083345175 2103045
0.47046843 0.65343511 -0.0070747137 1185027
0.47902945 0.66307569 -0.0083188415 10253351
0.48111349 0.66503751 -0.0088579655 9136430
0.4835228 0.66547579 -0.008439362 8676647
0.4856357 0.66814709 -0.0080241561 10322232
0.48681852 0.67141634 -0.008012414 6376469
0.49748588 0.68295902 -0.0071033239 6507779
0.50002789 0.68407142 -0.0070014 6113287
0.5056057 0.6907472 -0.0072501898 7757108
0.404569 0.57700527 -0.0090975761 10124830
0.40667844 0.57848763 -0.0092102885 9993768
0.41232473 0.58840096 -0.0095158219 7034164
0.41562626 0.5903092 -0.0096197128 3615509
0.41913253 0.59540361 -0.0098170042 5325614
0.42129686 0.59716982 -0.009783566 2169353
0.42578709 0.60208219 -0.0094823837 1774850
0.43086904 0.61050898 -0.0091161728 3744521
0.43276662 0.61125267 -0.0089797974 3745035
0.43473792 0.61318618 -0.008805573 4926733
0.43701252 0.61485952 -0.0085728168 3942153
0.43669051 0.61809725 -0.0092623234 2759169
0.43928915 0.62100875 -0.0090167522 4336905
0.44159678 0.62219071 -0.0089279413 4073480
0.4457922 0.62598348 -0.0074001551 10256193
0.4487724 0.62960595 -0.0088514686 6047000
0.4505001 0.6324777 -0.008305192 7231515
0.45251638 0.63390702 -0.0085538626 7757100
0.45474809 0.63594377 -0.0086720586 8283188
0.45712695 0.63917136 -0.0089133978 10190413
0.45839837 0.64163429 -0.0094207525 10124620
0.46092844 0.64328474 -0.0092992783 9532993
0.46200362 0.64565217 -0.0098554492 9467453
0.46360579 0.64743882 -0.0099590421 9335357
0.46642321 0.64969957 -0.0098309517 7822656
0.46902025 0.65201831 -0.009647727 3549456
0.47015181 0.65526617 -0.0095923543 4336674
0.47235897 0.65599793 -0.010472894 1641990
0.47402593 0.6579923 -0.010628104 1313799
0.4748809 0.66109633 -0.0090767741 2627081
0.47772491 0.66372591 -0.0093678236 6305813
0.48176947 0.66968608 -0.0085065365 9729578
0.48427588 0.67043585 -0.0081652999 8019241
0.40586168 0.58340323 -0.0099496245 9796142
0.40720841 0.58606845 -0.010097206 10124857
0.41005367 0.58740574 -0.0097759962 9796159
0.41232932 0.59043074 -0.010639906 6179375
0.4137837 0.59280652 -0.010687232 8612423
0.4156498 0.59423685 -0.010539174 7691855
0.41699234 0.59743291 -0.010718763 1380867
0.41935483 0.60080975 -0.010639191 2167554
0.42159009 0.60201609 -0.0098974705 1839875
0.42446434 0.60736889 -0.010006487 6308898
0.42673865 0.6089344 -0.0095782876 3679499
0.42868268 0.61042672 -0.0097284317 3416330
0.4366813 0.61995232 -0.0091689229 4468491
0.44310367 0.62629694 -0.00950104 4402181
0.4444598 0.62868321 -0.010404468 3875842
0.44908008 0.63578987 -0.010310769 6178586
0.45831865 0.64447689 -0.0089278221 8348709
0.45981243 0.64654404 -0.010169268 6113051
0.46249518 0.64951468 -0.0099676847 6507303
0.46556023 0.65195417 -0.010262966 4141071
0.46737784 0.65554446 -0.0092306733 8873540
0.4702054 0.6596356 -0.0098587275 2496012
0.47219393 0.66096002 -0.0097900629 1772805
0.47608235 0.66453499 -0.010393798 3282690
0.48652858 0.67558527 -0.011936128 9204504
0.49084464 0.68360937 -0.012211323 9992217
0.49256819 0.68554997 -0.012899399 10453026
0.40522793 0.58802474 -0.011190474 9335870
0.40777245 0.58860934 -0.010884762 7757368
0.40956375 0.59009796 -0.011369824 5521450
0.41146424 0.5959841 -0.011067152 4929318
0.41346925 0.59676921 -0.010726452 4732201
0.41450322 0.59891117 -0.010982692 5060140
0.41667914 0.60020542 -0.010994375 3483149
0.42032757 0.60485542 -0.010380805 7033645
0.4221243 0.60713333 -0.010588408 6638890
0.43958867 0.62693715 -0.010352671 5125131
0.4468275 0.63482594 -0.010228038 7428128
0.45469087 0.64533275 -0.011183381 6507036
0.45670769 0.64663029 -0.011381149 5651995
0.46361107 0.65415025 -0.011029899 2891527
0.4736563 0.66673267 -0.012525439 2757379
0.47646841 0.66918844 -0.013168395 4334341
0.48223609 0.67524838 -0.012462139 6638612
0.48698527 0.68277067 -0.012471855 7888393
0.49216706 0.68696594 -0.011189401 7559178
0.47764277 0.67516923 -0.013102651 6046224
0.48266429 0.68258852 -0.013185561 5719814
0.46762049 0.67175823 -0.015927255 1840131
0.60631502 0.5947938 0.076570988 2500134
0.60768408 0.59638613 0.076555967 1973790
0.61941719 0.61251533 0.073624671 1776412
0.6229139 0.61546528 0.075923204 1775902
0.62542516 0.61713237 0.076087952 2105106
0.62639749 0.61945724 0.075618982 3025954
0.62895793 0.62160724 0.075561941 4013364
0.63017553 0.62636733 0.075999439 4406307
0.63171875 0.6269989 0.073885322 1776141
0.60364479 0.59707147 0.074649274 1648436
0.61659729 0.61269575 0.073406398 1711132
0.61903447 0.615031 0.074747026 1579551
0.62863189 0.62560385 0.073384702 1447693
0.60130692 0.59840894 0.073233128 1648436
0.61014801 0.6101771 0.07141006 1776922
0.61282623 0.61117607 0.071903944 1645085
0.61343819 0.61422396 0.073313177 1513757
0.62065858 0.62127519 0.071496427 1711380
0.62290388 0.62176561 0.071823537 1644820
0.62482679 0.62557113 0.072626412 1447694
0.59658325 0.59829801 0.071333945 2106933
0.59863681 0.60068655 0.071311474 1649696
0.60669905 0.60878444 0.070789397 1711131
0.60823923 0.60983551 0.07094115 1645594
0.61073065 0.61351174 0.072580695 1382174
0.61411405 0.61902201 0.070320249 1908760
0.61610615 0.62036949 0.070370018 1777429
0.61804944 0.62243742 0.071070135 1580304
0.6204133 0.62482828 0.07160598 1579538
0.6218189 0.62638104 0.070735574 1776916
0.59082264 0.59565461 0.069955289 1583903
0.59212655 0.59717101 0.069941044 1715489
0.59349549 0.59876341 0.069926023 2827341
0.60241896 0.60889 0.069347143 1776420
0.60406268 0.60985166 0.069462657 1711138
0.60933328 0.61625177 0.06791383 1974809
0.61095095 0.61862743 0.068747163 1908763
0.61220425 0.6198957 0.069268703 2040086
0.6144588 0.62222159 0.070456386 1646091
0.59942991 0.6082868 0.068508089 1841700
0.60513163 0.61563122 0.066553295 1975062
0.606691 0.6170755 0.068181217 1909018
0.60860032 0.61909825 0.068669975 1974553
0.5806641 0.58760512 0.066308022 2501910
0.58271772 0.5899936 0.066285551 3286827
0.58437574 0.5927307 0.067171156 3090264
0.58606929 0.59497005 0.067453861 2697293
0.58808732 0.59785628 0.068034351 2043193
0.59078193 0.6028778 0.066528738 2105636
0.59372324 0.6043306 0.065691054 1974305
0.59540236 0.60745364 0.067478418 2039329
0.59885341 0.6125738 0.064992368 2171935
0.60005999 0.61471307 0.066199899 2171929
0.60284191 0.6159277 0.066367209 2040603
0.60497922 0.61809254 0.06658268 1974808
0.60595292 0.61994946 0.067912817 2105875
0.57616431 0.58856326 0.065310061 3028504
0.5775333 0.5901556 0.0652951 2830876
0.57919133 0.59289259 0.066180706 2764825
0.58124495 0.59528118 0.066158235 2961947
0.58707303 0.6016621 0.064454854 2237471
0.59249234 0.60698074 0.066681504 1973792
0.59564757 0.61129928 0.064085364 2172699
0.596834 0.61371899 0.065234303 2303515
0.59828758 0.61616492 0.065564454 2237472
0.60141903 0.61841643 0.065370202 2171925
0.58289284 0.60141963 0.063189864 2237477
0.58683676 0.60484457 0.065732062 2106140
0.59175014 0.61167204 0.062938452 2369566
0.59349447 0.6129564 0.064477205 2369561
0.59500295 0.61469793 0.065043807 2172440
0.59644186 0.61746937 0.063565969 2369562
0.59863752 0.61842901 0.064847708 2237976
0.57232964 0.59354305 0.061959445 2765332
0.57935286 0.60148489 0.062027574 2499628
0.58691895 0.60960513 0.060586989 2370076
0.58934444 0.61210501 0.061994255 2369820
0.59020203 0.61406487 0.063658297 2435353
0.59297597 0.61674386 0.062219262 2500889
0.5769515 0.60235065 0.060764909 2631207
0.58445591 0.60961133 0.060436845 2435616
0.58607233 0.61218894 0.06159687 2435355
0.58926225 0.6168319 0.061608613 2500890
0.56307948 0.58735871 0.059206009 3484207
0.56513298 0.58974725 0.059183538 3288111
0.56718653 0.59213573 0.059161127 2697513
0.56816012 0.59407675 0.060054243 2633517
0.56952912 0.59566897 0.060039222 2436394
0.57464606 0.6027416 0.05984199 2500385
0.57985055 0.60926372 0.058217525 2632477
0.58162022 0.61116022 0.059378088 2566940
0.58365345 0.61280727 0.060479343 2566685
0.58566958 0.61534512 0.058880091 2631964
0.55610669 0.58463198 0.057331383 5527619
0.55816019 0.58702046 0.057308912 4211256
0.55981827 0.58975756 0.058194518 3420965
0.56154144 0.59257036 0.059079349 3615293
0.563595 0.59495896 0.059056938 2828600
0.56496406 0.59655124 0.059041917 3025979
0.56902385 0.60173571 0.055929184 2303784
0.57110673 0.60365933 0.058237135 2500132
0.57501882 0.60912347 0.057323217 2829853
0.57746798 0.61001503 0.058163345 2632989
0.58017725 0.61351448 0.056265473 2632733
0.58168375 0.61553591 0.058342695 2829084
0.55367601 0.58578449 0.055830181 6776138
0.55558532 0.58969951 0.057702839 6514506
0.55695438 0.59129179 0.057687879 7039309
0.56725776 0.60279459 0.056141138 2500392
0.57223642 0.60655481 0.05570972 2632737
0.57314312 0.60967624 0.056814373 2764061
0.57742387 0.61350423 0.055879653 2632988
0.57909894 0.61551213 0.05791986 2894875
0.5642513 0.6030485 0.053693414 2500388
0.56572616 0.60378379 0.056366205 2565927
0.56753749 0.60659254 0.054342449 2895648
0.56907767 0.60863346 0.055733025 2830110
0.57066637 0.61073226 0.054867685 2895390
0.57332975 0.61385149 0.055061579 2829848
0.56030583 0.60168606 0.052960515 2828583
0.56138819 0.60340059 0.053756654 2763046
0.56318372 0.60640359 0.053414762 3026724
0.56759983 0.61176169 0.052269638 2961178
0.56906992 0.61355245 0.054535151 3157791
0.55370969 0.60047984 0.050897419 3748902
0.55593616 0.60094696 0.051687837 3287335
0.55706382 0.60356611 0.051144779 3552292
0.55913258 0.6055792 0.051147759 3354921
0.56115359 0.60649323 0.052640676 3092509
0.56514817 0.61136192 0.052049041 2961178
0.55391097 0.60306227 0.04938668 4473371
0.55646759 0.60524076 0.052005529 3420195
0.55825216 0.60805678 0.051817417 3553060
0.559654 0.61091149 0.04878819 3224354
0.56106818 0.61163169 0.051324725 3223585
0.55679661 0.61112231 0.048387766 3355427
0.5522747 0.60905129 0.04582572 3880223
0.5542137 0.61070287 0.048117638 3618330
0.54744577 0.6083172 0.045160651 6643482
0.55008739 0.60816318 0.045907736 5064466
0.55110073 0.61152381 0.0471403 4604700
0.4966923 0.66433269 0.0012044907 12166226
0.49819171 0.66607666 0.0011880994 12295512
0.43419707 0.59843105 -0.00048619509 10715739
0.43569648 0.60017502 -0.00050258636 10124352
0.43801081 0.60286677 -0.00052785873 10979923
0.44025996 0.60548276 -0.00055247545 11045979
0.44175944 0.60722685 -0.00056886673 11177550
0.44400862 0.60984278 -0.00059348345 10979662
0.44632289 0.61253452 -0.00061875582 10913359
0.4478223 0.6142785 -0.00063514709 11044694
0.44932172 0.61602247 -0.00065153837 10781521
0.45082113 0.61776644 -0.00066792965 10978413
0.45310283 0.6204204 -0.000692904 10912849
0.45538464 0.62307423 -0.00071787834 10912822
0.45763367 0.62569022 -0.00074243546 10782505
0.45988286 0.62830621 -0.00076705217 11111237
0.46144742 0.630126 -0.00078415871 10979651
0.4636966 0.63274193 -0.00080877542 11110976
0.46594569 0.63535798 -0.00083333254 11044184
0.46744511 0.63710201 -0.00084972382 11175769
0.46900976 0.63892174 -0.00086683035 11242291
0.47125888 0.64153767 -0.00089144707 11505465
0.47350797 0.64415377 -0.00091606379 12032067
0.47507262 0.6459735 -0.00093317032 11507082
0.47732171 0.64858949 -0.00095772743 9074019
0.48491663 0.65742314 -0.0010408163 11835952
0.48719829 0.66007704 -0.001065731 11968598
0.48869771 0.66182107 -0.0010821223 11705426
0.49097949 0.66447484 -0.0011070967 11442298
0.49326122 0.6671288 -0.001132071 11771725
0.4978247 0.67243654 -0.0011819601 12492889
0.42757404 0.59605765 -0.0029222965 5917999
0.42950606 0.59835804 -0.0023857355 10189397
0.43100548 0.60010207 -0.0024021268 10978912
0.47804666 0.6547389 -0.003002584 8088400
0.48036098 0.65743071 -0.003027916 10517565
0.40648073 0.57435441 -0.0040095448 10324526
0.41001037 0.58041543 -0.0044519305 10126400
0.42446834 0.5963456 -0.0038074255 3225888
0.4298622 0.60232186 -0.0040991306 3155728
0.43295509 0.60764164 -0.0041003823 4473117
0.43598115 0.60741717 -0.003736794 2500107
0.44080257 0.61565661 -0.0050311089 3090954
0.45643374 0.63307571 -0.0052565336 6246969
0.46576294 0.64247131 -0.0043952465 4933926
0.47129604 0.64865905 -0.0045340061 1315847
0.49068716 0.672993 -0.0055450797 11111242
0.49203563 0.67673039 -0.0037329793 11506489
0.49393937 0.67812747 -0.0036712289 11309639
0.49551287 0.68006897 -0.0039624572 11178313
0.4043932 0.57700562 -0.0040863752 9994300
0.40640545 0.57894248 -0.0044930577 9993531
0.40825689 0.58086616 -0.0046371222 10125371
0.41059691 0.58307457 -0.0046390891 10517815
0.41216147 0.58489436 -0.0046561956 10452022
0.41423011 0.5871135 -0.0049539804 8547903
0.41647342 0.59088087 -0.0046136975 8480321
0.41774365 0.59261936 -0.005132556 7428152
0.42049953 0.5940333 -0.0048411489 7691842
0.4221147 0.59697795 -0.0044971704 8219985
0.42428726 0.59899789 -0.004788816 10255967
0.42593852 0.60219795 -0.0043729544 4338464
0.43847293 0.61515486 -0.004928112 4010515
0.44878849 0.62790632 -0.0057926178 5916199
0.45370796 0.63317448 -0.005556643 7824455
0.45590144 0.63854146 -0.0056208372 8349504
0.45915142 0.63956791 -0.0060446858 6047528
0.48119736 0.66769779 -0.005795598 6838821
0.48551753 0.66912407 -0.0060802698 5917978
0.48664621 0.67321396 -0.0055783391 9467177
0.48841783 0.67448699 -0.0050834417 9335841
0.49060217 0.67498446 -0.0049010515 10322217
0.49310443 0.68065727 -0.0073187351 5521166
0.49690437 0.6828258 -0.0042990446 10980686
0.49723345 0.68655276 -0.0056442618 7823395
0.40914068 0.58590817 -0.0047422647 10718287
0.41070881 0.58706033 -0.0053109527 10258001
0.4135488 0.59147376 -0.00559479 9729854
0.41838861 0.59668559 -0.0046203136 8417350
0.42354238 0.60188407 -0.0043711066 5127224
0.42949516 0.60849977 -0.0047805309 6510902
0.4335489 0.61463958 -0.00502491 6245170
0.43537965 0.61569929 -0.0054436922 5127968
0.44205391 0.62327188 -0.0064265132 5458469
0.44344714 0.62668329 -0.007129252 9007168
0.44632658 0.62764871 -0.0058410168 7099697
0.44986421 0.63298285 -0.0057118535 9271378
0.45357242 0.63790768 -0.005466938 9731411
0.45953032 0.64543664 -0.0064558983 9139542
0.4647513 0.65031528 -0.0060546398 4469776
0.4660818 0.65219682 -0.006891191 2432264
0.47844645 0.66666096 -0.0075978637 9860902
0.48086184 0.66942167 -0.0074127913 11768380
0.48276046 0.66990542 -0.0067716241 8349491
0.48428857 0.67248684 -0.0062876344 8744490
0.48564136 0.6765213 -0.0075361133 8809252
0.48800305 0.67991 -0.006247282 6443526
0.49062639 0.67988455 -0.0075232387 5718553
0.49480903 0.6826185 -0.007560432 5915140
0.49901938 0.69113559 -0.0071459413 7033642
0.42504695 0.60885084 -0.0095122457 2760455
0.43212014 0.61609358 -0.0090961456 4140044
0.43387905 0.61939299 -0.0093075037 7230507
0.43538448 0.62080604 -0.0089051723 9795658
0.43834272 0.62293023 -0.0080852509 9073217
0.44122815 0.624753 -0.0085688829 9861703
0.4412334 0.62844527 -0.0081338882 9598257
0.44309086 0.62974989 -0.0081147552 9466664
0.44541103 0.63125032 -0.0080848932 9400614
0.44735909 0.6350503 -0.0078856349 11110706
0.44898835 0.63707781 -0.0079544187 10847540
0.45150575 0.63878071 -0.0080897808 10255670
0.45397615 0.64083189 -0.0082058907 10189620
0.45585039 0.64258158 -0.0084081292 9926961
0.45668572 0.64503568 -0.0076566935 10914123
0.45956773 0.64762419 -0.0088404417 10913838
0.46136704 0.65116113 -0.0081424713 9336108
0.46347937 0.65216976 -0.0092863441 10650167
0.46481895 0.65491718 -0.0083699822 10912571
0.46666175 0.65821791 -0.0077937841 6113833
0.46844429 0.65951902 -0.0079792142 5719846
0.47100002 0.6621176 -0.0084649324 4271376
0.47227865 0.66453069 -0.0080018044 7491357
0.47490323 0.66605288 -0.0082139373 8741913
0.47684529 0.66917485 -0.0082002878 9861419
0.47892293 0.66962284 -0.0090284348 10715688
0.48216528 0.67489165 -0.0077885985 10650666
0.48792088 0.67969882 -0.0081678033 7033635
0.4065657 0.59071589 -0.0094053745 10190892
0.40848327 0.59319437 -0.0099455714 9730363
0.41028637 0.59480655 -0.010241687 8809529
0.41257793 0.5970161 -0.0098797679 9862207
0.41511524 0.60010624 -0.010249972 9138754
0.41633174 0.60160971 -0.010297239 5521710
0.41875356 0.60304582 -0.010140598 7757365
0.42250788 0.60911345 -0.010372102 3615502
0.42377251 0.61284572 -0.0097507834 10256201
0.42553803 0.61475593 -0.0098307133 8414514
0.42719623 0.61662471 -0.010114908 8217140
0.42985421 0.61744314 -0.0096471906 7427884
0.43173325 0.61866057 -0.0099030733 5323277
0.43196228 0.62348372 -0.0089954138 9270074
0.43522617 0.62515771 -0.0094112754 7954216
0.43765315 0.62680948 -0.0092194676 8282662
0.43883052 0.62853259 -0.0081732273 10847547
0.44281787 0.63411605 -0.010545731 8151593
0.44545513 0.63562995 -0.008128047 10781999
0.45028108 0.64306194 -0.010729194 8479792
0.4523356 0.64432609 -0.011013448 7559462
0.45693499 0.65172523 -0.0097691417 10979381
0.45910797 0.65263087 -0.0093148947 10189622
0.461317 0.65482146 -0.009164691 10584116
0.46246192 0.65738344 -0.010690272 8283436
0.46470296 0.65875363 -0.01070261 6178849
0.46671739 0.66057867 -0.011104047 3616012
0.47156513 0.66697443 -0.0097131729 3874567
0.4741084 0.66782302 -0.0095093846 6965016
0.47935629 0.67479521 -0.0083969235 11045159
0.48866659 0.68549401 -0.01093483 6903302
0.49054131 0.6878562 -0.0090593696 5259542
0.40511093 0.59274536 -0.010740995 10059074
0.40763202 0.5981034 -0.0098496079 10255937
0.40876737 0.59962952 -0.010230064 9927484
0.41091743 0.60107923 -0.010100603 9466941
0.41282165 0.60366464 -0.0098397136 10584901
0.41511819 0.60648012 -0.010035872 9795915
0.41796923 0.60829133 -0.01022172 7692093
0.42007038 0.60962462 -0.010589242 7494451
0.42193383 0.61152458 -0.0098131299 10387534
0.42276838 0.61521906 -0.010463119 7362604
0.42591891 0.61640346 -0.010181665 5981471
0.43087554 0.62466544 -0.010731697 7428136
0.43466085 0.62709737 -0.0090916157 10847798
