# .PCD v0.7 - Point Cloud Data file format
VERSION 0.7
FIELDS x y z rgba
SIZE 4 4 4 4
TYPE F F F U
COUNT 1 1 1 1
WIDTH 1140
HEIGHT 1
VIEWPOINT 0 0 0 1 0 0 0
POINTS 1140
DATA ascii
0.73202437 0.60090852 0.015847087 4148608
0.7337622 0.60138458 0.015390635 1057102
0.57502949 0.5431819 0.053123653 2962251
0.57849705 0.54350114 0.053403974 2896205
0.58681965 0.54701471 0.050294995 3289928
0.58889329 0.54755694 0.05047363 2961222
0.5913319 0.54851782 0.051723361 2894649
0.69588304 0.58922708 0.023173809 1846376
0.69847667 0.58963382 0.022953808 1715295
0.70126975 0.59033072 0.022145212 2174302
0.70366001 0.59114665 0.023127198 2240092
0.70618367 0.59184587 0.020664513 2241633
0.71111357 0.59528512 0.018823624 2570336
0.71434081 0.59583998 0.018724918 2571111
0.71859837 0.59656239 0.018604875 2835304
0.72043669 0.59688807 0.018538654 3031413
0.72229177 0.59909236 0.016584575 3164531
0.72578198 0.59936917 0.016343117 3492472
0.72873211 0.60135013 0.015161395 4215427
0.73071373 0.60145032 0.015864491 4281474
0.73316395 0.60325563 0.014436841 2898525
0.56886977 0.54135132 0.052518725 2830672
0.57148379 0.54386765 0.052968979 2896460
0.58236355 0.54717493 0.050020576 3289679
0.58526027 0.54795682 0.050192714 3289670
0.58836472 0.54874206 0.049883485 3093057
0.69085449 0.58911657 0.021921694 2043737
0.69411325 0.58968258 0.020979941 1716315
0.6968708 0.59017104 0.02088064 1847139
0.70045608 0.59226364 0.020391822 2043489
0.70228279 0.59330326 0.019396186 2109795
0.70402813 0.5936687 0.019020081 2044518
0.70820481 0.59538186 0.018482685 2307168
0.71414602 0.59826159 0.016165555 2571366
0.71596289 0.59895825 0.016798854 2834538
0.71846652 0.59913772 0.015811086 2375527
0.72508991 0.60167021 0.014283895 3031912
0.7270034 0.60260415 0.013253987 3360620
0.73240542 0.60414791 0.012271881 1977174
0.73550415 0.6056934 0.011438727 988994
0.56477863 0.54262286 0.051961422 2961486
0.56816 0.54433596 0.052929223 2896206
0.5718714 0.54454339 0.050067067 3486531
0.57321477 0.54611754 0.049494743 3355207
0.57566708 0.54684496 0.049420238 3420745
0.57819051 0.54797328 0.049291074 3420744
0.58038425 0.54894072 0.049940169 3224659
0.68783295 0.58899349 0.021636128 1187399
0.69066757 0.59055877 0.021295547 2110788
0.69278508 0.59186071 0.019887269 2305375
0.69620478 0.59328365 0.019031525 1913952
0.69922858 0.59335673 0.018921196 1913700
0.70432609 0.5965454 0.017803252 2110052
0.70613438 0.5966323 0.017691374 2110052
0.70873141 0.59815598 0.016340971 2372454
0.71226823 0.59856349 0.015279353 1914465
0.7151022 0.5997619 0.014485955 1848920
0.71812737 0.60129905 0.013875961 1981022
0.72041464 0.60230058 0.012831211 2506079
0.72352189 0.60518134 0.011932254 3031910
0.72605574 0.60476971 0.011540532 3949394
0.72888309 0.60471612 0.010673106 3886172
0.73100072 0.60644192 0.010058045 4015691
0.73396134 0.607261 0.010249317 3355968
0.73713505 0.6084258 0.0096265078 923703
0.73886496 0.60926425 0.0085963607 792629
0.55807382 0.54205918 0.050460339 2896461
0.56074828 0.54414457 0.051151693 2961742
0.56688839 0.54638016 0.047913611 3289675
0.56921828 0.54655409 0.048479199 3289673
0.57230479 0.54781324 0.049332142 3355469
0.67993164 0.59015453 0.020117283 1713220
0.68307394 0.59029788 0.019563556 726821
0.68595374 0.59208125 0.018202066 1913141
0.68841141 0.59231633 0.018347144 2306882
0.69137698 0.59279656 0.018772066 2634078
0.71089876 0.60085148 0.013605237 1717346
0.71969342 0.6050396 0.012018383 2506595
0.72246832 0.60439801 0.010921538 3291480
0.72763437 0.60694462 0.010412037 4541767
0.73131907 0.60755908 0.0082837343 1516853
0.73279071 0.60935307 0.0080097914 725311
0.73498142 0.61098588 0.0064122677 2631996
0.73839629 0.61079854 0.0061478019 3223610
0.73989093 0.61167383 0.0059890747 8217940
0.55109322 0.54275429 0.050438046 2567488
0.55452836 0.54251772 0.050179482 2897222
0.55803132 0.54529887 0.050412834 2961998
0.56228387 0.54665238 0.047248125 3486019
0.56465071 0.54722631 0.047592461 3354699
0.56671047 0.54899973 0.047476292 3289421
0.66807795 0.58826381 0.020689011 2107993
0.6708582 0.58876115 0.020583987 2107730
0.67462331 0.58940834 0.02046895 1317693
0.67744648 0.58988416 0.020392656 2369866
0.67963761 0.5919143 0.018416345 3229543
0.68324637 0.5920285 0.018289804 1650493
0.72684264 0.60932392 0.0051906109 6180428
0.72873223 0.60974449 0.0045967102 6969415
0.73227495 0.61133027 0.0057942867 3419978
0.73483521 0.61215901 0.0050773621 2172219
0.73693013 0.61375546 0.0038087964 5261383
0.7399621 0.61408323 0.0029369593 8152915
0.54603457 0.54070199 0.049938142 1052432
0.54738599 0.54356736 0.050053477 1184814
0.55924809 0.5469538 0.046611309 3421001
0.65683579 0.58622873 0.020994186 1714216
0.65965903 0.58676112 0.020895004 2108714
0.66238433 0.58765328 0.020187438 1449518
0.66510928 0.58794928 0.020102561 1187907
0.66771275 0.58759177 0.018646955 1580116
0.6706003 0.59112066 0.018007278 2238298
0.67330766 0.59117341 0.01791966 1450582
0.67604023 0.59127367 0.017786026 3426677
0.72672844 0.61147732 0.0062676072 6114378
0.72778243 0.61218131 0.0036535859 6114374
0.73057723 0.61289835 0.003320992 7824213
0.73334801 0.61401027 0.003057003 8152917
0.73497945 0.61471069 0.0026651621 792106
0.73837256 0.61606008 0.0016641617 2106419
0.54632944 0.54611164 0.046219587 3286826
0.55084443 0.54511619 0.046915054 3484985
0.55255949 0.54700851 0.045241952 3289666
0.55521095 0.54749942 0.045424759 3420742
0.55786991 0.54841226 0.04553616 3485769
0.64681363 0.58471149 0.021545649 529976
0.64935112 0.5849514 0.021212816 465445
0.65309352 0.58559 0.021103501 1125432
0.65500993 0.58638674 0.020387113 1255736
0.65802068 0.58776635 0.019442916 3750225
0.66046327 0.58803344 0.01957643 4211562
0.66726768 0.59067637 0.017635405 2238809
0.72874212 0.61466801 0.0025067925 6509134
0.5420565 0.54606479 0.04621309 525830
0.54606748 0.54684341 0.045415878 2433582
0.54802752 0.54774517 0.044814229 3551293
0.55001789 0.54828012 0.044285417 3421252
0.64122558 0.58327699 0.021193743 1186873
0.64373004 0.58393377 0.021365464 1054765
0.64581215 0.58537364 0.020025969 661796
0.64869505 0.58651453 0.01846391 926503
0.65228862 0.58667982 0.018463492 1648958
0.54331011 0.54805791 0.044608116 855054
0.63453054 0.58419299 0.019286811 1649739
0.63636887 0.58451873 0.019220591 1581392
0.64229798 0.58641124 0.018781245 2305897
0.64473951 0.5863117 0.018498182 1451846
0.64787406 0.58945483 0.017377377 794678
0.64972264 0.58948159 0.017334342 1386815
0.63256097 0.58389276 0.019306958 1846862
0.63877517 0.58808786 0.016286016 2307654
0.62410861 0.58428699 0.017343938 1058612
0.62659442 0.58421659 0.016843021 860478
0.62891549 0.58575046 0.017694652 1844049
0.6315248 0.58674753 0.01515162 1649240
0.63422561 0.58740437 0.015740335 1779794
0.63692653 0.58806115 0.016329169 2373447
0.60521322 0.57898128 0.02007091 330805
0.6120134 0.58207613 0.017487288 1517383
0.61392897 0.5817492 0.016733289 2373221
0.61589855 0.58204949 0.016713142 2831448
0.62452376 0.58690518 0.015542388 1120817
0.62782753 0.58669412 0.015237808 1517856
0.62967616 0.58672071 0.015194774 1320275
0.63161421 0.59018886 0.014622509 1976398
0.60711807 0.58190519 0.018317401 987701
0.61000681 0.58236831 0.018264174 1448012
0.61287624 0.58547252 0.016466081 2503750
0.61580199 0.58534312 0.015656233 2963283
0.61876804 0.5851537 0.014915109 3749452
0.62161648 0.58567691 0.014793038 2435651
0.5987004 0.57977766 0.017904162 2306906
0.60060447 0.58009064 0.017861009 1187937
0.58930397 0.57996154 0.015802264 3358579
0.59217262 0.58045471 0.015714586 3227756
0.59423792 0.58172655 0.016535282 2834282
0.58909953 0.58253402 0.016282558 2639224
0.58162838 0.58118385 0.01425302 3424380
0.58359796 0.58148408 0.014232874 3358586
0.58543634 0.58180976 0.014166713 3424630
0.57776058 0.58303213 0.012617409 3424381
0.5671801 0.58117455 0.012980998 3885181
0.57009411 0.58168519 0.012881815 3489915
0.57307279 0.58151937 0.012117803 3490431
0.57583141 0.58267164 0.012706518 3424381
0.56052607 0.58184111 0.010710835 3819111
0.5624249 0.58218992 0.010702133 3295608
0.54828143 0.58240986 0.0081455708 1844282
0.54818135 0.58494413 0.0063548088 2370626
0.55015093 0.58524454 0.006334722 2240103
0.55304497 0.58578515 0.0062012076 3753847
0.49595737 0.56887972 0.013028383 723468
0.48569497 0.56646276 0.013587475 2170400
0.48981398 0.56849599 0.014258146 2104862
0.49298131 0.56857336 0.013849795 1184016
0.49565101 0.57080829 0.014311671 1052181
0.49803072 0.57101154 0.012564003 657677
0.50077546 0.57322276 0.011244059 526343
0.5029276 0.57336539 0.010834396 591619
0.50547445 0.57456684 0.00944978 2299913
0.50813591 0.57653236 0.0088105202 4075031
0.51113951 0.57709551 0.007942915 6902309
0.48236191 0.568138 0.012503386 2302243
0.48616955 0.56910455 0.012497246 2762023
0.48868692 0.57086194 0.010309398 1184282
0.51345551 0.57981765 0.0065342188 8284730
0.51481998 0.58102089 0.0054804683 8219964
0.47908974 0.56983614 0.01125896 2498343
0.48283833 0.56907618 0.011012554 3747372
0.48640791 0.57195783 0.010569215 2630953
0.49023485 0.57301962 0.0099818707 2235681
0.49281448 0.5740577 0.0092816949 1314581
0.49518073 0.57537687 0.0079265237 985358
0.4978683 0.57615548 0.0068738461 1510157
0.50026906 0.57709277 0.0053800344 3546638
0.50299197 0.57940459 0.0056239963 3021322
0.51383454 0.5822677 0.0019224286 8874824
0.5165289 0.58361042 0.0017790198 8611902
0.51965272 0.58460951 0.0010698438 8349239
0.52276021 0.58576918 0.00045228004 8019505
0.48268753 0.57333213 0.0085785389 2434089
0.50053388 0.57827294 0.0050587058 3285513
0.50248742 0.57981658 0.0051183105 2101512
0.50562459 0.58113098 0.0040671229 5256207
0.50746381 0.58236468 0.0029795766 7163424
0.51055312 0.58333898 0.0020948648 8873532
0.51405597 0.58443439 0.001508832 9070660
0.51616776 0.58531845 0.00075447559 8873535
0.5185011 0.5853039 0.00082695484 8610618
0.47239637 0.57135731 0.0079445243 2697251
0.4771505 0.57185245 0.0068273544 3025194
0.47949606 0.57490999 0.0074717402 2697003
0.47386318 0.57479376 0.0050086379 2236705
0.46557975 0.57283258 0.0060409307 6706257
0.46871763 0.57369274 0.0047376156 3616810
0.47153446 0.57576793 0.0036435127 3614498
0.41812253 0.55692923 0.013329446 1118484
0.44493839 0.5678032 0.0074917674 11506283
0.44840735 0.56867814 0.0077489614 11440231
0.45133781 0.56908071 0.0068929195 11571820
0.45421118 0.57044637 0.0066213012 11440491
0.45651907 0.57242787 0.0059127212 11111527
0.45909604 0.57352746 0.004711628 9861991
0.46158123 0.57311666 0.0047844648 7822933
0.46996534 0.57799268 0.0026842356 2631201
0.41606134 0.55659437 0.01380831 1119505
0.41706952 0.55985796 0.01360178 1447191
0.41998458 0.56025469 0.012894869 855053
0.42219341 0.56181854 0.011153817 920325
0.42669934 0.56202996 0.010586977 6310684
0.42774114 0.56326056 0.0091656446 8348964
0.43090618 0.56452322 0.0086573958 9992775
0.43333608 0.56638795 0.0086220503 10124368
0.43552858 0.5664705 0.0082812309 10781792
0.43865561 0.56660789 0.0078040361 11177064
0.44161442 0.56793082 0.00780797 11308903
0.4438104 0.56865907 0.0082467794 11506283
0.46472636 0.57621098 0.0010023713 3876642
0.46855336 0.57941824 0.00054782629 4140326
0.4122237 0.55868137 0.012218535 1843233
0.4157207 0.56096542 0.0099170208 986385
0.42378005 0.56257701 0.010307133 2760470
0.4294256 0.56579942 0.0096717477 7362338
0.44557518 0.57137346 0.0023292899 11371106
0.44757551 0.57213944 0.00182724 11371105
0.45175806 0.57374084 0.00077748299 10846538
0.45342988 0.5745703 0.00037825108 10847065
0.4591862 0.57768404 1.8358231e-05 8348242
0.46174175 0.57722473 0.0002976656 5651000
0.40640897 0.55940378 0.0094335675 1712172
0.40829515 0.56118768 0.010467887 2040363
0.41194242 0.56114596 0.010037541 1710881
0.41797492 0.56322777 0.0078891516 1707026
0.41972291 0.56419969 0.0071343184 3744020
0.42231941 0.56481528 0.0065873265 6441245
0.42575848 0.56783557 0.0056161284 8413235
0.42800808 0.56729543 0.0045529604 10518105
0.42976624 0.56819558 0.0037292838 10846555
0.43577486 0.5717845 0.0033466816 11109470
0.44181681 0.57379472 0.0015654564 11439201
0.44361624 0.573726 0.00074219704 11438171
0.44752988 0.57416576 0.0010117292 11439460
0.45015615 0.57604188 0.00031524897 11438175
0.45556885 0.57841873 0.00031071901 10584676
0.40541613 0.56212878 0.010073125 1842470
0.41324723 0.5645963 0.007353723 2366749
0.41621286 0.56588268 0.0062334538 2299152
0.41909778 0.5675168 0.0048835278 3875600
0.42359293 0.56666493 0.0052807331 8413994
0.42753392 0.57021677 0.0027384758 10319432
0.4292551 0.57114148 0.0031192303 10319427
0.43220285 0.5716778 0.0029742718 10714193
0.43490225 0.57255852 0.0010508299 10845258
0.43850154 0.57284641 0.0016985536 11306581
0.4409593 0.57399535 0.00075531006 11370828
0.4438718 0.57620949 0.00094795227 11305554
0.44726133 0.57686394 0.00033330917 11305554
0.40389559 0.56139171 0.0072723627 2038040
0.40779939 0.5642873 0.0062100887 2697773
0.41497213 0.56790417 0.0041545033 2888742
0.418109 0.56910515 0.0033671856 4597760
0.42102772 0.56855822 0.0040830374 5913356
0.42260438 0.57018328 0.0027654171 8413736
0.42527154 0.57131797 0.0019774437 9728830
0.42848468 0.57300198 0.0006968379 10188100
0.430576 0.57380265 0.0001719594 10319685
0.4095211 0.5672555 0.0053279996 2893610
0.40416995 0.56728578 0.0035535693 3023915
0.40754813 0.56869352 0.0033859015 3220521
0.41068506 0.56989467 0.0025985837 1510662
0.4189592 0.57306266 0.00052189827 7426853
0.72848487 0.56623626 0.054239094 5395049
0.73121256 0.56728059 0.053554475 3091514
0.70596093 0.56013632 0.059775114 2633799
0.71280086 0.56346655 0.056430638 4278632
0.71573919 0.56450951 0.055597186 4212575
0.71854329 0.56583613 0.055501342 4541795
0.72166157 0.56627208 0.054056704 4935785
0.72465694 0.56757033 0.053292155 5856630
0.72647548 0.56826663 0.052835763 5789807
0.72899806 0.57074833 0.05352664 5000795
0.73172581 0.57179278 0.052842021 1645356
0.70749176 0.56493443 0.056249857 3028304
0.7093206 0.5646506 0.056092143 3357269
0.72046685 0.56831074 0.051603019 5263983
0.72270012 0.56946814 0.050581157 5724536
0.72559458 0.57046276 0.049827933 5790074
0.69791847 0.56149328 0.055801094 4803423
0.70008659 0.5629546 0.055421352 4079965
0.70306945 0.56409091 0.055199683 4606564
0.70549351 0.56511849 0.053952456 4672101
0.7083655 0.56587243 0.053800642 4608104
0.71121484 0.56713963 0.052610576 4869481
0.71386987 0.56820691 0.052036643 5132654
0.71679956 0.56872302 0.051643252 5461620
0.71924007 0.57006192 0.051504731 5593462
0.72199368 0.57120925 0.050235093 5527416
0.72467834 0.57266039 0.049091339 5395828
0.72735846 0.57353818 0.049058318 4474466
0.72989035 0.57466793 0.047286093 3487052
0.73234946 0.57490259 0.046486676 2039338
0.67251217 0.55252123 0.060515881 3881536
0.67523992 0.55356562 0.059831262 4735818
0.67820227 0.55520523 0.059528947 4802141
0.68059283 0.55637306 0.059149742 4144219
0.68341237 0.55784941 0.057736754 3816513
0.68536985 0.55909079 0.056913137 3816268
0.68833458 0.56007665 0.056256354 3882069
0.69117832 0.56076634 0.056101024 4079194
0.69367093 0.5624702 0.055266559 4276574
0.69658267 0.56310099 0.055012584 4342877
0.69926244 0.56415719 0.054351985 4474464
0.7016263 0.56571335 0.053495228 4671845
0.70852578 0.56759852 0.05260241 5001067
0.72113347 0.57356137 0.049269199 4607326
0.72288805 0.5727939 0.048297167 3949141
0.7271688 0.57551163 0.046931684 2303812
0.72924852 0.57583416 0.045923352 2895431
0.73174167 0.57777411 0.046400368 2171444
0.73424613 0.57782376 0.045134664 2630707
0.73622489 0.57880771 0.043783545 3484733
0.6699276 0.55580682 0.058078647 3421246
0.6734128 0.55695224 0.057425737 4603213
0.67591059 0.55780828 0.057436764 4537934
0.67863059 0.55921507 0.05621469 4341065
0.68147659 0.55947256 0.056115568 3487043
0.68363643 0.56098032 0.055080116 3751248
0.68652469 0.56184095 0.055193067 3751252
0.68996942 0.56261134 0.054756343 4079963
0.72815633 0.57859564 0.045492113 2171969
0.73581648 0.58024025 0.042589366 5259847
0.65757424 0.55383801 0.058439553 3486537
0.66086769 0.55403942 0.058065832 2369334
0.66355926 0.55544895 0.057793915 2763839
0.6659283 0.55722648 0.056798697 3289418
0.66900802 0.55747783 0.055868328 3157573
0.6722368 0.55892324 0.056038857 4274761
0.67547446 0.55963326 0.055561662 5459543
0.72627199 0.57930887 0.042139471 1382450
0.72946459 0.57977426 0.041547596 1579566
0.73068815 0.5817557 0.039804935 1973811
0.64785826 0.55253804 0.057840466 2960194
0.65232193 0.55326438 0.058328509 4538445
0.65432101 0.5540306 0.058698297 5262427
0.65736574 0.55557215 0.05521512 4735810
0.65961188 0.55662262 0.055688262 3486521
0.66255939 0.55742383 0.055581272 3289663
0.66547781 0.55845308 0.05523175 3684175
0.66791356 0.55991656 0.055446923 3553349
0.72677898 0.58139384 0.039891005 1184827
0.7276566 0.58445555 0.039294541 923191
0.7295866 0.58413464 0.039045155 1317160
0.63738334 0.55072129 0.058467865 5327187
0.64213836 0.55176669 0.058193505 3617338
0.64465624 0.55339313 0.057341933 3026489
0.64788592 0.55416286 0.056631386 3486273
0.65035659 0.55517423 0.055865347 3288637
0.65273565 0.55664599 0.055758178 4932428
0.65581667 0.55699337 0.055592835 5590871
0.6584689 0.55811417 0.054395437 4210510
0.72732627 0.58341873 0.037711382 1184570
0.72923017 0.5856353 0.035824418 1448746
0.73189235 0.58569705 0.036593199 1842734
0.73307621 0.58773839 0.034345686 2236462
0.63061768 0.54979384 0.057265162 2368312
0.63248408 0.55194831 0.05790931 3617346
0.63496661 0.55156124 0.057423711 4273480
0.63794255 0.55252385 0.056522369 4603471
0.64084661 0.5535624 0.058196425 2368817
0.64349073 0.55544364 0.05560708 3092022
0.64622438 0.5557707 0.054655194 3223619
0.64898127 0.55569172 0.055294096 3222846
0.7325204 0.58805549 0.03436774 1580332
0.61897093 0.5469985 0.058304191 3750730
0.62344921 0.54977435 0.058252275 2302773
0.62651575 0.54988855 0.057717681 2697273
0.62895906 0.55143064 0.057827711 2763326
0.63738924 0.55456585 0.05410254 3880514
0.64033228 0.55543137 0.054615915 3223354
0.64245689 0.55621982 0.054205775 3026490
0.6137886 0.54887414 0.057607234 2434109
0.61649597 0.5477916 0.057978809 3486785
0.62004954 0.55044067 0.058212399 4407890
0.62463152 0.55207765 0.053549886 2038827
0.62748754 0.55457354 0.054275692 3552067
0.63069832 0.55409223 0.054152369 2630707
0.63355243 0.55429715 0.053917885 2958389
0.63571876 0.55689418 0.05424118 5129810
0.6378606 0.55688167 0.053992152 4669516
0.73124135 0.59331536 0.029407918 1514287
0.60716456 0.54784942 0.056381762 2828866
0.60984337 0.5491538 0.056775212 2697794
0.61527669 0.55080414 0.054649115 1841706
0.61835629 0.55206025 0.054922581 3354172
0.62118602 0.55291599 0.053808153 2762293
0.62380743 0.55417782 0.053820729 2631221
0.62641728 0.5547688 0.053815186 3289153
0.6283474 0.55573452 0.052899957 3749174
0.73232013 0.59497535 0.026816368 3287086
0.59521496 0.5453921 0.057167828 1973041
0.59790123 0.54666728 0.057108223 3486527
0.60092068 0.54772961 0.057175398 2829626
0.60393661 0.5479759 0.056640685 2040115
0.60695618 0.54933357 0.055478454 2632514
0.6091246 0.55087042 0.054777384 3290175
0.61155933 0.55157554 0.054270387 2894906
0.61386997 0.55263072 0.053912044 2171443
0.61730063 0.55329478 0.053366184 2828598
0.61987185 0.55521381 0.053392172 2894393
0.62233722 0.55623317 0.052500725 1906741
0.73046708 0.59770894 0.025137663 2435389
0.59234619 0.54626125 0.056704342 1908017
0.59476781 0.54764473 0.057946146 4997707
0.59956014 0.54947716 0.054274201 2433068
0.60264438 0.55033034 0.053987861 2104106
0.60493445 0.55145925 0.053222299 2829117
0.60781884 0.55229878 0.052629709 3289164
0.61093384 0.55353034 0.052897692 2631235
0.58547831 0.54684711 0.055649817 3027281
0.58767056 0.54658902 0.055664718 2961484
0.58984125 0.5472697 0.056149483 2566975
0.59358323 0.54862398 0.052529693 2235957
0.59546399 0.54984993 0.052983224 1972264
0.59827149 0.55168247 0.052650094 2366762
0.60089493 0.55214441 0.052195013 1710891
0.60524642 0.5537746 0.052957833 3158086
0.70705169 0.59301472 0.023934543 2174552
0.71052152 0.59354895 0.023675561 2305884
0.71315813 0.59387738 0.023507357 2436962
0.71579468 0.59431946 0.023293138 2176869
0.71763885 0.59733361 0.021436393 2112615
0.72025013 0.59772807 0.02126801 2374506
0.72328168 0.59934247 0.019815028 2834544
0.72620052 0.60038495 0.019669771 3295348
0.72885215 0.6008327 0.019524574 3559803
0.57850933 0.54724288 0.054778814 2896207
0.58120644 0.54623222 0.055219173 2896212
0.58320677 0.54654396 0.054900944 3027284
0.58920014 0.54959381 0.051444411 2829378
0.59194827 0.551045 0.052118838 2038831
0.594046 0.55167878 0.052460134 2168620
0.59613729 0.55202526 0.052119017 2169384
0.69559145 0.59138864 0.024652004 1127010
0.69821775 0.59178895 0.024552584 1258839
0.7008543 0.59211749 0.024384379 1257815
0.70349604 0.59252346 0.024135828 1847386
0.71138471 0.59756219 0.021040499 2636389
0.71416616 0.5971753 0.020066142 2439521
0.71831256 0.597893 0.019934416 3294828
0.72048312 0.60001189 0.01983726 2833778
0.72242278 0.60120869 0.019166708 2900602
0.72509462 0.60234535 0.018692255 3886725
0.72791779 0.60282117 0.018615961 3952254
0.73069638 0.60384703 0.017667651 4020614
0.73207146 0.60543239 0.016143382 4411774
0.57179433 0.54641032 0.05348444 2962253
0.57434994 0.54572403 0.053855598 2896462
0.57625806 0.5466826 0.054156303 2896206
0.58317405 0.54951918 0.051859796 3289424
0.58512062 0.55021173 0.051557302 3355210
0.58754796 0.55138421 0.051711798 3354951
0.59086543 0.55204916 0.051308155 2630713
0.59267235 0.55349886 0.051516652 2498090
0.69961959 0.59523785 0.021157742 2567523
0.70242006 0.59570503 0.02108717 2306412
0.70524585 0.59621954 0.020970762 2307679
0.70800328 0.59670818 0.020871401 2373219
0.71396422 0.60020107 0.01861912 2571365
0.71662372 0.60148609 0.019563138 3031405
0.71849215 0.60182339 0.019634604 2504560
0.72087449 0.60307401 0.016792893 3426674
0.7244606 0.60312265 0.016695023 3492988
0.72785294 0.60568339 0.015639842 4018817
0.72969812 0.60580981 0.015588939 4281482
0.7321555 0.60722947 0.014326453 2110561
0.73514128 0.60807723 0.013692021 530240
0.56563449 0.54480684 0.052787542 2896205
0.56708658 0.54718113 0.053431034 2830666
0.56966269 0.54657811 0.053572893 2896458
0.57325929 0.54825801 0.052499294 3223105
0.57505667 0.54934233 0.050798059 3289676
0.57810593 0.55036545 0.050704598 3289673
0.58082628 0.55092812 0.050643504 3355214
0.6903857 0.59300065 0.02170682 2044760
0.69276762 0.59366071 0.021759927 1913187
0.69588238 0.59456336 0.021232724 2371684
0.69816047 0.5957762 0.02054739 2305637
0.70066649 0.59756786 0.019242644 2110058
0.70251501 0.59759462 0.019199491 2307180
0.70605016 0.59981906 0.018492699 2110567
0.70877242 0.59987772 0.018473864 2176358
0.71209669 0.60111237 0.017388582 2571113
0.7143594 0.60248238 0.015712738 2176859
0.71701497 0.60274327 0.016320765 2572136
0.72304314 0.60681725 0.013834834 3097965
0.72562718 0.60625476 0.013741612 3361392
0.72779274 0.60806704 0.012098074 3426662
0.73090917 0.60782248 0.012091279 3295074
0.73229933 0.60930002 0.010681927 858684
0.73706186 0.6105451 0.011399627 923196
0.56068468 0.54616582 0.052228868 2961997
0.56389588 0.54671526 0.052715182 2961740
0.56878871 0.54828364 0.049624801 3486792
0.57137096 0.54962194 0.05003643 3289673
0.57576472 0.55156362 0.050872564 3224402
0.68031162 0.59196794 0.021914005 3287896
0.68376142 0.59241861 0.021593988 1712707
0.68644172 0.59355962 0.022182524 1582668
0.68827999 0.5938853 0.022116303 2306390
0.69167215 0.59680963 0.018839419 2110051
0.69411117 0.59702498 0.019026518 1783394
0.69710046 0.597489 0.019375026 1848427
0.70334417 0.59919822 0.017938256 2438255
0.71079779 0.60292238 0.015521705 1979487
0.71312869 0.6045717 0.014727294 1914189
0.71658415 0.6050387 0.013344169 2242652
0.71967971 0.60658848 0.013669372 2637669
0.72201449 0.60611933 0.013053775 2966377
0.72482604 0.60845757 0.01204741 3487811
0.72697663 0.60922903 0.010180593 5655109
0.73026133 0.6099956 0.010305643 4278108
0.73246074 0.61193556 0.0095757246 1909305
0.73471379 0.61188978 0.0093536377 1054265
0.73789287 0.61346698 0.0088701844 923699
0.55373782 0.54562271 0.050452173 2962243
0.5566116 0.54659832 0.051266611 2961737
0.56470066 0.54942364 0.048660219 3354956
0.5677231 0.55081284 0.049062312 3223626
0.67519963 0.59152448 0.02248764 3551570
0.67698622 0.59261096 0.020746291 4344947
0.67966098 0.59364814 0.020497561 3951211
0.68240732 0.59420884 0.021120846 2567484
0.68443561 0.59604311 0.018415987 1912895
0.6871565 0.59666997 0.019039154 2045250
0.68986386 0.59672266 0.018951476 2241894
0.70930535 0.6045078 0.014732957 1651033
0.72579908 0.61169255 0.0094664693 5721915
0.72877479 0.61120427 0.0091844201 6510125
0.7330482 0.61284053 0.0081118345 398140
0.73394573 0.61435664 0.0067704916 2631999
0.73729438 0.61566377 0.0056009889 3289916
0.7394138 0.61716938 0.0051675439 5918538
0.55035341 0.54572719 0.050710797 2764091
0.55294746 0.54850066 0.050816655 3093324
0.55909204 0.55070037 0.047980249 3421253
0.56100178 0.54991758 0.047968149 3289679
0.56377715 0.5516634 0.048835635 3289683
0.66236311 0.58970994 0.021597445 2764940
0.6650185 0.59034938 0.022197604 1256516
0.66730839 0.59284085 0.020953417 2173782
0.66972017 0.59288079 0.020398736 2042968
0.67229086 0.59296697 0.02019763 1976923
0.6751622 0.59294605 0.019905984 4015999
0.68258685 0.59601653 0.018458962 1847102
0.7315166 0.61421919 0.0049889088 6245961
0.73318064 0.61650455 0.0056842566 3946050
0.7354508 0.61678576 0.0040568709 4603973
0.73808903 0.61781454 0.0032477975 3683902
0.74027085 0.62037307 0.0030261874 6510157
0.54669684 0.54640818 0.050326526 1052706
0.55464053 0.54990172 0.046115577 3486788
0.55738652 0.55048507 0.046991289 3420483
0.56007874 0.55096352 0.046616554 3289405
0.56188047 0.55244917 0.046859443 3289152
0.65329158 0.58949077 0.021927953 2502481
0.65509987 0.58957779 0.021815896 2568274
0.65751481 0.58994198 0.021300912 4407129
0.66045362 0.59056836 0.021433473 3618922
0.66324127 0.59197688 0.021104455 1845308
0.66670048 0.59255654 0.019996643 2108240
0.72791904 0.61617267 0.0050284266 6903112
0.72979897 0.61757314 0.0036999583 7889749
0.73179018 0.61772931 0.0028158426 8021592
0.73366886 0.61791909 0.0028491616 5524555
0.73807269 0.62036276 0.0020670295 5984338
0.73884022 0.62050545 0.0021292567 726836
0.54210371 0.54752314 0.047749639 460294
0.54587227 0.54877675 0.046710849 1709866
0.54786265 0.54995489 0.045921803 3288644
0.55080777 0.55032557 0.045440435 3223872
0.55391186 0.55212128 0.046014011 3289669
0.55547982 0.55211467 0.044509947 3616571
0.64534271 0.58879244 0.021618068 2174026
0.64860624 0.58890629 0.021064699 1320759
0.65199912 0.58994156 0.021409571 1451600
0.6540767 0.59062243 0.019990087 3159105
0.72844666 0.61834103 0.0025505424 6443342
0.73279101 0.62197214 0.00042176247 725800
0.5428828 0.550394 0.045592964 723217
0.5470807 0.55154699 0.044577777 2763066
0.63621438 0.58582401 0.020596206 1254224
0.63854915 0.58714861 0.021402001 3030115
0.64258516 0.5883038 0.02171737 4147560
0.64425474 0.59041721 0.018885612 2633526
0.64698732 0.5905174 0.018752038 1976118
0.65037215 0.59096909 0.019124031 2371909
0.63228321 0.58901227 0.020313501 2239578
0.63421243 0.58937281 0.020224452 1517396
0.63790208 0.58972442 0.018371582 4340829
0.64068872 0.59033835 0.019017935 4601475
0.642497 0.59042525 0.018905878 3746422
0.62876093 0.58705568 0.019070268 1317984
0.63156396 0.58756161 0.018959522 1451603
0.63516951 0.58962405 0.018505216 1975892
0.62237334 0.58820361 0.017500043 4807796
0.62509775 0.58840674 0.017403126 1320253
0.62795454 0.59121132 0.016061723 1910606
0.62978435 0.59070003 0.015342116 1780048
0.63161147 0.59132493 0.015906692 2173520
0.60214543 0.58238691 0.019835293 68181
0.60407472 0.58274734 0.019746244 397600
0.60691804 0.583193 0.019704461 791861
0.60981196 0.5837338 0.019570947 791620
0.61265612 0.58679056 0.017818749 2109243
0.62129837 0.59085679 0.015730679 330782
0.62671393 0.59043211 0.015188575 1189428
0.60984319 0.58624279 0.0178262 727582
0.61363178 0.58950979 0.015995085 792877
0.61664325 0.58933771 0.015242636 790045
0.61951202 0.58983088 0.015154958 725288
0.59363633 0.58340371 0.018376648 3161962
0.59653026 0.58394432 0.018243134 1386057
0.59836859 0.58427 0.018176913 726112
0.58786476 0.58493888 0.016784251 3097719
0.58130574 0.58310688 0.016339421 2638972
0.58323497 0.58346736 0.016250372 2441594
0.58513892 0.58378041 0.016207099 2442101
0.5776062 0.58433729 0.013993144 2705281
0.56984872 0.5829556 0.014280319 3491192
0.57274264 0.58349633 0.014146745 3489669
0.57567692 0.58397692 0.014082193 2573439
0.56598097 0.58480394 0.012644768 3227764
0.56047219 0.58731008 0.010513246 3622260
0.55552876 0.5889734 0.0089105368 3754325
0.54995614 0.58661008 0.0076414943 1845348
0.55312681 0.58759797 0.008051157 3819111
0.49108475 0.5714817 0.014235735 2039322
0.49462414 0.57185411 0.01488328 1512984
0.49734575 0.57327533 0.01474905 1118230
0.49976683 0.57457972 0.013020039 723980
0.50297821 0.57569671 0.013058722 657930
0.50576216 0.57645941 0.012058914 723210
0.50874144 0.5778656 0.011942267 591879
0.51024735 0.57897162 0.010865808 1051141
0.51301163 0.58033192 0.0092749596 4075802
0.48843825 0.5721333 0.013887286 2499363
0.49240613 0.57433558 0.014213443 2104864
0.5154525 0.58171999 0.0077522993 6180651
0.48358673 0.57349056 0.011745811 2565157
0.48785618 0.57425416 0.010421157 2302504
0.49015939 0.57422787 0.01035589 1579036
0.49240962 0.57626438 0.011035144 2892835
0.49501324 0.57808089 0.0097190738 1314583
0.49778479 0.57835996 0.0093560815 1773592
0.49981588 0.57936436 0.0084639788 1641998
0.50275636 0.58139807 0.0068499446 1641479
0.51626807 0.58604205 0.0042300224 8217916
0.51974297 0.58767557 0.003477335 8086074
0.52246016 0.58816004 0.0022614598 7822643
0.52509892 0.58889258 0.0014775395 7690805
0.52741659 0.5902347 0.0013657212 7492154
0.52941686 0.59100062 0.0008636713 7294775
0.48470497 0.57577181 0.00938344 2631470
0.48871261 0.57723272 0.01049 2959402
0.49125856 0.57843447 0.0097592473 1841695
0.49752277 0.57977289 0.0082768202 722960
0.4992913 0.58082819 0.0072924495 722701
0.50230241 0.58190495 0.0062526464 787723
0.50539416 0.583202 0.0052128434 2495246
0.50724334 0.58436394 0.0042744279 4467215
0.5098303 0.58554316 0.0031614304 6901273
0.51273668 0.58675683 0.0022780299 8216371
0.51562452 0.58734512 0.0016819239 8610880
0.51828825 0.58781683 0.0018405914 8348736
0.52045763 0.58772039 0.0017923117 8413755
0.47404051 0.57395649 0.0083817244 3747375
0.47863409 0.57488489 0.0096958876 3221801
0.4831503 0.57570553 0.0087846518 3484975
0.51245743 0.58738136 0.0018262267 8479276
0.47479653 0.57742596 0.0079224706 4668461
0.48050421 0.57930875 0.006806016 2564901
0.47106057 0.57720518 0.0069419146 6377535
0.47671106 0.57883668 0.0036804676 3813165
0.47869784 0.58081073 0.0049672723 3681057
0.45527315 0.57433724 0.0073668361 11308135
0.46358716 0.57706678 0.0058026314 10454377
0.4671427 0.57759589 0.0057313442 8481617
0.47475028 0.57960021 0.0040441751 3089449
0.42438251 0.56349146 0.012349308 986125
0.42713869 0.56515348 0.012574553 1314315
0.42989677 0.56696635 0.011576056 2891280
0.43136245 0.56767839 0.010614395 5651223
0.43527293 0.56826681 0.0095647573 9071666
0.43818128 0.56983542 0.0094134808 9137459
0.4413321 0.57104254 0.0094578862 9992762
0.44398978 0.57156771 0.0085783601 11045466
0.44695032 0.57198191 0.0078599453 11374439
0.45011878 0.57322061 0.0073288679 11242595
0.45275718 0.5747366 0.0075922012 11176548
0.45688027 0.5751791 0.0062904358 11439980
0.45837605 0.57612985 0.0053746104 11637362
0.46047759 0.57617742 0.0050566196 11374707
0.46697557 0.57926953 0.0019220114 4733495
0.46881321 0.58004951 0.0021079183 5711917
0.47204489 0.58181751 0.0019055605 3811367
0.41351432 0.56197762 0.012310743 1776922
0.41847217 0.56395346 0.012730241 1184274
0.42121094 0.56469858 0.011632919 723978
0.42331928 0.56649196 0.012690485 855315
0.42745531 0.56549948 0.010127783 4469518
0.43313098 0.56827945 0.0098138452 7493407
0.46373346 0.58052528 0.00099891424 7758423
0.46786335 0.58339471 0.00079727173 6243896
0.46997517 0.58314347 0.00050234795 5060654
0.41044381 0.5631479 0.011502624 1842731
0.41482544 0.56467611 0.012449086 2105380
0.41673893 0.56506538 0.0094923973 986129
0.41940635 0.56665415 0.008302629 1181963
0.4218511 0.56721175 0.0079391003 2496267
0.44964385 0.57853413 0.00054270029 11439195
0.45174444 0.57903612 0.00069475174 11306329
0.45481926 0.58095241 0.00053220987 11437918
0.45840567 0.58105779 0.00030237436 11109734
0.40697962 0.56462133 0.01046437 2104618
0.41281933 0.56557024 0.0093256235 1973791
0.41482031 0.56792533 0.0077446103 2235166
0.41684115 0.56854749 0.0071049929 2168087
0.42094928 0.5701986 0.0084639788 788487
0.42380983 0.57030904 0.0071758032 2496009
0.426943 0.57154548 0.0054785013 6966044
0.43161467 0.57454568 0.0043485165 9201712
0.43483254 0.57528567 0.0036188364 10451524
0.43778723 0.57616389 0.0021240711 11240533
0.44176897 0.57593513 0.0022296906 11502675
0.44329911 0.57731599 0.0017418861 11240280
0.44621664 0.57810009 0.0012993813 11240534
0.44925326 0.5787378 0.00046551228 10779722
0.45199659 0.58019269 0.00039625168 11240279
0.40379775 0.56590044 0.009816587 2629155
0.41002172 0.56684482 0.0084491372 2237224
0.41578194 0.56995732 0.0054739118 1775630
0.41830194 0.57020366 0.0055922866 1510408
0.42076173 0.57065356 0.0053434372 2954762
0.42227274 0.57206434 0.0040947199 4267786
0.42551827 0.57300413 0.0034511089 7292438
0.42872924 0.57423472 0.0037708282 8147996
0.43093479 0.57507867 0.0028178096 9332267
0.43413854 0.57569903 0.0014840961 10647109
0.43634236 0.57810831 0.0015245676 10581310
0.43919849 0.57865912 0.00074481964 10975554
0.40394437 0.56693685 0.0058474541 2236704
0.41047859 0.57201362 0.0045702457 2958890
0.41244954 0.57231343 0.0036783814 2762525
0.41872334 0.57471561 0.0021037459 1248513
0.40479577 0.57225633 0.0015791655 3288110
0.71887493 0.56638408 0.059776425 3818843
0.70308262 0.56128138 0.061154366 2306881
0.70491141 0.56099755 0.060996711 2438467
0.71288115 0.56620693 0.058849752 3489627
0.71645695 0.5660249 0.05901587 3621209
0.72151846 0.5683412 0.057592332 4212833
0.72970223 0.57253379 0.05467397 4736616
0.73152077 0.57323003 0.054217577 1052208
0.73333925 0.57392633 0.053761125 722953
0.70378864 0.56442869 0.060442865 2503747
0.70599318 0.56625521 0.057990551 2962756
0.70921868 0.56610298 0.05819422 3094873
0.71158075 0.56536645 0.057425857 3620196
0.7223509 0.56964111 0.054274201 4343910
0.70260012 0.56631744 0.057274222 3357007
0.70506704 0.56639022 0.055821121 4014428
0.70816064 0.56749135 0.055015385 4804456
0.71095777 0.56917667 0.055278063 5264493
0.71375901 0.57001251 0.054458916 5330543
0.71610731 0.57134646 0.053251624 5462388
0.71845406 0.57205409 0.052945673 5659254
0.72143942 0.57366705 0.052664876 5593713
0.72475815 0.57419586 0.052096188 5396331
0.72715187 0.57569337 0.051961541 4343132
0.72901469 0.57699794 0.049761295 922402
0.68800777 0.56222278 0.05785054 4145492
0.69068593 0.56354451 0.056989789 3948121
0.69379342 0.56377625 0.057199001 4013662
0.69583833 0.56587839 0.05620563 4145499
0.69859362 0.56658554 0.055742383 4540512
0.70161408 0.56755298 0.055303037 4606307
0.70459008 0.56819421 0.054810107 4606825
0.7071116 0.56954223 0.054315448 4541028
0.709737 0.57061362 0.054139972 4935275
0.7123009 0.57116544 0.052927732 5001582
0.71453154 0.57323194 0.053136587 5396344
0.7182101 0.57388276 0.051841736 5527930
0.72097194 0.57536882 0.050652206 5462394
0.72289848 0.57575303 0.050150275 5527931
0.72560316 0.57700258 0.04895705 4672364
0.72841901 0.5787375 0.048727274 4605801
0.7309432 0.57964087 0.047965825 2500156
0.73354387 0.5810647 0.046623349 2104873
0.7360605 0.58187628 0.04532665 4733764
0.67083412 0.55808586 0.058813155 2763322
0.67260313 0.55926931 0.059633493 1843504
0.6754477 0.56015646 0.058882236 2697009
0.67809606 0.56111366 0.058076978 2959921
0.68127859 0.56198001 0.057333589 3026743
0.68389231 0.56339049 0.057460368 3421513
0.68631011 0.56461918 0.056823671 3817045
0.68911141 0.5654459 0.056428432 3948631
0.69267684 0.56597149 0.055332243 4342878
0.69471693 0.56799042 0.055804729 4408928
0.72843593 0.57999158 0.046983123 2172227
0.72895336 0.58109641 0.045033336 988195
0.66033977 0.55641246 0.058706284 2369330
0.66313058 0.55858016 0.059328973 2698044
0.66618705 0.55887973 0.058599234 2829637
0.66884124 0.55966961 0.058634996 2829887
0.6710459 0.56098926 0.057700992 2960701
0.67521232 0.56226075 0.05742979 2696750
0.67731696 0.56306779 0.058063567 1644062
0.67947936 0.56359267 0.05740124 1973028
0.72670335 0.58030862 0.043630838 1382450
0.7295658 0.58220053 0.043680191 1316653
0.73062456 0.58377701 0.04088223 1776944
0.65391409 0.55645013 0.059453607 3091516
0.65710258 0.55762088 0.059044898 2170928
0.65963006 0.55917001 0.059208632 1710637
0.66326886 0.55942667 0.057665467 3486785
0.66515291 0.55988318 0.057323933 3881288
0.66672283 0.56203657 0.056931496 3487564
0.66843122 0.56359822 0.055457473 2829121
0.72756827 0.58393145 0.041210294 1054511
0.73028535 0.58564186 0.041645527 1251617
0.73276484 0.58807909 0.039759278 1841954
0.63870144 0.55334896 0.060716867 5130832
0.64142913 0.55439329 0.060032248 3946799
0.64454103 0.55550885 0.059088171 2894647
0.64705253 0.55624342 0.058617532 3421506
0.64993733 0.55748111 0.058546722 2171956
0.6527617 0.55897838 0.057185292 4077632
0.65560496 0.55960917 0.056811929 4998745
0.65833962 0.56045717 0.055967987 3814981
0.66119969 0.56152439 0.05564487 3289401
0.66380596 0.56209099 0.055325031 3487566
0.73063457 0.58779234 0.039159775 1317664
0.73189169 0.58779353 0.038328052 1777194
0.73303258 0.58916205 0.035905123 1908522
0.63185924 0.55318737 0.059720159 2828862
0.6348238 0.55420935 0.059433579 4078156
0.63744259 0.55490923 0.058782518 3881285
0.64084381 0.55583394 0.059021235 1974061
0.64362311 0.55674595 0.057682872 2960699
0.6467281 0.55813652 0.056765556 3223620
0.64912325 0.55888194 0.056169271 3157568
0.65084994 0.55985469 0.056820631 3288637
0.73310018 0.59115791 0.037028372 2171184
0.62408805 0.55214 0.058928907 2171442
0.62645209 0.55190986 0.058794916 2763326
0.62843955 0.55342954 0.059829593 2763582
0.63931125 0.5582726 0.056050658 4144207
0.64219546 0.55805236 0.055959582 3223612
0.64432263 0.55837446 0.055285871 3421001
0.64685565 0.56033015 0.056091785 3223623
0.73139495 0.59330404 0.034822464 2039333
0.6173929 0.55116403 0.057932794 5197150
0.61842036 0.55292183 0.059011698 4013131
0.62177449 0.55269229 0.058879316 2302770
0.62565154 0.55463254 0.059320152 2500665
0.63015366 0.55557215 0.056489289 3419711
0.63270789 0.55728459 0.055274606 3880003
0.63573968 0.55808997 0.055418253 5196375
0.6378271 0.55891454 0.055206954 4078422
0.73161209 0.59429199 0.031059802 1578792
0.73312759 0.59623456 0.029982984 3221808
0.6129176 0.55187243 0.05783397 2565693
0.61503756 0.55257171 0.058364391 3289408
0.62099886 0.55595112 0.055940092 4472391
0.62392128 0.55636406 0.055944204 3420729
0.62612575 0.55696821 0.055205464 3618113
0.62842059 0.55760723 0.054879844 3814472
0.63109916 0.5595172 0.055173635 3354942
0.60059458 0.55002874 0.058068514 3288902
0.60281718 0.54989576 0.057957292 2369079
0.60554641 0.55149019 0.057679594 2763325
0.60835123 0.55277306 0.057666004 3026246
0.61069036 0.55306292 0.057130337 3223108
0.61389887 0.55457842 0.055617988 3026746
0.61680818 0.55587423 0.054901242 4407375
0.61919969 0.55685103 0.054964185 4143952
0.62229317 0.55754334 0.054323912 3156807
0.73078716 0.59881777 0.026789367 1710378
0.59203035 0.54848856 0.057528734 2893879
0.5944013 0.55000401 0.058770418 4866896
0.596533 0.54983622 0.058682024 5459794
0.5992111 0.55146646 0.057159662 5063762
0.60191917 0.55310851 0.055774987 4142909
0.60455942 0.55394274 0.055151582 3156794
0.60714948 0.55463827 0.054956257 3683655
0.60944533 0.55568755 0.054347515 3551819
0.61266863 0.55627799 0.053484082 3157316
0.58713108 0.54994255 0.056878328 3158864
0.58943439 0.54946214 0.056996703 2895428
0.59158307 0.55119526 0.058123231 2894396
0.59544557 0.55270976 0.055008292 4537413
0.59794527 0.5529021 0.054525614 4209233
0.6006586 0.55466795 0.053715169 2763836
0.60343367 0.55484146 0.053826392 2632508
0.72954845 0.60401732 0.021898568 3616305
0.58044624 0.54889464 0.055813432 2896207
0.58271283 0.54957426 0.056240976 2961488
0.58465624 0.55050856 0.056644917 3027279
0.59169298 0.55355471 0.053396344 3025208
0.59385109 0.5539524 0.053399444 5129043
0.59601283 0.55379629 0.053448558 5656664
0.72013563 0.60351443 0.020875156 3490683
0.72201437 0.60377997 0.020877898 3097476
0.7248174 0.60428596 0.020767212 3755396
0.73003829 0.60647213 0.017516375 4347275
0.73187661 0.60679775 0.017450094 4412805
0.57377154 0.5482291 0.054495931 3027023
0.57678431 0.54995221 0.055325508 2830413
0.58329684 0.54998493 0.053935945 3420234
0.58407855 0.55321062 0.052184463 3421010
0.58704948 0.55386007 0.052976251 3420750
0.58976418 0.55387533 0.052919149 2762056
0.59341174 0.55537355 0.052721322 3157569
0.70987839 0.60162938 0.021170318 2505317
0.71360064 0.60229814 0.021026433 2636900
0.72090191 0.60422176 0.018214881 3294586
0.72689748 0.6071496 0.017794251 3952769
0.73230153 0.60945773 0.015751839 1912671
0.73413998 0.60978335 0.015685678 2040402
0.5701955 0.54901671 0.054157615 2961484
0.57201123 0.55096275 0.054939389 2895950
0.5748508 0.5512169 0.054152012 3289155
0.57779825 0.55240792 0.052813888 3486021
0.58042109 0.55370265 0.052385092 3355211
0.58301985 0.55459738 0.052419186 3355210
0.68896759 0.59600604 0.024146736 2109779
0.69240737 0.59637713 0.02381134 1913438
0.7005201 0.59993732 0.021397769 2109792
0.70333987 0.60033488 0.02031225 2110566
0.70613605 0.60099083 0.021279633 2307175
0.71187162 0.60430908 0.018958211 2505578
0.71469837 0.60460949 0.018847644 3162992
0.71671772 0.60648096 0.018574536 3228275
0.71947598 0.6076504 0.017763793 3360636
0.7227118 0.60762709 0.016598463 3361400
0.72753501 0.60986418 0.014689147 3493241
0.73026794 0.6104185 0.014153898 4544647
0.7335639 0.61151022 0.013395548 1713745
0.73700178 0.6121639 0.01253438 792117
0.56307507 0.54946804 0.053205848 3027275
0.5661751 0.55023968 0.053588867 2961737
0.57194823 0.55242413 0.051440001 3158347
0.57349026 0.55319136 0.051159024 3158864
0.57649922 0.55415535 0.051618218 3158611
0.67960924 0.59431386 0.024374306 2368881
0.68334907 0.59497046 0.024282038 1777715
0.68616968 0.59546423 0.02422303 1187641
0.69397473 0.59879267 0.021617889 1978977
0.69691032 0.59972697 0.020497739 1913700
0.6996845 0.60022068 0.019377589 1717094
0.701689 0.60197282 0.019081593 1914725
0.70459753 0.60376829 0.018729508 1848930
0.70725942 0.60380375 0.018653214 1782627
0.71009082 0.60549146 0.015857756 1913941
0.71390808 0.60604584 0.016356587 2046549
0.71567786 0.60667288 0.015892386 2309731
0.71858919 0.60805041 0.015410602 2703207
0.72179687 0.60967278 0.015124142 2901094
0.72475743 0.61003006 0.014392376 3164266
0.72696716 0.61160123 0.013104439 3230057
0.7295472 0.61186326 0.012500405 3624044
0.73228222 0.61318141 0.011276364 1647687
0.73496175 0.61450064 0.011256933 857914
0.73742098 0.615704 0.0098912716 857644
0.73880118 0.61709064 0.0094721317 922658
0.55755067 0.54935741 0.052497983 2961993
0.55964202 0.54902273 0.052432477 2962251
0.56183106 0.5506956 0.053627968 2961738
0.5671562 0.5530504 0.050216675 3224137
0.57000297 0.5539239 0.050067484 3223620
0.67607814 0.59519309 0.022711039 1450056
0.67971241 0.59529799 0.02256161 1843770
0.6826331 0.59770226 0.020557404 1450037
0.68448174 0.59772897 0.020514369 1844795
0.687047 0.59992272 0.019840479 2176831
0.68975437 0.59997547 0.01975286 1784156
0.69338596 0.60004163 0.019643486 2110815
0.69643021 0.60359251 0.019004107 1980774
0.69827884 0.60361934 0.018961012 2110051
0.69999611 0.60367143 0.018871784 2110050
0.70889771 0.60783577 0.015556693 1848661
0.71127278 0.60741997 0.014963925 1980756
0.72318381 0.61322933 0.011469245 3486259
0.72520483 0.61294311 0.01119709 4999498
0.72780728 0.61374974 0.0098699927 5983543
0.73133373 0.61574453 0.0099834204 923945
0.73534805 0.61588061 0.0089857578 857660
0.73746014 0.61824054 0.0073436499 791846
0.73909676 0.61886716 0.0069327354 3355190
0.55075842 0.54917741 0.051891387 3092808
0.55282301 0.55027163 0.052146316 3093066
0.55503541 0.54998356 0.052195668 3027275
0.56120574 0.55279827 0.048647702 3355468
0.56354254 0.55320251 0.049591601 3355470
0.56606734 0.55375344 0.049755752 3158609
0.66140062 0.59085709 0.023017824 2637686
0.66798544 0.59443939 0.022291958 1912152
0.6696775 0.59444404 0.022248566 2174553
0.67245787 0.59503013 0.022608042 2305625
0.67524803 0.5954802 0.022141814 6644368
0.68084359 0.59815329 0.021346033 791072
0.68523878 0.59983581 0.019952476 1321522
0.72584313 0.61500281 0.0089946985 6378797
0.72681165 0.61809927 0.0083753467 6510132
0.72862196 0.61727726 0.0073232055 7102527
0.73268187 0.61871922 0.0072941184 725046
0.7354598 0.61974525 0.0067816973 988724
0.73807031 0.62124884 0.0054543018 5983815
0.73996657 0.62207556 0.0047762394 3289648
0.5459466 0.54945296 0.050668001 1052442
0.54832035 0.54892397 0.050993085 2565683
0.55630249 0.55417436 0.04742378 3224142
0.55952591 0.55383933 0.048581719 3289417
0.56261992 0.55432385 0.048064113 2960963
0.56539303 0.55538559 0.047368169 2633031
0.65430915 0.59101766 0.023052871 2503239
0.657592 0.591537 0.022902846 2701390
0.65993124 0.59372652 0.022562981 1977904
0.66321266 0.59380358 0.022462845 1517370
0.66609204 0.59541684 0.02149713 2108503
0.72884655 0.62012434 0.0044544339 7036991
0.73095638 0.6207819 0.0050997734 6575688
0.73399675 0.62128544 0.0042271614 4800831
0.73663938 0.62163305 0.004136622 3486269
0.73957926 0.62396967 0.0029088855 8482138
0.54207015 0.54932904 0.049056411 591366
0.54748595 0.55238605 0.046814919 3223106
0.54965782 0.55261219 0.046611607 3486781
0.55273938 0.55439889 0.046803474 3355458
0.55585563 0.55485463 0.047009885 3354944
0.64518815 0.59009767 0.022993684 2173255
0.64799118 0.59060353 0.022882938 1450840
0.6517992 0.59122938 0.022796631 2108258
0.65615124 0.59410828 0.022618294 1781824
0.66411787 0.59606051 0.020748258 1910096
0.72782683 0.62079316 0.0038217306 6706251
0.73023498 0.621122 0.0032554865 7955542
0.73303056 0.6221416 0.0022192001 7693922
0.73550069 0.62448066 0.0017232895 2106157
0.73764622 0.62548399 0.001198411 2369578
0.54591066 0.55320156 0.046055079 2104878
0.54882443 0.55498821 0.046301842 3157823
0.5511319 0.55556911 0.045864582 3223101
0.63857722 0.58896577 0.023190737 4477048
0.64238524 0.58959174 0.023104429 4739185
0.64430094 0.592103 0.020983994 1779747
0.64703095 0.5922212 0.020867705 1713965
0.64981502 0.59285319 0.021531105 2108986
0.73331517 0.62436861 3.1471252e-05 265506
0.54249638 0.55335093 0.045935035 854543
0.63208842 0.59037775 0.021620274 2502484
0.6339671 0.59064317 0.021623015 2109274
0.63794315 0.59144604 0.020504415 5130851
0.64069462 0.59208441 0.021047413 3157364
0.64249772 0.59209371 0.021015704 2499178
0.63518053 0.5913341 0.020500302 1910883
0.62243843 0.59042728 0.020275116 4411239
0.62445098 0.59042811 0.019750476 2503253
0.6276226 0.59158701 0.01899296 1976403
0.62923265 0.59314209 0.018402934 2109246
0.63163888 0.59247279 0.017328501 2238560
0.60949016 0.5882678 0.019946873 1255746
0.61139411 0.58858085 0.01990366 2637142
0.62104273 0.59219903 0.017197967 3225435
0.62434387 0.59278345 0.018315315 2175537
0.62615216 0.59287035 0.018203437 1714986
0.6304751 0.59505606 0.017509162 2437484
0.59997529 0.58655363 0.020174086 6054805
0.60285407 0.58703154 0.020103753 5068654
0.60571253 0.58753997 0.019998789 731999
0.60759127 0.587919 0.019955516 402776
0.61154801 0.59045458 0.01745975 2305899
0.61347735 0.59081501 0.017370701 1516383
0.61531574 0.59114069 0.01730454 2236714
0.61921465 0.59180146 0.017195463 5856899
0.59796882 0.58684564 0.020951033 2504551
0.59821415 0.58557528 0.019552588 3222882
0.61542761 0.59375644 0.015605807 6184294
0.59057891 0.58673733 0.018072307 2573430
0.59250808 0.58709782 0.017983258 3096169
0.59433621 0.58749539 0.017985702 2372446
0.58670092 0.5886575 0.016505539 2573430
0.58288324 0.58923852 0.015765309 2507638
0.57541209 0.58788848 0.01373589 3423875
0.57709599 0.58951932 0.015045345 1916025
0.57902521 0.58987981 0.014956295 2047354
0.56866986 0.58666837 0.013932705 3622516
0.57151324 0.58722758 0.013844967 3489158
0.57348281 0.58752799 0.013824821 3226752
