# .PCD v0.7 - Point Cloud Data file format
VERSION 0.7
FIELDS x y z rgba
SIZE 4 4 4 4
TYPE F F F U
COUNT 1 1 1 1
WIDTH 1147
HEIGHT 1
VIEWPOINT 0 0 0 1 0 0 0
POINTS 1147
DATA ascii
0.74451715 0.62858415 0.047875941 2763544
0.7484709 0.62949014 0.046754777 2698010
0.7524181 0.63001651 0.045794129 2763546
0.75641692 0.63321519 0.045239985 2434325
0.75771284 0.63469988 0.043966115 2171153
0.7604267 0.63597202 0.043562174 1710860
0.76268029 0.63783282 0.043213129 1447432
0.68492633 0.60169256 0.057756543 5854532
0.68739551 0.60288382 0.057187319 1644800
0.68990874 0.60409641 0.056607962 1446959
0.69304353 0.60622633 0.055233359 1644825
0.69585413 0.60591483 0.055951595 1382432
0.69790578 0.60810602 0.057139814 1579036
0.70033431 0.60884714 0.053976238 2696209
0.70326459 0.61029196 0.054462135 4537895
0.70537496 0.61160707 0.053579211 3551527
0.70808387 0.61330634 0.051916003 1973770
0.7105695 0.61501992 0.051773369 2434320
0.71389413 0.61511779 0.051642716 2434835
0.71662086 0.61679226 0.051479995 2434581
0.71959692 0.61758471 0.050922334 2500632
0.72226071 0.61907876 0.04998672 2763804
0.72531801 0.62051487 0.050021231 2829086
0.72822577 0.62124038 0.049395919 2894623
0.75891072 0.63579303 0.041284502 1776397
0.76129919 0.63818222 0.040904582 1710604
0.76276505 0.64000714 0.040260673 1776395
0.67816406 0.60045475 0.056699276 1250069
0.68061113 0.60163546 0.056135178 1579543
0.68269652 0.60299683 0.055609882 3024426
0.68594956 0.60397232 0.055652678 2631203
0.68859953 0.60531884 0.055208862 1447702
0.69130057 0.60602599 0.055123866 1513236
0.69388747 0.60847777 0.053522706 2631706
0.69709432 0.60915142 0.053347826 2631446
0.69901025 0.61200142 0.051882803 3419938
0.70234835 0.61181849 0.051960468 4078131
0.70687985 0.61468554 0.050809205 2696976
0.70999616 0.6156559 0.049141586 2565386
0.71291351 0.61667812 0.049670577 2829074
0.71587241 0.61808324 0.049705625 2829337
0.71800673 0.6184026 0.049302578 2763802
0.76187921 0.63963056 0.038335502 1513227
0.66888857 0.59800434 0.056221366 1249567
0.67135769 0.5991956 0.055652142 1249817
0.67474759 0.60113013 0.054729521 1381664
0.67652291 0.60218656 0.054311216 1447447
0.67933381 0.60257024 0.054846466 1315601
0.68306971 0.60482323 0.052811503 2433551
0.68515885 0.60481399 0.053000152 2367506
0.68804246 0.60659921 0.053012311 2433550
0.69073236 0.6082018 0.051555932 2236942
0.69600296 0.60998195 0.050843537 2368017
0.69738424 0.61299527 0.049369037 2367501
0.70080703 0.61278701 0.049515426 3616535
0.7040149 0.61383194 0.049876451 4208432
0.76204646 0.6421839 0.035140455 1579016
0.76396024 0.64315617 0.036294699 2236682
0.66056907 0.59516698 0.055022717 1383176
0.66308236 0.59637958 0.054443359 1644325
0.66536707 0.59833002 0.054416955 1249582
0.66727746 0.59988451 0.053905308 1249316
0.67059231 0.60020864 0.053468525 1447191
0.67348456 0.60047811 0.05378902 1710119
0.67561841 0.603163 0.051775396 2762768
0.67774045 0.60525876 0.052003324 2565389
0.68117756 0.60470825 0.051495612 2302224
0.68361795 0.6074385 0.050578892 2235662
0.68701661 0.60816216 0.049128175 2170634
0.68946093 0.6095556 0.049939752 2039564
0.69155711 0.610906 0.049233198 2434319
0.69451791 0.612037 0.04837513 2565651
0.76273793 0.64453524 0.032403171 1710346
0.76509237 0.64612907 0.033654571 2039048
0.64679015 0.59130257 0.056030631 6313062
0.64846557 0.59211105 0.055644393 5722368
0.6509788 0.59332359 0.055065036 1578249
0.65346801 0.59461385 0.054543912 1579032
0.6559813 0.59582651 0.053964555 1644825
0.65849459 0.5970391 0.053385198 1777934
0.66099262 0.59754568 0.051508129 2105113
0.66386533 0.60023201 0.052374959 2038307
0.66620564 0.60142732 0.051747382 2762532
0.66981995 0.60157734 0.051752388 2565654
0.67278945 0.60223556 0.051500201 2763280
0.67393899 0.60573304 0.049541533 2237197
0.67767704 0.60513526 0.049994349 2434061
0.68003267 0.60795462 0.050126374 2432529
0.68280888 0.6091041 0.047850072 2433042
0.6848594 0.61000025 0.046814442 2236172
0.76269764 0.64672279 0.030412018 1513227
0.7639792 0.64679205 0.029475033 1973259
0.64182174 0.59008205 0.054059565 1512739
0.64410639 0.59203255 0.05403322 1643042
0.64897704 0.59416336 0.051828563 4406855
0.65265131 0.59618318 0.051825821 1578524
0.65484881 0.59743881 0.051688492 1972774
0.65765059 0.59808975 0.051677167 1841696
0.66017902 0.59976 0.051137626 2236435
0.6635952 0.60027468 0.051046789 3881507
0.66810763 0.60387862 0.048403263 2236939
0.67102754 0.60453612 0.048303246 2302734
0.67291737 0.60618377 0.04720062 2696984
0.67629743 0.60708076 0.047343433 2762513
0.67859501 0.60672569 0.047220647 3222546
0.68056375 0.60992318 0.0472036 2564883
0.76409578 0.64927351 0.02738589 1513224
0.6379835 0.5911032 0.05282861 1644325
0.63965893 0.59191155 0.052442372 1512739
0.64313799 0.5934 0.051464677 1512462
0.64612001 0.59334785 0.051993549 4078387
0.64935911 0.59671956 0.052440822 3287113
0.65127218 0.59702814 0.050070941 2564888
0.65339875 0.59908938 0.049344659 2696464
0.65697724 0.59976625 0.04980582 3091736
0.65906328 0.60213572 0.047334492 3683617
0.66166544 0.60210621 0.047246873 5328699
0.66441721 0.6031543 0.047357738 3880996
0.66680658 0.60474765 0.046791732 3354896
0.67000133 0.60681093 0.047506332 2630158
0.76447231 0.65213799 0.024520695 2235146
0.6343618 0.59142524 0.05107373 1644092
0.63602531 0.59227252 0.050716579 1512506
0.63924938 0.59389788 0.050395489 1579294
0.64657879 0.5973857 0.048169374 4406048
0.65218657 0.59973431 0.046666026 2171660
0.65542954 0.60084343 0.046411693 2697235
0.65719497 0.60178047 0.046520829 2565907
0.66079897 0.60346371 0.046165168 4011542
0.76815867 0.65637577 0.019702137 7364418
0.62229842 0.58758509 0.051212132 2105376
0.62481177 0.58879769 0.050632775 5721860
0.62732494 0.59001029 0.050053418 5193248
0.62982619 0.59126168 0.049503148 2234116
0.63222086 0.59243464 0.048326492 1906966
0.63557065 0.59377611 0.048694015 1907748
0.63843906 0.59482342 0.046849906 2895126
0.6407907 0.59641016 0.047336519 2500115
0.6430409 0.59725314 0.04705584 2630926
0.6460346 0.59862971 0.046198606 3880734
0.6489042 0.60057116 0.045738697 2499598
0.65126634 0.60101026 0.045098364 2170638
0.65404713 0.60223544 0.045214176 2696726
0.76341927 0.65656984 0.019717574 2497805
0.76344675 0.65661818 0.018461883 4338449
0.61860061 0.58782578 0.049448431 1644325
0.62004751 0.5893721 0.049615204 1579032
0.62360275 0.59087801 0.047528923 5723200
0.62640512 0.59146911 0.047640741 6577740
0.62925661 0.59184325 0.046773732 3353636
0.63108617 0.59422827 0.046666503 2631180
0.63420343 0.59499872 0.045896113 2697749
0.63652229 0.59643972 0.045361102 2698005
0.63984776 0.59780478 0.044770896 2433810
0.64267516 0.59889185 0.044717848 2696466
0.64489818 0.59900939 0.044277132 3749413
0.64675802 0.60151386 0.044796288 4538926
0.76304018 0.65658915 0.017129958 4534556
0.61406493 0.58766228 0.047877967 1644342
0.61694843 0.58887243 0.046767712 1776677
0.61981219 0.59015173 0.047274947 1776928
0.62232041 0.59116977 0.04626596 4078116
0.62609726 0.59131694 0.045740843 6313531
0.62784827 0.59396291 0.04551059 4078368
0.62986976 0.59500837 0.044006288 1842698
0.63281173 0.59610361 0.043073356 2631953
0.63574541 0.59816533 0.042651355 3026199
0.63842446 0.59742355 0.043374121 2763031
0.76226258 0.65819037 0.01415652 4535822
0.61348295 0.58871192 0.045664072 1909029
0.61572701 0.59058779 0.04620713 1909031
0.61824 0.59185863 0.044519067 2763287
0.62133503 0.59275019 0.043577909 4275746
0.62336183 0.5944618 0.043162346 5591113
0.62656641 0.59525299 0.04248625 4406579
0.62976396 0.59590864 0.041987956 2432006
0.63146275 0.59749681 0.04185921 2434061
0.63344598 0.59851563 0.042264223 2894617
0.5993154 0.5826503 0.04743892 1578788
0.60187274 0.58388418 0.04684931 1775918
0.60526788 0.58552229 0.046066701 1316395
0.6072036 0.58718431 0.044906676 1449249
0.6094932 0.58810061 0.044458449 1974817
0.61270887 0.58976871 0.042960346 3092260
0.61439824 0.59189117 0.042801976 2960925
0.61751616 0.59233665 0.042379498 3026715
0.6199522 0.59354687 0.041542292 3879958
0.62333852 0.59502727 0.041539133 5589547
0.62527972 0.59633452 0.041627765 6246465
0.59562945 0.58285224 0.045646131 1578782
0.59730506 0.5836606 0.045259893 1579038
0.59976196 0.58678538 0.042534947 2105639
0.60346276 0.58777499 0.043689072 1909285
0.6050474 0.58797878 0.041151464 3158555
0.60832471 0.5903194 0.041902244 3092769
0.61132449 0.59042084 0.041517794 2961442
0.61358994 0.59282404 0.040879309 3026458
0.61685532 0.59354556 0.04032129 2631700
0.76050425 0.66453063 0.0056561828 6114076
0.76395267 0.66617894 0.0057411194 7824430
0.76679796 0.66691101 0.0055963993 8416046
0.59185553 0.58301151 0.043873608 1252663
0.59353107 0.58381993 0.04348737 1252663
0.59648037 0.5863986 0.04183799 2171427
0.59841084 0.58793283 0.042764664 2040100
0.60148531 0.58887392 0.040116727 3158555
0.60453212 0.59028208 0.040785432 3093020
0.60675484 0.59095824 0.039298594 3026717
0.60990411 0.5925349 0.038796842 3026459
0.611781 0.59384406 0.038856328 2960921
0.76044238 0.66597247 0.0033630133 5851168
0.76195931 0.66703987 0.0047989488 6705442
0.58979678 0.58523691 0.040912211 2039332
0.59350467 0.58584571 0.03974241 2697760
0.59500903 0.58853984 0.039116919 3224093
0.59794044 0.5888412 0.039182007 3158557
0.6008026 0.59027648 0.037876844 3092000
0.60364771 0.59172547 0.038493812 3091996
0.76070279 0.66725302 0.0017616749 7297810
0.7625581 0.66913247 0.00070786476 7757843
0.7644819 0.66991508 0.00011503696 8020497
0.57731688 0.58004653 0.041992962 2631219
0.57908058 0.58089751 0.041586399 1907496
0.58251983 0.58255684 0.040793598 1448969
0.58331561 0.58424795 0.039094865 2039838
0.58607638 0.58502305 0.039247453 1974046
0.58838493 0.58651745 0.03763181 3289626
0.59172708 0.5878638 0.037402809 3223838
0.59404987 0.58906716 0.037043333 3158306
0.59634399 0.59042251 0.037041962 3092254
0.57499325 0.58187813 0.039189637 3745059
0.5771057 0.58343911 0.036863148 3221530
0.57988375 0.58444202 0.037801862 2499611
0.58232784 0.58591503 0.036954463 3487007
0.58519113 0.58736622 0.036252856 3289884
0.58736145 0.58903933 0.035518587 3224093
0.58966792 0.58882445 0.035727859 3158299
0.59192425 0.59072429 0.036702275 3092771
0.5763827 0.58416831 0.036564708 5391621
0.57859141 0.58529747 0.034653664 3682578
0.58063036 0.58642095 0.035027981 3289627
0.58339512 0.58700168 0.034708679 3289628
0.57485574 0.58559173 0.033576071 5522693
0.57759374 0.5866757 0.033948243 3813648
0.73207122 0.61768538 0.061957002 1121558
0.735147 0.618909 0.061094344 1055284
0.72351128 0.61390615 0.060326755 1251397
0.72570187 0.61583352 0.060335219 1186613
0.72900271 0.61744851 0.059587419 1645857
0.73921716 0.62299973 0.057346284 2172437
0.74120927 0.62498391 0.056982279 2172437
0.74389422 0.62535173 0.055625677 1974557
0.74700701 0.62698263 0.05507952 1711649
0.74949163 0.62725377 0.055028617 1382692
0.75229204 0.62906623 0.054655135 1580315
0.75493598 0.63013548 0.054177999 1514268
0.75777054 0.6311537 0.053847671 1514009
0.76071656 0.63255465 0.053654015 1382425
0.76315439 0.63353288 0.052626073 2763563
0.76557952 0.63576388 0.051295459 2236432
0.76822048 0.63707286 0.050897896 3287312
0.70118099 0.60645163 0.063621759 528656
0.70333081 0.60780132 0.063310564 528908
0.70540047 0.6090827 0.063000143 986395
0.7089408 0.60996848 0.061191142 2237449
0.7111966 0.61069793 0.060205281 2237452
0.7130084 0.61139351 0.05968231 2369036
0.71718037 0.61399651 0.058878124 1975072
0.71910214 0.61537009 0.059185207 1777194
0.72145957 0.61672866 0.058907807 1777964
0.72469467 0.61777508 0.05904609 1974310
0.72826183 0.61844891 0.058590591 1777190
0.73043668 0.61988556 0.057872951 1908770
0.73319936 0.62134999 0.056996226 2040097
0.73589277 0.62237954 0.056508124 2171938
0.7386511 0.623402 0.05624938 1842726
0.74114239 0.62436569 0.055889964 2039845
0.74367744 0.62618601 0.055324614 2237217
0.74647808 0.62790024 0.054294884 2434585
0.74886513 0.62846822 0.053950846 2434586
0.75139314 0.63010538 0.052725136 2105881
0.75368387 0.63179094 0.052539349 1908757
0.75624478 0.63260144 0.05157131 1711640
0.75927544 0.63469064 0.05076623 1382671
0.76160824 0.63571727 0.049630284 1448201
0.69853878 0.60666597 0.061298847 1316386
0.70359743 0.60913187 0.060528636 3092000
0.70550507 0.61000699 0.059977472 2104864
0.70752305 0.61187613 0.059648812 1183515
0.71064198 0.61267352 0.059573174 1710106
0.71287215 0.61403883 0.059217095 1908509
0.71555287 0.61491168 0.058816731 1711911
0.71835166 0.61631054 0.05773443 1713184
0.71969092 0.61789823 0.057028413 1384233
0.72364569 0.61923379 0.055334568 2763804
0.72685272 0.62064511 0.0557217 2763548
0.72905529 0.6204809 0.056078017 2763802
0.73082626 0.62232721 0.056064308 2829339
0.7363075 0.62437046 0.051651716 2565916
0.74516129 0.63022614 0.05041784 2434843
0.74710608 0.62975919 0.049267769 2500378
0.74937123 0.63212276 0.049283326 2434329
0.75279218 0.63342255 0.049134552 2368535
0.75444603 0.63400513 0.048181772 2434582
0.75709873 0.63676775 0.048254371 2105874
0.76207703 0.63707918 0.046889901 1447690
0.76245981 0.63792372 0.048841894 1579021
0.69184273 0.60545999 0.060226321 1120290
0.69349408 0.60634613 0.059898317 1383462
0.69591916 0.60751617 0.059339285 1054272
0.70106608 0.60949475 0.058998168 1776403
0.71192467 0.61474746 0.055360019 2894612
0.71334839 0.61778295 0.055591583 2960664
0.71723735 0.61850816 0.055286348 2894877
0.720478 0.61875564 0.055350482 2829599
0.72505516 0.6218679 0.052573979 2435094
0.72845989 0.62291348 0.052929461 2500886
0.73106253 0.62355781 0.052286327 2566172
0.73331451 0.62575078 0.051149666 2697499
0.73566264 0.62720597 0.05060786 2631965
0.7383405 0.62780875 0.050695539 2566428
0.74094427 0.62900585 0.049615979 2631963
0.74386203 0.6298129 0.049573183 2566426
0.74651563 0.63196403 0.049517453 2566426
0.74932563 0.6327188 0.047996581 2697754
0.75232959 0.63390207 0.048131585 2566681
0.75610644 0.63496739 0.047068477 2632216
0.75712544 0.63642442 0.046175301 2171152
0.75950509 0.63789749 0.045479476 1973775
0.76190704 0.63900316 0.044767559 1842186
0.68345904 0.60348451 0.059569299 5524557
0.68591619 0.60471463 0.059029222 3746854
0.68922311 0.60631019 0.058266878 1185329
0.69532907 0.60859168 0.057144642 1513768
0.69825745 0.61023796 0.057962179 1513504
0.70095026 0.61122888 0.054746211 3353619
0.70257127 0.61353266 0.055778027 4275491
0.70559347 0.61410558 0.05557549 3616810
0.70857817 0.61546415 0.054394901 2499600
0.71014261 0.61704212 0.052678049 2500115
0.71341097 0.61826068 0.052517474 2565909
0.71616828 0.62011623 0.052784443 2500370
0.71931529 0.62041056 0.051802695 2566168
0.72181892 0.62168765 0.051562726 2632219
0.72377813 0.62272024 0.050908685 2895133
0.72695565 0.62327695 0.050362289 2829087
0.72881889 0.62584907 0.050792634 2763804
0.76136589 0.64082444 0.042543054 1645071
0.76302749 0.6411382 0.042782426 1973515
0.76480782 0.64340913 0.041976988 2368264
0.68256515 0.60529745 0.056780517 4603210
0.6863808 0.60698944 0.056786954 3025710
0.68866801 0.60796416 0.056861103 1381657
0.69133753 0.60855138 0.056880116 1579034
0.6941672 0.61078441 0.05562824 2171169
0.69678897 0.61103427 0.054488599 2697495
0.69862723 0.61141264 0.054400086 2171153
0.70129919 0.61392319 0.053700268 4144167
0.70440489 0.61524439 0.053049147 3025947
0.70630819 0.61623645 0.053542912 2236938
0.7090168 0.61807537 0.05077678 2631180
0.71169919 0.61934215 0.051454663 2960153
0.71457493 0.62000763 0.050810516 2894871
0.71774203 0.62023914 0.050522149 2829341
0.71952772 0.62297177 0.050706089 2763551
0.76273382 0.64409369 0.039003551 1513226
0.76427412 0.64350533 0.038879216 2236936
0.76609993 0.64643586 0.039159298 2302214
0.66843152 0.59948015 0.05732733 1575996
0.67010701 0.60028851 0.056941092 1115188
0.67481679 0.60340905 0.056355655 1251100
0.67626369 0.60495532 0.056522369 1120547
0.67886168 0.60583615 0.055862308 1578261
0.6815623 0.60556298 0.056183577 4537663
0.68453443 0.60855001 0.053683698 4208682
0.68663883 0.6096738 0.05434227 4011311
0.68939948 0.61043119 0.054129004 2302481
0.69231284 0.61110699 0.053916037 2631449
0.6957311 0.61305147 0.051989555 2631187
0.69842345 0.61396974 0.052965045 3288604
0.70065498 0.61526215 0.050101101 4340006
0.70248222 0.61703265 0.0511567 4537390
0.70595121 0.61715537 0.050966382 3287843
0.76233184 0.64366305 0.037178695 1841674
0.76397437 0.64645249 0.036368668 1776136
0.66468138 0.60054374 0.056075871 2036517
0.66635692 0.6013521 0.055689633 2168103
0.67076564 0.60274184 0.054111302 1249810
0.67269504 0.60434633 0.054622948 1249813
0.67568648 0.60570979 0.055105329 1512470
0.67838013 0.60768497 0.052723825 2367501
0.68153077 0.60745811 0.053126156 2959377
0.68375802 0.61003137 0.050956428 3486751
0.68573248 0.61029696 0.050731003 1974283
0.68831426 0.61190611 0.051196992 1710854
0.69155824 0.61311913 0.050918996 2368525
0.6958859 0.61558372 0.049762487 2565138
0.76303959 0.64645439 0.034777164 1907467
0.76653945 0.65079868 0.032488227 2826502
0.65029311 0.5955373 0.056723952 1249307
0.65278238 0.59682757 0.056202829 1184274
0.65529561 0.59804022 0.055623472 1381153
0.6578089 0.59925282 0.055044115 1578532
0.66067761 0.60035414 0.054216027 1183765
0.66297442 0.6018765 0.053591967 1249556
0.66623789 0.60241109 0.05345422 1183518
0.66902357 0.60419577 0.053040266 1907215
0.67160469 0.60557824 0.053192854 1973513
0.67428583 0.60712677 0.052979171 2433804
0.67689711 0.60862225 0.051203668 2498830
0.6792261 0.61036825 0.05069536 4208933
0.68142748 0.61032391 0.05080539 4341542
0.68712163 0.61358774 0.048230946 2039305
0.69047838 0.61415517 0.048402965 2500369
0.69247681 0.61532503 0.048698604 2697492
0.76272929 0.64893311 0.032715559 1513230
0.76322454 0.65083778 0.030979991 1776137
0.6442585 0.59465051 0.055498958 2103318
0.64590991 0.59553653 0.055170953 2300697
0.64758539 0.59634495 0.054784715 1773615
0.65401202 0.60028803 0.053038061 1775903
0.65666747 0.60121596 0.052725673 1973027
0.6597777 0.60225856 0.051675022 2302489
0.66182226 0.60294217 0.051808178 2434067
0.66484684 0.60501099 0.05138582 2301966
0.66999954 0.60730296 0.049512029 2039306
0.67275286 0.60853803 0.049774945 2170894
0.67504954 0.60915989 0.048577368 2434062
0.67801684 0.61036551 0.048395395 2433290
0.68115252 0.61207056 0.048103213 3551520
0.68417436 0.61227465 0.047619641 2564625
0.76302707 0.6497277 0.029029667 1710346
0.76459819 0.65286428 0.027898669 1644297
0.64014238 0.59449601 0.053717554 1514525
0.64278042 0.59616691 0.053122163 1448212
0.64512235 0.59705913 0.052727878 2828323
0.64755207 0.59823906 0.052701473 3222588
0.6512993 0.59949762 0.053143501 1578015
0.65324289 0.6022737 0.050414026 2894100
0.65543425 0.60257781 0.050226748 3223323
0.6575979 0.60209602 0.050733209 3092252
0.6609689 0.60515702 0.048642993 2960668
0.66380471 0.60605735 0.049300969 1841940
0.66663158 0.60691541 0.04786402 2367506
0.66854602 0.60899127 0.048462212 2104331
0.6717729 0.60927284 0.048045814 2368271
0.76625967 0.65485525 0.025499046 1906700
0.63366413 0.59367776 0.052761734 1644325
0.63617736 0.59489042 0.052182376 1644325
0.63960457 0.59609747 0.051129043 1645091
0.64168888 0.59571326 0.051987886 1644570
0.64651757 0.59984964 0.049781084 4867627
0.6495142 0.6004982 0.049953759 4012076
0.65190119 0.60276204 0.049551427 2763026
0.65419549 0.60405338 0.048432887 2632210
0.6570577 0.60479528 0.047480524 2829078
0.65922296 0.60500795 0.046660066 3288336
0.6621328 0.6070891 0.047404945 2828302
0.76428682 0.65599805 0.023759902 2432015
0.62662727 0.5922628 0.051741421 2039083
0.62919456 0.59354615 0.051175892 1841439
0.6317299 0.59476936 0.050591469 1906968
0.63475597 0.5965749 0.050034225 1776937
0.63769883 0.59632725 0.050721943 1842212
0.63972467 0.5993818 0.048685849 2763286
0.64280701 0.59926957 0.04804796 3288852
0.64478171 0.60223126 0.047317207 4801327
0.64814007 0.60202497 0.04743427 2630422
0.65095443 0.60284066 0.046592772 2302476
0.65326476 0.60467482 0.046188176 2762775
0.76337069 0.65696949 0.019851506 3417624
0.61791497 0.59003949 0.051107347 1710135
0.62046021 0.59131217 0.050546944 1973790
0.62300551 0.59258491 0.049986541 2300189
0.62537658 0.59457314 0.049429953 2367528
0.62766904 0.59502399 0.048430204 2565417
0.63104475 0.59587193 0.048648 1974302
0.6336658 0.59679466 0.047486484 2960919
0.63660955 0.59795851 0.048180878 2960670
0.63881248 0.59981346 0.046616018 2697752
0.64206564 0.60204136 0.044730186 3091217
0.64417934 0.60269201 0.045422435 4801838
0.64733839 0.60376769 0.045636356 4012334
0.76415437 0.65855521 0.017715633 4403996
0.76590478 0.66061074 0.018788636 6180920
0.6159246 0.59114867 0.048976362 1775920
0.61898166 0.59264296 0.047902167 1777186
0.62188566 0.59299588 0.048202038 2566181
0.62456232 0.59383899 0.047066629 4867380
0.62729472 0.59675086 0.047059119 4143649
0.62907195 0.59817517 0.045205712 2501649
0.63237768 0.59805429 0.045273125 2698262
0.63531458 0.60030591 0.044770896 2829335
0.63768804 0.60107261 0.044127524 2894359
0.63976902 0.60190761 0.044818223 2499852
0.61242443 0.59138966 0.046349049 1843239
0.61600339 0.5926407 0.047275603 1777450
0.62096846 0.59451991 0.045445621 3946268
0.6237883 0.59649551 0.046809494 4538403
0.62612838 0.59719527 0.044323266 3092517
0.62896794 0.59950739 0.042869627 2500106
0.63097984 0.60039651 0.043373764 2894865
0.63306606 0.60087121 0.043087184 2960405
0.76164317 0.66450661 0.013374746 5653789
0.60118705 0.5860979 0.048508227 1710621
0.60461426 0.58779615 0.047744572 1514268
0.60672897 0.58934319 0.046382308 1448987
0.60900557 0.59091508 0.046020269 1515283
0.61164343 0.59250158 0.046518147 1842466
0.614425 0.59423393 0.044583023 2631964
0.61715925 0.59479815 0.044015467 3026459
0.61899662 0.59637886 0.043323994 4671020
0.62158531 0.59769166 0.042584836 5656113
0.62477112 0.59869397 0.042392254 5722166
0.62691545 0.59866476 0.042286694 3618327
0.7608279 0.66468823 0.010218441 6574121
0.59493184 0.58510482 0.047334075 1513239
0.59744513 0.58631736 0.046754718 1513239
0.60164613 0.59044075 0.04384762 2105637
0.60369414 0.59072238 0.043974757 2105642
0.6077565 0.5928117 0.042522013 3093024
0.61059719 0.59335285 0.042859614 2961443
0.61231631 0.59522581 0.043332815 3027230
0.61492264 0.59630108 0.040655911 2828825
0.61831486 0.59665066 0.041591525 3548943
0.76609784 0.6698302 0.0059642792 8547643
0.7690044 0.67116666 0.0053822398 7692836
0.59114587 0.58530295 0.045590699 1316410
0.59282136 0.58611131 0.045204461 1053238
0.59593999 0.59029293 0.042889237 2040355
0.59863174 0.59055495 0.043308377 1974562
0.60138023 0.59180737 0.041742265 3092765
0.60359365 0.59310424 0.042129159 3158557
0.60663402 0.5937075 0.040347338 3093023
0.60848814 0.5957706 0.04016459 3092508
0.61175013 0.59550613 0.040233552 3092250
0.61342639 0.59779 0.040971279 3091997
0.76226294 0.66954064 0.0053239465 7034919
0.76495314 0.66983128 0.0059193373 8549453
0.76754177 0.67112279 0.0050939322 8678684
0.5891723 0.58760256 0.041104972 2171174
0.59172177 0.58913141 0.04183656 2105894
0.59434265 0.59009081 0.040849268 2829088
0.59725249 0.59188718 0.040359259 3224092
0.59947813 0.59164298 0.040402353 3158556
0.60246855 0.59466588 0.038549364 3157533
0.60524005 0.59458607 0.038598776 3092255
0.76139331 0.67044926 0.002592504 7626522
0.76647317 0.67376804 9.1671944e-05 8349709
0.58206266 0.58403265 0.041899502 2236461
0.58349758 0.58561778 0.042095363 1841953
0.58571631 0.58725834 0.041052163 1842214
0.58858353 0.58956051 0.03945142 2894883
0.59082699 0.5902282 0.039430499 3289886
0.59385282 0.59152436 0.039610088 3355681
0.5965277 0.5923627 0.037964761 3026974
0.59910417 0.59388006 0.038379252 3026717
0.7615419 0.67152071 0.00105232 7560464
0.57428348 0.58416957 0.040906727 3941933
0.57651865 0.58556437 0.039625645 3221809
0.57903612 0.58742923 0.039323032 2499365
0.5814026 0.58818161 0.038209021 3026460
0.58384627 0.58950949 0.037733495 3355167
0.58678859 0.59023988 0.03775996 3289629
0.58902961 0.59216756 0.036758363 3092508
0.59236264 0.59314072 0.037266731 3092517
0.57553029 0.58701295 0.037902653 5654533
0.57793522 0.58796781 0.037519276 4208396
0.58051521 0.58939791 0.037192643 3420953
0.58249384 0.59077108 0.035490811 3289627
0.58493257 0.59160203 0.036248982 3289631
0.57435256 0.58851463 0.035051167 5851397
0.57680738 0.58908743 0.034929156 4142350
0.76128125 0.63438445 0.055998385 1645347
0.72518647 0.61864281 0.062257707 1120290
0.72815067 0.62036312 0.061745524 1055765
0.7303412 0.62229049 0.061753988 1120290
0.73201668 0.62309885 0.06136775 1054753
0.74047065 0.62654519 0.058029652 1448231
0.74435222 0.6276843 0.057083189 2106646
0.74566597 0.6291644 0.057025433 1119515
0.74895114 0.63061738 0.056444347 1645590
0.75177181 0.63143575 0.056045592 1448468
0.75437683 0.63297504 0.056056201 1645333
0.75700551 0.63379961 0.055551469 1776663
0.7597419 0.63486958 0.054886401 1973784
0.76243562 0.63609326 0.054252386 2105370
0.76469058 0.63757753 0.053490102 2630935
0.76780784 0.63888061 0.053383231 3024400
0.70099378 0.60912901 0.065297484 1648162
0.70266926 0.60993737 0.064911246 4148296
0.70513839 0.61112869 0.064342022 4675379
0.70924842 0.61207914 0.06202358 1645574
0.72235894 0.6187762 0.060109317 1514281
0.72478986 0.62010157 0.060147107 1711151
0.72700542 0.62147093 0.059178293 1711654
0.72908807 0.6226033 0.059186459 2040606
0.73247796 0.62407875 0.058532774 1974306
0.73505163 0.62477058 0.0576998 2171679
0.73776722 0.62633133 0.057590425 2171936
0.74031645 0.62760192 0.056784809 2566428
0.7430566 0.62856704 0.056950271 1974556
0.74605042 0.62975949 0.05600369 2040596
0.74767351 0.630674 0.05561167 1580309
0.7511282 0.63252586 0.054797351 1776918
0.75369406 0.6331622 0.053978026 1645844
0.75652796 0.63438326 0.053577125 1579537
0.76026869 0.63664871 0.052901924 1776654
0.76170135 0.63749146 0.052025855 1711116
0.76269686 0.63898504 0.050615907 1645326
0.69930005 0.61042595 0.063124478 1644324
0.70398396 0.61221027 0.062335789 1908495
0.70747763 0.6140027 0.061688602 2367782
0.70909178 0.61554307 0.060887218 1775138
0.71157604 0.61645287 0.060192585 1776408
0.71503711 0.61744928 0.059414864 1974049
0.71782535 0.61855233 0.05906111 1909282
0.71963048 0.62034416 0.059179723 1777439
0.72303069 0.62154353 0.058813035 2039838
0.72539282 0.62287748 0.056520283 2698009
0.72830594 0.6237393 0.057433248 2763543
0.7313301 0.62462187 0.056904078 2697759
0.74457097 0.63310885 0.05216825 2237469
0.74672186 0.63345939 0.051902175 2105883
0.74992633 0.63443369 0.05095309 2171414
0.75229591 0.63608283 0.050705254 1974036
0.75415564 0.63674527 0.050074577 1908243
0.75703162 0.63820952 0.049996555 1842195
0.75954664 0.63994408 0.048549473 1907986
0.7624383 0.64088506 0.048059523 1842444
0.69559693 0.6095928 0.06072998 1250876
0.69751823 0.61168033 0.060971797 1512738
0.70040953 0.61231077 0.059092224 1184279
0.70279515 0.61347127 0.059818089 1118233
0.70593685 0.61453474 0.06001246 1118229
0.70902443 0.61588269 0.059174836 1315860
0.71592337 0.62040132 0.056254208 2895386
0.71909446 0.62094718 0.056149244 2829341
0.72253013 0.62162066 0.055983365 2763805
0.72380024 0.62424433 0.055670142 2566425
0.72678077 0.62479746 0.054016471 2369556
0.72944152 0.6258561 0.053016245 2500379
0.73163819 0.62784624 0.053101003 2500375
0.73543406 0.62892592 0.05174017 2631707
0.73738325 0.63037091 0.051906109 2566172
0.74050176 0.6314292 0.050923765 2565917
0.74320954 0.63247728 0.05141741 2500379
0.74625117 0.63429219 0.051111698 2500887
0.74816531 0.63530123 0.050212801 2369302
0.75677872 0.6377005 0.048080206 1842446
0.75911582 0.63913292 0.046705127 1776400
0.76146001 0.64123452 0.046186805 1645068
0.76350844 0.64316541 0.045373082 1907980
0.68690604 0.60773671 0.06030184 987928
0.68914664 0.60966605 0.060285628 1054987
0.69082218 0.61047435 0.05989939 857639
0.69350559 0.61185259 0.059298217 1251370
0.69682556 0.612216 0.058596313 1579299
0.6992656 0.61372322 0.059053898 1184282
0.70406801 0.61645979 0.05609858 2499100
0.70752668 0.61791217 0.056105196 2104590
0.71012437 0.61842662 0.056234777 2368268
0.71258539 0.61986774 0.055414796 2631700
0.71524239 0.62242955 0.053609788 2631956
0.71861953 0.62244201 0.053528726 2434840
0.72073746 0.62385654 0.054034054 2435096
0.72267962 0.62489402 0.051676989 2763552
0.72551614 0.62634599 0.051770866 2763291
0.72849905 0.62813252 0.051478684 2697755
0.73179698 0.6286698 0.050922334 2763547
0.73379225 0.62964976 0.051298201 2697758
0.76321089 0.64495713 0.043331563 1644812
0.76647848 0.64666086 0.041764319 2433541
0.68226063 0.60773474 0.058470368 2959665
0.68434089 0.60905647 0.058167815 2696495
0.68692273 0.61082745 0.057988346 1447450
0.69049484 0.61175698 0.05796659 1447960
0.69319391 0.61203235 0.058199346 1448485
0.69558108 0.61400479 0.055465817 2829334
0.69825792 0.61495328 0.055535495 2500370
0.7014451 0.61608076 0.055405617 2763283
0.70272583 0.61811048 0.054715335 1776144
0.70669389 0.61873811 0.054057598 1907980
0.70885766 0.62015164 0.052464366 2368267
0.71124035 0.62216419 0.052910984 2631696
0.71394169 0.62235993 0.052248776 2763542
0.71649694 0.62432516 0.051541388 2763548
0.71918148 0.62514544 0.051785529 2763554
0.72321659 0.62767839 0.051963091 2763549
0.76329303 0.64498425 0.04165417 1907212
0.76437223 0.64786524 0.042035401 2039054
0.76759368 0.64984679 0.039004624 2826498
0.67892909 0.60856014 0.05693686 1381916
0.68070847 0.60862535 0.057413518 3223088
0.68593687 0.61216128 0.055027843 4011568
0.68907738 0.61240506 0.055141509 2565138
0.69228911 0.61290437 0.055115461 2697491
0.69378221 0.6152088 0.054117858 2697492
0.69673067 0.61625671 0.053852141 2697488
0.69972992 0.61727864 0.054243684 2565903
0.70216358 0.61919624 0.052089095 2893842
0.70518655 0.62026262 0.052430987 2236171
0.70707136 0.62170959 0.052567661 2039047
0.76300031 0.64810562 0.038226843 1579018
0.76680207 0.65019506 0.035807431 2563847
0.66650903 0.60397005 0.05715543 6904414
0.6690222 0.60518265 0.056576073 1838144
0.671516 0.60650575 0.055995762 1184804
0.67440009 0.60829747 0.055801988 1316381
0.67725962 0.6089648 0.055706918 1316638
0.67977458 0.61115849 0.053990662 3090455
0.68191147 0.61111617 0.054071546 4537643
0.68413633 0.61222053 0.054720044 4800304
0.68782914 0.61490291 0.052495003 1908232
0.69098091 0.61498332 0.05231601 2500366
0.69318962 0.61679417 0.05338943 2565652
0.69552523 0.61803585 0.050378501 2631446
0.6989311 0.61890054 0.050975859 2959893
0.76321959 0.65022719 0.035830021 1381898
0.76384157 0.65188026 0.03485471 1907208
0.65212083 0.59896356 0.057803452 398352
0.65460998 0.60025382 0.057282329 1183774
0.65712327 0.60146654 0.056702971 1183787
0.66047424 0.60308325 0.055930495 1184274
0.66298753 0.60429585 0.055351138 4340028
0.66555756 0.60536993 0.054851234 4011583
0.66869658 0.60708314 0.055451572 2367014
0.66998178 0.60666507 0.053018749 2104323
0.67266732 0.60961241 0.053374112 2368266
0.67671037 0.61001408 0.05330652 2499346
0.68071568 0.61315989 0.051193595 5262636
0.68423456 0.61362302 0.051686406 2894359
0.68599677 0.61606127 0.049676478 2367499
0.68924856 0.6162675 0.049456775 2303242
0.69106442 0.61862838 0.049977362 2697744
0.76378489 0.65164745 0.033137679 1447691
0.64545274 0.5970124 0.056276858 1579032
0.64738202 0.59907413 0.056499183 2500138
0.65002227 0.60091335 0.056224048 3951174
0.65694594 0.60357857 0.053467631 1907487
0.65872848 0.60422117 0.053690493 1118237
0.66200399 0.60529029 0.053903878 2169627
0.66328013 0.60685974 0.052394271 2893591
0.66689122 0.60778159 0.05277127 3354649
0.6696496 0.60996389 0.052087247 2302474
0.67229897 0.61112195 0.05026263 2170891
0.67517233 0.61110884 0.049663842 2236682
0.67727381 0.61365795 0.050423622 3551254
0.67965174 0.61447155 0.04883188 4735019
0.68272072 0.61553186 0.049114823 4604465
0.76396573 0.65449315 0.030531645 1775882
0.64161468 0.59803331 0.055045903 1186340
0.6432901 0.59884179 0.054659665 1184274
0.646963 0.601367 0.053495228 1512733
0.64973694 0.60184354 0.0534904 1249310
0.65243441 0.60248315 0.053494215 1512467
0.65499675 0.60396981 0.052225769 2368276
0.65696591 0.60594094 0.0516119 2960407
0.65993112 0.60663265 0.051656783 2499600
0.66416669 0.60851467 0.049865305 2104593
0.66578633 0.6094228 0.049609125 2564884
0.66835368 0.61055404 0.04950428 1710598
0.67106104 0.61210895 0.048433959 2105611
0.67328656 0.61198676 0.048485816 2434062
0.67505103 0.61431313 0.049203217 2367498
0.76419944 0.6570676 0.02684921 1644297
0.76428556 0.65857852 0.027187943 1709574
0.6380049 0.59831667 0.053261936 1449512
0.63996071 0.59922051 0.052692354 1579814
0.64311415 0.60034871 0.053606868 1316118
0.64856368 0.60454267 0.05060631 2498841
0.65165293 0.60462981 0.050907969 2433551
0.65648645 0.60699689 0.048544466 2566163
0.65900511 0.60828191 0.048385918 2434319
0.66147679 0.60943884 0.048493624 2236171
0.66482961 0.61171502 0.048617303 3946021
0.66686118 0.6119653 0.048607528 2630420
0.76476264 0.66044718 0.024805546 1906953
0.62592959 0.59451532 0.053429425 1578532
0.62853098 0.59577042 0.052829742 1578782
0.63104427 0.59698308 0.052250385 1579032
0.63355756 0.59819567 0.051671028 1775911
0.63610315 0.59914184 0.051002502 1777190
0.63932079 0.60096073 0.051222384 2303009
0.64237392 0.60164976 0.049674988 2829076
0.64439565 0.60310853 0.04993844 3486232
0.64690053 0.60442752 0.049299419 2630937
0.64959061 0.60621601 0.048396885 2040072
0.65311152 0.60717201 0.048290193 2500365
0.6550073 0.60814494 0.046744585 2829078
0.65798616 0.61017209 0.047675908 2631436
0.76500064 0.6603955 0.021794677 2694923
0.76621145 0.66278857 0.022709548 3879450
0.6172052 0.59233081 0.052824438 1513535
0.61978459 0.59357536 0.052229881 1710368
0.62231988 0.59479856 0.051645398 1776161
0.62399542 0.59560698 0.05125916 1776161
0.62739515 0.59811109 0.050095916 1776683
0.63011193 0.59870362 0.049511731 2171680
0.63322514 0.59968174 0.049035251 2698012
0.63597071 0.60154593 0.049228609 3026463
0.63825357 0.60181522 0.048381031 2829339
0.64147371 0.60302454 0.048155487 3354651
0.64409137 0.60498518 0.047709286 3683359
0.64573383 0.60609722 0.046503186 4406557
0.64921308 0.60673034 0.04652375 2630414
0.65177089 0.60808975 0.046854973 2434061
0.76275837 0.66158485 0.019967854 3089417
0.61527103 0.59342247 0.050654233 2103371
0.61836141 0.5947932 0.04872793 1842725
0.62091666 0.59617937 0.049308836 1776930
0.62402636 0.59664118 0.049376488 1908259
0.62558103 0.59765518 0.050126374 1776940
0.62776309 0.59891778 0.047968924 3091740
0.63211381 0.60150862 0.047340631 2895128
0.63459414 0.60288525 0.047044277 2829087
0.63715446 0.60448939 0.045274615 3025948
0.63932931 0.60476232 0.044950306 2763026
0.64154923 0.60512275 0.045988202 3091219
0.76238537 0.66222829 0.017237067 3417878
0.76387763 0.66453594 0.01821053 4865574
0.61431712 0.59493852 0.047721446 1777450
0.61715478 0.59584343 0.048889339 1843238
0.62194121 0.59867525 0.046802521 3354904
0.62505573 0.59978759 0.046161592 2960928
0.6283865 0.60069388 0.046028197 2698775
0.63055366 0.60162508 0.045080006 2894871
0.6336534 0.60307848 0.044679344 3025946
0.63494605 0.60439831 0.045342267 3091486
0.76173449 0.6657849 0.014970839 4864541
0.60895169 0.59365427 0.04807657 1645334
0.61138046 0.59461737 0.047838151 1842467
0.61302352 0.59533536 0.047859788 1907997
0.61584812 0.59739095 0.044738114 3158554
0.61897153 0.59854317 0.045121372 3092507
0.62223673 0.5998351 0.044117033 3355428
0.62430358 0.60174465 0.043797493 3026459
0.62623751 0.60205662 0.04349333 2829082
0.62837183 0.60335797 0.043669701 2960411
0.59709084 0.58849764 0.048223019 1711126
0.59990197 0.59098476 0.048242211 1516052
0.60245925 0.59221858 0.047652662 1254169
0.60503602 0.59324187 0.046378553 1384476
0.60708451 0.59523642 0.044763982 2566177
0.61010712 0.59648329 0.04400593 3158302
0.61230057 0.59744579 0.044057667 3027483
0.61533493 0.59940928 0.04329294 2894872
0.61741722 0.60048771 0.042284906 2894353
0.61973071 0.60139036 0.042895675 3158036
0.5929935 0.58882821 0.046718299 1512988
0.59509367 0.59153783 0.047234714 1776411
0.59813577 0.59263116 0.044026494 2105634
0.60084659 0.59298986 0.044238746 2105375
0.6026234 0.59460044 0.043511391 2829344
0.60579908 0.5956434 0.042744815 3027745
0.60836875 0.5980866 0.042608202 3026975
0.61084509 0.59933001 0.041113377 3091996
0.61298954 0.6001606 0.041578412 3091743
0.76171941 0.67121369 0.0069186091 6706730
0.76474738 0.67342955 0.0056710839 8548415
0.76702607 0.6739589 0.0056775212 8482107
0.58957064 0.58994889 0.043808043 1841958
0.59052896 0.59253871 0.042809665 1974819
0.59434479 0.59253579 0.042959273 2500384
0.59658778 0.59413826 0.041203737 3224093
0.59972602 0.59486997 0.042082846 3224346
0.60220623 0.59716338 0.040834963 3158299
0.60450411 0.59756362 0.040162563 3092255
0.60634655 0.59862518 0.040538251 3092254
0.75979757 0.67261386 0.0046278834 7363619
0.76269722 0.67369264 0.0042150617 7889441
0.58279991 0.5878703 0.043783367 1712141
0.58536208 0.58947909 0.042523503 1711134
0.58766615 0.59134299 0.042277277 1973798
0.58993632 0.59320021 0.040393472 3224093
0.59232825 0.59412622 0.040533006 3355424
0.59565669 0.59576041 0.039083779 3026973
0.59752619 0.59705633 0.039329708 3092765
0.59985673 0.59676385 0.039480865 3158044
0.76064944 0.67463416 0.0027135015 6771995
0.76455933 0.67698771 0.00037288666 8152336
0.57358581 0.58642203 0.042594731 4139817
0.5761652 0.58766651 0.042000175 3023689
0.5787887 0.58893228 0.041395366 1974837
0.58063883 0.59006697 0.040645957 2040111
0.58323944 0.59052455 0.040423095 2236972
0.5855549 0.59265226 0.039056301 3421216
0.58800387 0.59478772 0.039022744 3158303
0.59214085 0.59511828 0.038229823 3092513
0.57513255 0.58992493 0.039418757 3813916
0.57673043 0.59026241 0.039514244 4142351
0.57926637 0.59159809 0.038593829 3419930
0.58245689 0.59215951 0.038318694 3421216
0.58526272 0.59387708 0.036785662 3223839
0.58669078 0.59526837 0.03826797 3224094
0.57341272 0.59184408 0.035975039 6180359
0.57572865 0.59152496 0.036499083 4931341
0.57890618 0.59208173 0.035952747 3485975
0.58075434 0.59438062 0.036483705 3355165
0.75003999 0.63246208 0.060273886 2567215
0.75462967 0.63354796 0.059089959 2763320
0.75758392 0.63531119 0.05878824 3093053
0.76004809 0.63592046 0.057962954 2435376
0.76276511 0.63864058 0.058061838 1448479
0.76544964 0.64023459 0.057301819 5065548
0.72505796 0.6213485 0.063919783 1120290
0.72748303 0.62251854 0.063360751 793862
0.72999626 0.62373114 0.062781394 857875
0.7370894 0.62748069 0.060323119 1053983
0.74006683 0.62900615 0.060248196 1382170
0.74278522 0.62998456 0.05903542 1448471
0.74590999 0.63152635 0.058927953 1447963
0.74838543 0.632393 0.058608532 1842715
0.7513541 0.63359678 0.057909369 1908763
0.753326 0.63530171 0.057842851 2368282
0.7562685 0.63611192 0.056889772 2368794
0.75889617 0.63761067 0.056462646 3026721
0.7613104 0.63820869 0.055889249 2171672
0.76389992 0.63898253 0.055583358 2302487
0.76656663 0.64066529 0.054440081 2498830
0.72099054 0.621571 0.062113583 1317145
0.72338092 0.62240481 0.061596274 1514534
0.7263276 0.62363845 0.06110245 1646114
0.72868669 0.62537944 0.060427129 1777440
0.73172611 0.62618101 0.060261548 1448740
0.73405731 0.62702042 0.059898794 1843226
0.73652047 0.62846696 0.059673727 2040341
0.74008 0.62973779 0.058589995 2106135
0.74271333 0.63154423 0.058298826 1909012
0.74450684 0.63177675 0.057956755 1908755
0.74750984 0.6331712 0.057422936 1645328
0.75022495 0.63365823 0.0566926 1776408
0.76156372 0.63975197 0.054192305 1842446
0.76327562 0.64150524 0.052989781 1710868
0.70109564 0.61379218 0.064185083 3752981
0.7037037 0.61493599 0.063135326 3553546
0.70612729 0.61563432 0.062976182 4013854
0.70849109 0.61740494 0.062506616 1776411
0.71104282 0.61868858 0.061504781 1578767
0.71480268 0.6199882 0.060694516 1974305
0.71675968 0.62103856 0.060560048 2106141
0.71932524 0.62212592 0.060650349 1777179
0.72227103 0.62261695 0.060387909 2107170
0.72788972 0.62676066 0.057524502 2698264
0.73084539 0.62702578 0.057619154 2697759
0.73387074 0.62877059 0.057915509 2631966
0.73591316 0.62910199 0.057630479 2566430
0.73784184 0.63069236 0.057765543 2434330
0.7427519 0.63424188 0.054027617 1776661
0.74519187 0.63531625 0.053086996 1645330
0.74864519 0.63655025 0.053039432 1776400
0.75098538 0.63791764 0.052869141 1842193
0.75417721 0.63890588 0.052354157 1908248
0.75712991 0.63998258 0.052166641 2565914
0.75965154 0.64173961 0.050549269 2566169
0.76204711 0.64276326 0.050416648 2105618
0.7644726 0.64439356 0.049716115 1447953
0.6970852 0.61307847 0.062019527 1512739
0.69830364 0.61536264 0.062739193 1513239
0.70218819 0.61632276 0.061431468 2698265
0.70546216 0.61785865 0.061508238 3684137
0.70824236 0.61852932 0.061075151 2697753
0.71024239 0.61921024 0.060764134 1777428
0.71259922 0.62121892 0.059286892 1973269
0.71590042 0.62318325 0.05828774 1710365
0.71752465 0.62340218 0.056691229 2829593
0.7209965 0.62500209 0.056735694 2698014
0.72343999 0.62651604 0.0573861 2698009
0.72607785 0.62695813 0.055653036 2500885
0.72858721 0.62916279 0.054263592 2369305
0.73229241 0.63119882 0.053937078 2368792
0.73419845 0.63164294 0.053788722 2434841
0.73711216 0.63240457 0.053461254 2369048
0.73955035 0.63400501 0.053335369 2171671
0.74221665 0.63519883 0.053216577 2106133
0.74522108 0.63586032 0.052630723 1974291
0.76086605 0.64315248 0.048936605 1974290
0.76298201 0.64470285 0.047914267 2171409
0.76515472 0.64572662 0.047102511 2499853
0.69016051 0.61261034 0.061500072 1249567
0.69264972 0.61390066 0.060978949 1446953
0.69530308 0.61459744 0.059599578 1513255
0.6983071 0.61626142 0.059880555 1512736
0.70121419 0.61737657 0.060395658 3025451
0.70587963 0.61911941 0.056734145 1578502
0.70854604 0.62197018 0.057296216 2696200
0.71245897 0.62261772 0.056932688 2565903
0.71524704 0.62379229 0.055744648 2698008
0.71715254 0.6245389 0.05450511 2435099
0.71935683 0.62703609 0.055519879 2500634
0.72276086 0.62756687 0.054672301 2369302
0.72642922 0.62965882 0.055286765 2369306
0.72753567 0.62988621 0.052691698 2763292
0.73052657 0.63102782 0.053297937 2566427
0.76352859 0.64690644 0.045714915 1973773
0.76504064 0.647816 0.044667959 1973514
0.76796085 0.64911747 0.044481933 2564610
0.68199337 0.60993588 0.060319006 591393
0.68366885 0.61074424 0.059932768 1513239
0.68656719 0.61255598 0.059571922 1250577
0.69001937 0.61368781 0.058715403 1316370
0.69270998 0.61406976 0.058888376 1513760
0.69504809 0.61691946 0.059745848 1579049
0.70048195 0.61881536 0.056541085 2040076
0.70380741 0.61891562 0.056665242 1775881
0.70524359 0.6217261 0.055741608 2301448
0.70771199 0.62300652 0.054494858 1973512
0.7102288 0.62456423 0.054530144 2105868
0.71285444 0.62475967 0.05329293 2631956
0.71589011 0.62707579 0.053518534 2697499
0.71889031 0.62729919 0.05257082 2763295
0.72087914 0.62869537 0.052560389 2763294
0.72419947 0.63050109 0.052296281 2697755
0.76383954 0.64944243 0.042287529 1447689
0.68049371 0.6112904 0.058492839 1052192
0.68358827 0.61242914 0.058681846 1183514
0.68863344 0.61464024 0.055926681 2499595
0.69155711 0.61662346 0.056034863 2631692
0.69333416 0.61817563 0.056416094 2763283
0.69671285 0.6184963 0.055838525 2631702
0.69843847 0.62123621 0.054957032 1842188
0.70213747 0.6214202 0.054006934 1644296
0.70349473 0.62396121 0.053324819 2103815
0.70657688 0.62433994 0.052976549 1973256
0.70989573 0.62460953 0.052442253 2302221
0.71262014 0.62695658 0.053185165 2762776
0.76415926 0.65181351 0.040028572 1513224
0.66666108 0.60658795 0.058621168 2429024
0.66833657 0.6073963 0.05823493 1968217
0.67087185 0.60858858 0.057462811 1578273
0.67374384 0.61053473 0.057072222 1644832
0.67680049 0.61126542 0.057300448 1381409
0.67836553 0.61232442 0.055975735 659739
0.68157226 0.61440724 0.055552483 3287832
0.68460584 0.61426765 0.055876076 3616800
0.68687123 0.61667073 0.055237651 1973514
0.68926376 0.61780864 0.053977907 2105611
0.69233537 0.61911881 0.054057539 2499864
0.69497454 0.61984891 0.05211246 2631703
0.69715255 0.62231457 0.052127421 2368787
0.70060545 0.62173468 0.052610576 1645063
0.76409203 0.65358096 0.037041187 1776391
0.76509702 0.65497041 0.035946012 2170887
0.65921265 0.6053018 0.057888865 1447198
0.66234589 0.60653085 0.056999862 2762003
0.66469097 0.608042 0.056725502 4340028
0.66819185 0.60847002 0.056656539 2497834
0.67030293 0.61083353 0.057725251 1380891
0.67307097 0.61239439 0.054552913 1909012
0.67549139 0.61220741 0.054084957 2762771
0.67783856 0.6137861 0.0547809 2631187
0.67994881 0.6159575 0.052984715 3749924
0.68286395 0.61612678 0.053276479 2763036
0.68795973 0.61894524 0.051192045 2302990
0.69075757 0.62087542 0.050889432 2697748
0.76467782 0.65479183 0.033262253 2104584
0.64788961 0.60158074 0.05771625 6314570
0.6504029 0.60279328 0.057136893 3288596
0.65291607 0.60400593 0.056557536 1052188
0.65542936 0.60521853 0.055978179 1184816
0.6581853 0.60645503 0.054780006 1053479
0.66054523 0.60803622 0.054962635 1906713
0.66548979 0.6109615 0.053675294 4932915
0.66904998 0.6119104 0.054052353 3354142
0.6711297 0.61200541 0.05392617 2367753
0.67394078 0.61414009 0.051895678 2368525
0.67689472 0.61540288 0.051775157 3025940
0.6790545 0.61709654 0.050751328 3814174
0.68121618 0.61851019 0.050789237 4340504
0.68476892 0.61860538 0.050412595 3091475
0.76365519 0.65673643 0.032649755 1578762
0.64385641 0.60137695 0.055863082 1841157
0.64581513 0.60345268 0.056078732 2893334
0.64927602 0.60429204 0.054155827 2367783
0.65167528 0.60556972 0.054816782 1644059
0.65445936 0.60609579 0.054836094 1644056
0.65660954 0.60791546 0.054198444 1907478
0.65986806 0.60911298 0.053131163 2696721
0.66277868 0.60935467 0.052980959 4274471
0.66497189 0.61333609 0.051151454 3683105
0.66738349 0.61295068 0.051460028 1907462
0.67072988 0.61382246 0.050419807 2039307
0.67269206 0.61547321 0.04951483 2630929
0.67467177 0.61642438 0.050008655 2565391
0.76412606 0.65840811 0.029582798 1644298
0.76465422 0.65915203 0.029495597 1775623
0.63740748 0.60057294 0.054900467 1317926
0.63990867 0.60182434 0.054350197 923700
0.64329833 0.60388094 0.05343616 1118475
0.64540398 0.60390294 0.05376178 1776404
0.64767027 0.60532647 0.052798927 2762015
0.65007305 0.6066373 0.051699221 2629142
0.65326971 0.60778433 0.052348793 2499342
0.65878057 0.61117613 0.050272286 3157019
0.66173387 0.6116811 0.049874246 4472111
0.66296369 0.61352432 0.0495978 4867114
0.66638374 0.61438251 0.049136162 3420195
0.66935754 0.61572397 0.049348116 2104845
0.76405454 0.66280156 0.025923967 1971720
0.63058716 0.59845883 0.053356349 1709078
0.63285989 0.60044819 0.053359032 1446946
0.63571 0.60147405 0.052538216 1514533
0.63850707 0.60330284 0.0530864 1579043
0.64108169 0.60385096 0.051300228 2237463
0.64370763 0.60697091 0.050856531 2564871
0.64650559 0.6065098 0.050222933 2433295
0.64827621 0.60939646 0.049679816 2433297
0.65163934 0.60956526 0.049126565 2039816
0.65471894 0.61045289 0.048356056 2565647
0.65666783 0.61191565 0.049214005 2631182
0.66004205 0.61206442 0.048749208 2958603
0.76451403 0.66378236 0.024805069 1710089
0.61651957 0.59454453 0.054483354 1710118
0.61828321 0.59539551 0.054076791 1579032
0.62163419 0.59701228 0.053304315 922628
0.62414747 0.59822494 0.052724957 921615
0.62672484 0.59955776 0.052183449 1183774
0.62840033 0.60036612 0.051797211 1445906
0.63158327 0.60142237 0.050844252 1710876
0.63479799 0.60321593 0.051325738 2039580
0.63748723 0.60377586 0.050143898 3092505
0.63965935 0.60658818 0.050080597 2631955
0.64200383 0.60732943 0.048643172 2236943
0.64537895 0.60797167 0.048722923 2564374
0.64732778 0.60957581 0.047416449 2498067
0.65028167 0.6106962 0.047571659 2104075
0.76322669 0.66552973 0.020910323 3022603
0.6145854 0.59563619 0.052313149 1514287
0.61935931 0.59887689 0.051765621 1447446
0.62305552 0.59979069 0.050527692 1776670
0.62591875 0.60031223 0.050757527 1710623
0.62821025 0.60194165 0.049547493 2631703
0.63111091 0.60311043 0.050114453 2894610
0.63341415 0.60362375 0.04986608 2960915
0.63715053 0.60530502 0.047620535 2763545
0.63903278 0.60739851 0.046721578 2697239
0.64215362 0.60828102 0.047349274 2433549
0.76225537 0.66652131 0.017295897 4206874
0.61633492 0.59841579 0.049241185 1843235
0.61989009 0.59962225 0.050217152 1776929
0.62260848 0.60164458 0.048040926 3092503
0.62481469 0.60222107 0.04766798 2895132
0.62771094 0.60286415 0.047148049 2632729
0.62989891 0.60430533 0.046701729 2697755
0.63193679 0.60593736 0.047069788 2763033
0.63480055 0.60633504 0.046305537 2960412
0.76306307 0.6699934 0.016260624 5522975
