# .PCD v0.7 - Point Cloud Data file format
VERSION 0.7
FIELDS x y z
SIZE 4 4 4
TYPE F F F
COUNT 1 1 1
WIDTH 1420
HEIGHT 1
VIEWPOINT 0 0 0 1 0 0 0
POINTS 1420
DATA ascii
0.54815525 0.41172001 0.037455924
0.5020805 0.41541025 0.03763517
0.50478852 0.41527405 0.037762336
0.56189966 0.41766438 0.037532918
0.564619 0.41752753 0.037660599
0.56756568 0.42402667 0.037250441
0.57029635 0.42388925 0.037378643
0.57302707 0.42375183 0.037506845
0.57575768 0.42361441 0.037635051
0.57848847 0.42347705 0.037763253
0.72768015 0.44655582 0.037498005
0.73046774 0.4464156 0.037628863
0.73325545 0.44627529 0.037759785
0.71931708 0.44697672 0.037105374
0.72210473 0.44683641 0.037236232
0.72489238 0.44669607 0.037367087
0.72295749 0.45349866 0.036826435
0.72575659 0.4533577 0.036957879
0.72855574 0.45321688 0.037089318
0.73135477 0.45307606 0.03722069
0.73415387 0.45293513 0.03735213
0.7173593 0.45378029 0.036563624
0.72015834 0.45363948 0.036695004
0.81076163 0.46871397 0.036792904
0.81359684 0.46857134 0.036926031
0.81643206 0.46842873 0.037059162
0.81926715 0.46828604 0.037192293
0.82210249 0.46814334 0.037325364
0.82493758 0.46800074 0.037458487
0.82777286 0.46785799 0.037591625
0.83060795 0.46771541 0.037724752
0.86507291 0.48125803 0.037663512
0.8679347 0.48111391 0.037797835
0.24185023 0.35795683 0.037829433
0.2444308 0.35782692 0.037950575
0.24701135 0.35769722 0.038071774
0.24959195 0.35756731 0.03819292
0.25475305 0.35730752 0.038435262
0.25733361 0.35717773 0.038556404
0.25991419 0.35704792 0.038677551
0.2641592 0.3624897 0.038617887
0.27451941 0.36196843 0.039104279
0.25897908 0.36275044 0.038374651
0.26156908 0.36262006 0.038496241
0.30227548 0.36492005 0.037916031
0.30487508 0.36478913 0.03803812
0.30747461 0.36465842 0.038160149
0.31007415 0.36452752 0.038282238
0.27884024 0.36741617 0.039064568
0.28143981 0.36728528 0.039186604
0.34051904 0.36953616 0.038980581
0.34313002 0.36940485 0.039103184
0.31702036 0.37071863 0.037877303
0.31963128 0.37058738 0.037999846
0.32224226 0.37045595 0.038122457
0.32485324 0.37032452 0.038245063
0.32746416 0.37019318 0.038367659
0.33007514 0.37006176 0.038490213
0.3326861 0.36993039 0.038612824
0.33529705 0.36979908 0.038735423
0.337908 0.36966759 0.038857974
0.36019161 0.38078958 0.038994737
0.3549279 0.38105449 0.038747594
0.35755974 0.38092211 0.038871169
0.39137146 0.38358331 0.037991911
0.39401287 0.38345048 0.038115915
0.36491799 0.38625258 0.039034899
0.36755937 0.38611957 0.039158911
0.41207066 0.38912079 0.038298503
0.41472343 0.3889873 0.038423091
0.41737619 0.38885376 0.038547616
0.42002892 0.38872027 0.038672145
0.42268178 0.38858685 0.03879673
0.42533454 0.38845339 0.038921259
0.42798734 0.38831985 0.039045792
0.40145949 0.38965476 0.037800331
0.40411234 0.38952121 0.037924852
0.40676507 0.38938773 0.038049385
0.40941787 0.38925427 0.03817397
0.42495933 0.39506298 0.038258135
0.42762348 0.39492896 0.038383245
0.43533441 0.40026763 0.038607873
0.4380081 0.40013307 0.038733423
0.44068173 0.39999849 0.038858984
0.44335544 0.39986396 0.038984466
0.44602916 0.39972934 0.03911002
0.43266079 0.40040222 0.038482383
0.48337606 0.40310284 0.03793291
0.48069096 0.40323791 0.037806846
0.52100164 0.40782797 0.039101664
0.49403682 0.40918484 0.037835613
0.49673328 0.40904918 0.037962258
0.4994297 0.40891361 0.03808884
0.556279 0.41131127 0.0378373
0.55898678 0.41117492 0.037964467
0.53457516 0.41377518 0.039160807
0.50749636 0.41513777 0.037889443
0.5102042 0.41500139 0.038016614
0.51291209 0.41486529 0.038143717
0.51561993 0.41472891 0.038270883
0.53738523 0.42027539 0.03873435
0.54010451 0.42013869 0.038861975
0.59214181 0.42278999 0.038404278
0.58121908 0.42333958 0.037891459
0.5839498 0.42320216 0.038019665
0.58668047 0.42306483 0.038147867
0.58941126 0.42292741 0.038276073
0.73604327 0.44613501 0.037890643
0.73883086 0.44599465 0.038021564
0.74161851 0.44585437 0.038152423
0.74440634 0.44571412 0.038283281
0.74719393 0.44557384 0.038414199
0.73516637 0.46190888 0.038927171
0.7379787 0.46176741 0.039059207
0.72672921 0.46233332 0.038531017
0.72954142 0.46219185 0.038663108
0.73235393 0.46205035 0.038795147
0.83344328 0.46757275 0.037857823
0.83627844 0.46743 0.037990957
0.83911365 0.46728736 0.038124084
0.84194881 0.4671447 0.038257211
0.84478396 0.46700206 0.03839029
0.84761924 0.46685943 0.038523421
0.85204029 0.47426859 0.037879765
0.85488886 0.47412524 0.038013488
0.86058587 0.47383854 0.038280942
0.80926991 0.47786382 0.038335789
0.23923081 0.35939589 0.039938834
0.24181136 0.35926601 0.040059984
0.24439199 0.35913622 0.040181179
0.24697252 0.35900635 0.040302325
0.24955305 0.35887644 0.040423468
0.27710956 0.36183804 0.039225869
0.23303941 0.36536768 0.039397385
0.29183805 0.36676204 0.039674826
0.29443762 0.36663127 0.039796855
0.29703715 0.3665005 0.039918941
0.29963675 0.36636961 0.040040974
0.30223638 0.36623889 0.040163055
0.30483595 0.366108 0.040285088
0.30743545 0.36597714 0.040407166
0.31003502 0.36584637 0.040529199
0.28403938 0.36715451 0.039308686
0.28663898 0.36702365 0.039430715
0.28923854 0.36689287 0.0395528
0.34574097 0.36927345 0.039225727
0.3483519 0.36914203 0.039348334
0.35096285 0.36901072 0.039470937
0.31437007 0.37217462 0.040011544
0.31698096 0.37204319 0.040134151
0.31959197 0.37191194 0.040256694
0.32220289 0.37178051 0.040379297
0.32481387 0.37164909 0.040501911
0.35036904 0.37472111 0.039226748
0.35298961 0.37458923 0.039349798
0.39133164 0.38492343 0.040274996
0.39397311 0.38479036 0.040399015
0.37284216 0.38585374 0.039406933
0.37548348 0.38572085 0.039530948
0.37812486 0.38558802 0.039654952
0.38076621 0.38545501 0.039778963
0.38340762 0.38532215 0.039902966
0.38604897 0.38518915 0.040026981
0.4120307 0.39046651 0.040591478
0.38815582 0.39166799 0.039470535
0.39611405 0.39126751 0.039844185
0.39876679 0.39113396 0.03996871
0.40141964 0.39100054 0.040093299
0.40407234 0.39086711 0.040217828
0.40672514 0.39073357 0.04034242
0.40937793 0.39060012 0.040466949
0.44870278 0.39959481 0.03923557
0.45137647 0.39946029 0.039361119
0.45405018 0.39932579 0.039486609
0.45672381 0.39919138 0.039612155
0.45939749 0.39905679 0.039737705
0.48333558 0.40446502 0.040253807
0.46185496 0.40554595 0.039245311
0.46454009 0.40541077 0.039371386
0.46722522 0.40527564 0.03949745
0.4699102 0.40514058 0.039623521
0.47259527 0.40500546 0.039749593
0.47528037 0.40487039 0.039875656
0.47796544 0.40473527 0.040001672
0.53178751 0.4072853 0.039608069
0.53448409 0.40714946 0.039734662
0.52369797 0.40769225 0.039228249
0.52639455 0.40755647 0.039354842
0.52909112 0.40742087 0.039481491
0.48051381 0.41123125 0.039533388
0.48590678 0.41095987 0.039786562
0.48860329 0.41082436 0.039913207
0.49129972 0.41068852 0.0400398
0.49399614 0.41055286 0.040166385
0.49669269 0.4104172 0.040292967
0.49938917 0.41028145 0.040419623
0.55082244 0.41295749 0.039923687
0.55623823 0.41268501 0.040177964
0.55894601 0.41254878 0.040305063
0.537283 0.41363883 0.039287973
0.5399909 0.41350251 0.039415147
0.5426988 0.41336629 0.039542247
0.5454067 0.41323003 0.039669413
0.54811454 0.41309381 0.03979652
0.50203973 0.41678405 0.039975777
0.50474775 0.41664779 0.04010294
0.50745559 0.41651151 0.040230051
0.51016343 0.41637531 0.040357213
0.51287138 0.41623896 0.040484324
0.56185877 0.41904396 0.039883398
0.56457806 0.41890705 0.040011019
0.56479394 0.42554939 0.039482541
0.56752455 0.42541203 0.039610747
0.57025528 0.42527461 0.039738953
0.57298595 0.42513719 0.039867159
0.57571661 0.42499983 0.039995365
0.57844734 0.42486235 0.040123563
0.58117801 0.42472494 0.040251769
0.58390862 0.42458761 0.040379971
0.58663934 0.42445007 0.040508177
0.59517235 0.43068552 0.040389907
0.59791446 0.4305476 0.040518627
0.73600119 0.44754934 0.040300258
0.7387889 0.44740891 0.04043112
0.74157661 0.44726869 0.040562041
0.7257145 0.45477787 0.039377321
0.72851354 0.45463693 0.039508753
0.73131263 0.45449623 0.039640129
0.73411185 0.45435524 0.039771572
0.73691082 0.45421445 0.039903004
0.73970985 0.45407364 0.040034384
0.83623564 0.46886846 0.04044161
0.83907086 0.46872565 0.040574744
0.81071889 0.47015244 0.03924356
0.81355411 0.4700098 0.039376684
0.8163892 0.46986702 0.039509822
0.81922454 0.46972445 0.039642952
0.82205969 0.46958187 0.039776012
0.82489485 0.46943909 0.039909154
0.82773006 0.4692964 0.040042281
0.83056539 0.46915364 0.040175416
0.83340049 0.46901104 0.040308483
0.86502999 0.48270974 0.040137172
0.86789161 0.48256579 0.040271491
0.87075347 0.48242173 0.040405877
0.87361532 0.48227787 0.040540256
0.25328198 0.35216948 0.041365709
0.25471422 0.35861683 0.040665805
0.25729471 0.35848686 0.040786952
0.26153013 0.36393413 0.040735051
0.26412025 0.36380371 0.040856637
0.26671031 0.36367348 0.040978216
0.26930031 0.36354309 0.041099865
0.2718904 0.36341274 0.041221455
0.27448049 0.3632825 0.041343037
0.27707058 0.36315206 0.041464683
0.25894007 0.3640644 0.040613409
0.29179895 0.36808094 0.041921791
0.28919941 0.36821172 0.041799769
0.33786872 0.37099221 0.041114815
0.34047973 0.37086073 0.041237425
0.34309068 0.37072945 0.041360028
0.34570163 0.37059802 0.041482575
0.34831265 0.37046659 0.041605182
0.32742488 0.37151775 0.040624455
0.33003584 0.37138632 0.040747061
0.33264676 0.37125495 0.040869672
0.33525777 0.37112358 0.040992208
0.35032964 0.37605047 0.041491807
0.35295013 0.37591869 0.041614849
0.36015198 0.38212493 0.041269612
0.36278394 0.38199246 0.041393183
0.37067947 0.38159508 0.041763879
0.35752013 0.38225716 0.041146051
0.37280238 0.3871938 0.041690018
0.37544376 0.38706085 0.041814029
0.37808508 0.38692796 0.041938033
0.41468343 0.39033321 0.04071606
0.41733623 0.39019972 0.040840589
0.41998899 0.39006612 0.040965121
0.42264178 0.38993263 0.041089714
0.38811579 0.39301378 0.041763511
0.4302476 0.39614639 0.040811144
0.4275834 0.39628041 0.040686037
0.43262053 0.40175849 0.040793393
0.43529421 0.40162408 0.040918939
0.43796784 0.40148953 0.041044492
0.44064149 0.40135494 0.041169986
0.44331524 0.40122035 0.041295536
0.44598892 0.40108579 0.041421082
0.44866258 0.40095127 0.041546572
0.45133623 0.4008168 0.041672125
0.45400989 0.40068218 0.041797675
0.45668361 0.40054777 0.041923162
0.45375934 0.40731356 0.041187998
0.45644444 0.40717825 0.041314073
0.46181461 0.40690807 0.041566212
0.46449965 0.406773 0.041692276
0.46718469 0.40663782 0.041818347
0.46986988 0.40650281 0.041944414
0.44570407 0.40771881 0.040809792
0.4483892 0.40758368 0.040935863
0.45107424 0.40744856 0.041061927
0.52905047 0.40878889 0.0418122
0.53174692 0.40865314 0.041938797
0.51826453 0.40933162 0.041305795
0.52096111 0.40919599 0.041432377
0.52365738 0.40906015 0.041559029
0.52635396 0.40892455 0.041685618
0.5318265 0.41528511 0.041374307
0.53453434 0.41514891 0.04150147
0.54265797 0.41474009 0.04188285
0.51557916 0.41610277 0.040611483
0.54278284 0.42138132 0.041340146
0.53734428 0.42165503 0.041084778
0.54006356 0.42151821 0.041212462
0.59210068 0.42417529 0.040764585
0.59483141 0.42403793 0.040892854
0.58937007 0.42431277 0.040636387
0.56475282 0.42693469 0.041842856
0.56748343 0.42679733 0.041971061
0.57319438 0.43318051 0.041730143
0.57593644 0.43304259 0.041858867
0.74436432 0.44712833 0.040692896
0.74715197 0.44698817 0.040823758
0.74993962 0.44684786 0.040954676
0.73512399 0.46333554 0.041358128
0.73793626 0.46319413 0.041490152
0.74074882 0.46305266 0.041622184
0.84190613 0.46858311 0.040707879
0.84474134 0.46844041 0.040840946
0.8475765 0.46829772 0.040974081
0.81067622 0.47159073 0.041694216
0.81351137 0.47144809 0.041827351
0.81634665 0.47130543 0.041960478
0.85769439 0.47542709 0.040609375
0.80637842 0.47945219 0.040664226
0.80922705 0.47930884 0.040797956
0.25725588 0.35979605 0.043017495
0.23661144 0.36083493 0.042048238
0.23919196 0.36070505 0.042169381
0.2417725 0.36057526 0.04229058
0.24435312 0.36044535 0.042411722
0.24693365 0.36031553 0.042532869
0.24951424 0.36018562 0.042654008
0.25467536 0.35992596 0.042896353
0.25890109 0.36537841 0.042852163
0.26149112 0.36524805 0.042973809
0.26408127 0.36511773 0.043095388
0.26667124 0.36498743 0.043217037
0.26926127 0.36485711 0.043338619
0.256311 0.36550882 0.042730577
0.29439855 0.36794999 0.042043876
0.29699811 0.36781928 0.042165898
0.29959765 0.36768845 0.042287994
0.30219722 0.36755762 0.042410016
0.30479679 0.3674269 0.042532101
0.30739635 0.36729604 0.042654127
0.30999595 0.36716527 0.042776156
0.31259543 0.36703432 0.042898245
0.33782941 0.37231678 0.043371662
0.3195526 0.37323651 0.042513542
0.32216361 0.37310508 0.042636149
0.32477459 0.37297368 0.042758759
0.32738554 0.37284237 0.042881303
0.32999647 0.37271094 0.043003906
0.33260745 0.37257951 0.043126516
0.33521843 0.37244821 0.043249056
0.39129195 0.38626343 0.042558145
0.3939333 0.38613042 0.04268216
0.38072646 0.38679507 0.042062104
0.38336781 0.38666216 0.042186111
0.38600925 0.38652921 0.042310126
0.409338 0.3919459 0.042759918
0.41199073 0.39181247 0.042884443
0.41464353 0.39167893 0.043009035
0.41729635 0.39154544 0.043133572
0.41994905 0.39141196 0.043258086
0.42260191 0.39127851 0.043382678
0.39607412 0.39261335 0.042137153
0.39872694 0.39247987 0.042261682
0.40137967 0.39234638 0.042386275
0.40403241 0.39221284 0.042510804
0.40668523 0.39207941 0.042635385
0.43020752 0.39749792 0.043113951
0.42221496 0.39790016 0.042738687
0.42487913 0.39776611 0.042863797
0.42754331 0.39763197 0.0429889
0.45935726 0.40041319 0.042048708
0.43258023 0.40311489 0.043104459
0.43525395 0.40298048 0.043230005
0.4379276 0.40284592 0.043355498
0.48329514 0.40582713 0.04257476
0.47255492 0.40636763 0.042070482
0.47523996 0.40623257 0.042196549
0.47792509 0.4060975 0.042322617
0.4885627 0.4121922 0.042243928
0.4912591 0.4120566 0.042370513
0.49395555 0.41192076 0.042497166
0.4966521 0.4117851 0.042623755
0.49934855 0.41164953 0.042750333
0.55078161 0.41433135 0.042264283
0.55619746 0.4140588 0.042518556
0.55890524 0.41392252 0.04264567
0.54536593 0.41460389 0.042010017
0.54807377 0.41446754 0.042137124
0.50741476 0.41788524 0.042570703
0.5101226 0.41774893 0.042697813
0.51283056 0.41761282 0.042824976
0.51553839 0.41747645 0.042952083
0.56181777 0.42042354 0.042233825
0.5318647 0.42330816 0.043179899
0.53458399 0.42317152 0.04330758
0.59205961 0.42556071 0.043124959
0.57021415 0.42665997 0.042099267
0.57294482 0.42652255 0.042227469
0.57567549 0.42638513 0.042355675
0.57840616 0.42624766 0.042483881
0.58113688 0.4261103 0.042612083
0.58386749 0.42597291 0.042740289
0.58659834 0.42583543 0.042868491
0.589329 0.42569807 0.042996697
0.59787315 0.43193862 0.042888831
0.60061526 0.43180066 0.043017548
0.74153459 0.4486829 0.042971596
0.74432236 0.44854265 0.043102458
0.73966771 0.45549357 0.042453837
0.83619303 0.47030675 0.042892274
0.83902818 0.47016406 0.043025404
0.84186339 0.47002152 0.043158468
0.84469855 0.4698787 0.043291606
0.81918186 0.47116274 0.042093609
0.82201701 0.47102016 0.04222668
0.82485223 0.4708775 0.042359807
0.82768744 0.47073475 0.042492941
0.83052266 0.47059211 0.042626068
0.83335781 0.47044945 0.042759135
0.80918413 0.48075405 0.043260116
0.2532433 0.35347283 0.043586433
0.23657256 0.36214405 0.044278786
0.23915313 0.36201423 0.044399992
0.24173369 0.36188439 0.044521127
0.24431425 0.36175454 0.044642273
0.24689484 0.36162466 0.044763416
0.28739175 0.36394486 0.044189826
0.27185139 0.36472675 0.043460205
0.27444151 0.36459634 0.043581851
0.27703157 0.36446613 0.043703433
0.27962157 0.36433572 0.043825015
0.28221166 0.36420542 0.043946657
0.28480172 0.36407509 0.044068247
0.28916022 0.36953044 0.04404673
0.29175979 0.36939967 0.044168811
0.29435936 0.36926889 0.044290833
0.29695895 0.36913806 0.044412918
0.29955849 0.36900729 0.044534948
0.30215806 0.3688764 0.04465704
0.3047576 0.36874568 0.044779066
0.34044042 0.37218535 0.043494269
0.34305137 0.37205401 0.043616809
0.34566236 0.37192258 0.043739419
0.34827331 0.37179121 0.04386203
0.31429145 0.37482387 0.04452524
0.35029015 0.37737998 0.043756854
0.3529107 0.37724808 0.043879904
0.35553119 0.37711623 0.04400295
0.3574805 0.38359252 0.043420985
0.3601124 0.38346004 0.043544553
0.36274424 0.38332757 0.043668125
0.36537609 0.38319507 0.043791693
0.36800796 0.38306272 0.043915253
0.37063986 0.38293031 0.044038821
0.36483851 0.38893265 0.043601133
0.37276256 0.3885338 0.043973163
0.375404 0.38840097 0.044097178
0.37804529 0.38826808 0.044221185
0.38068673 0.38813502 0.044345193
0.38332805 0.3880021 0.044469204
0.38596946 0.38786933 0.044593208
0.42525464 0.39114496 0.043507211
0.39603415 0.39395919 0.044430126
0.39868701 0.39382571 0.044554714
0.40133974 0.39369217 0.044679247
0.45931706 0.40176958 0.044359773
0.44060132 0.40271133 0.043481044
0.44327497 0.40257686 0.043606598
0.48056972 0.40732449 0.044769578
0.4537189 0.40867561 0.043508895
0.46445918 0.40813524 0.044013169
0.46714434 0.40800005 0.044139236
0.46982938 0.40786499 0.044265304
0.47788459 0.40745962 0.044643514
0.52900982 0.41015685 0.04414298
0.51822394 0.4106997 0.043636568
0.5209204 0.41056395 0.043763157
0.52361691 0.41042823 0.043889742
0.52631336 0.41029257 0.044016391
0.48852202 0.41356027 0.0445747
0.49121857 0.41342443 0.044701293
0.55074096 0.41570503 0.04460489
0.5534488 0.4155688 0.044731997
0.52907789 0.41679513 0.0435878
0.53178579 0.41665897 0.0437149
0.53449363 0.41652259 0.04384207
0.54532522 0.41597757 0.044350613
0.548033 0.41584134 0.044477716
0.54274189 0.42276084 0.043690581
0.54546118 0.42262414 0.043818265
0.56177688 0.42180306 0.044584312
0.53730339 0.42303455 0.043435268
0.54002267 0.42289767 0.043562949
0.56471175 0.42832011 0.04420317
0.56744236 0.42818263 0.044331372
0.57017308 0.42804533 0.044459574
0.5619809 0.42845759 0.044074964
0.57315314 0.43457165 0.044100281
0.73508173 0.46476239 0.043789074
0.73789406 0.4646208 0.043921106
0.84753382 0.46973613 0.043424733
0.85036898 0.46959347 0.043557864
0.85320419 0.46945077 0.043690994
0.81063348 0.4730292 0.044144936
0.81346875 0.47288656 0.044278003
0.81630397 0.47274378 0.044411138
0.819139 0.47260121 0.044544265
0.82197434 0.47245851 0.044677328
0.25320464 0.35477635 0.045807093
0.24947546 0.36149487 0.044884611
0.2546365 0.36123508 0.045126896
0.25886211 0.36669242 0.04509097
0.26145214 0.36656213 0.045212559
0.26404226 0.36643186 0.045334142
0.26663235 0.36630145 0.045455787
0.26922232 0.366171 0.045577377
0.27181244 0.36604077 0.045699015
0.2744025 0.36591041 0.045820601
0.27699259 0.36578014 0.045942184
0.27958259 0.36564973 0.046063833
0.28217265 0.36551937 0.046185419
0.25368193 0.36695305 0.044847742
0.25627199 0.36682272 0.044969331
0.31775543 0.36809161 0.045389317
0.30735716 0.36861479 0.044901099
0.30995679 0.36848399 0.045023181
0.3125563 0.36835316 0.045145206
0.31515583 0.36822245 0.045267291
0.28652155 0.37098014 0.046171654
0.33517918 0.37377283 0.0455059
0.33779013 0.3736414 0.04562851
0.34040111 0.37350994 0.045751113
0.34301203 0.37337863 0.045873657
0.34562302 0.37324721 0.045996271
0.348234 0.37311584 0.046118878
0.32473525 0.37429824 0.045015603
0.34763029 0.37884125 0.045898922
0.35025069 0.37870938 0.046021912
0.35287127 0.37857753 0.046144959
0.35744086 0.38492763 0.04569586
0.36007276 0.38479522 0.045819432
0.36270463 0.38466275 0.045943007
0.36796838 0.38439789 0.046190131
0.35480899 0.38506019 0.045572296
0.39125216 0.38760343 0.04484123
0.3938936 0.38747054 0.044965241
0.40929803 0.39329168 0.045052893
0.4119508 0.39315826 0.045177419
0.41460359 0.39302477 0.045302004
0.41725639 0.39289117 0.045426536
0.41990912 0.39275768 0.045551062
0.4039925 0.39355868 0.044803776
0.40664527 0.39342523 0.044928361
0.4275032 0.39898372 0.045291692
0.43016741 0.39884961 0.045416798
0.42217487 0.39925179 0.045041535
0.42483902 0.39911774 0.045166649
0.43788731 0.40420231 0.045666564
0.44056106 0.40406778 0.045792107
0.44323468 0.40393326 0.0459176
0.44590837 0.40379876 0.046043158
0.44858205 0.40366411 0.046168707
0.48325479 0.40718937 0.044895649
0.48593986 0.40705431 0.04502172
0.5020045 0.4128817 0.045207702
0.50470102 0.4127461 0.045334287
0.51818335 0.41206753 0.045967288
0.52087981 0.41193196 0.04609393
0.49391508 0.41328883 0.044827878
0.49661151 0.41315311 0.044954527
0.49930796 0.41301742 0.045081113
0.55615664 0.4154326 0.044859163
0.55886441 0.41529626 0.04498627
0.52632922 0.41830525 0.045801234
0.529037 0.41816899 0.045928396
0.54270089 0.42414036 0.046041064
0.54542023 0.4240036 0.046168745
0.53182375 0.4246878 0.045530375
0.5345431 0.42455098 0.045658063
0.53726238 0.42441413 0.045785695
0.53998172 0.42427731 0.045913383
0.59201843 0.42694595 0.045485269
0.59474915 0.4268086 0.045613475
0.57836509 0.42763302 0.044844188
0.58109581 0.42749566 0.044972397
0.58382642 0.42735827 0.0451006
0.58655715 0.42722085 0.045228865
0.58928776 0.42708343 0.045357063
0.74149269 0.45009717 0.045381214
0.7442804 0.44995692 0.045512076
0.74242473 0.4567728 0.045004714
0.84465593 0.47131717 0.045742258
0.84749115 0.47117448 0.045875397
0.85032636 0.47103176 0.04600852
0.85316163 0.47088918 0.046141587
0.82480949 0.47231579 0.044810466
0.86900264 0.47774386 0.046068665
0.23395318 0.36358309 0.046388187
0.23653373 0.36345318 0.046509333
0.24169488 0.36319351 0.046751671
0.24427542 0.36306366 0.046872821
0.24685594 0.36293378 0.046994023
0.24943657 0.362804 0.047115162
0.28476274 0.36538911 0.046306998
0.2873528 0.36525869 0.046428643
0.25623298 0.36813673 0.047208145
0.2588231 0.36800638 0.047329731
0.26141316 0.36787608 0.04745131
0.28912109 0.37084934 0.046293743
0.29172069 0.37071845 0.046415776
0.29432023 0.37058774 0.046537858
0.29691982 0.37045684 0.046659883
0.29951936 0.37032613 0.046781909
0.3021189 0.37019524 0.046904001
0.30471846 0.37006447 0.047026027
0.30731803 0.36993369 0.047148112
0.30991763 0.36980283 0.047270138
0.31251714 0.369672 0.047392223
0.32469597 0.37562305 0.04727238
0.32730693 0.37549156 0.047394991
0.32991791 0.37536013 0.047517598
0.3554917 0.37844557 0.046268012
0.37060025 0.38426548 0.046313703
0.38857105 0.38907638 0.047000367
0.39121243 0.38894337 0.047124378
0.39385381 0.38881055 0.047248386
0.37800559 0.38960797 0.046504334
0.3859297 0.38920927 0.04687636
0.40660533 0.39477101 0.047221333
0.40925819 0.39463747 0.047345869
0.41191092 0.39450398 0.047470395
0.41456363 0.3943705 0.047594983
0.39599428 0.39530492 0.046723101
0.39864701 0.39517143 0.046847694
0.40129986 0.39503807 0.046972211
0.40395263 0.39490452 0.047096744
0.42746305 0.40033516 0.047594555
0.42213476 0.40060335 0.047344405
0.42479891 0.4004693 0.047469452
0.45927677 0.40312597 0.046670783
0.46195045 0.40299144 0.046796329
0.47264519 0.40245321 0.047298472
0.47531879 0.40231869 0.047424022
0.45125577 0.40352958 0.046294197
0.45660311 0.40326044 0.046545297
0.48052931 0.40868673 0.047090471
0.48321441 0.4085516 0.047216535
0.48589942 0.40841654 0.047342606
0.46710387 0.40936235 0.046460126
0.46978897 0.4092271 0.046586201
0.47784415 0.40882179 0.0469644
0.52357626 0.41179612 0.046220522
0.52627271 0.41166058 0.046347111
0.49926731 0.41438544 0.047411833
0.50196379 0.41424978 0.04753847
0.49387443 0.41465679 0.047158651
0.49657091 0.41452107 0.047285244
0.55070013 0.41707882 0.046945494
0.55340803 0.41694266 0.047072597
0.55611593 0.41680628 0.047199767
0.55882376 0.41667005 0.04732687
0.54799217 0.41721514 0.046818323
0.55629742 0.42345628 0.046679426
0.55901664 0.42331946 0.046807114
0.56467056 0.42970541 0.046563484
0.56740123 0.42956799 0.046691686
0.5701319 0.42943063 0.046819892
0.57559335 0.4291558 0.0470763
0.57832408 0.42901838 0.047204502
0.58105469 0.42888096 0.047332708
0.5837853 0.42874363 0.04746097
0.58651608 0.42860621 0.047589179
0.5619399 0.42984289 0.046435278
0.73958349 0.45833361 0.047292784
0.73785168 0.46604764 0.046352055
0.85599679 0.47074637 0.046274722
0.85883188 0.47060376 0.046407852
0.81059092 0.47446749 0.046595532
0.81342608 0.47432485 0.046728663
0.81626129 0.47418225 0.04686179
0.81909645 0.47403949 0.046994925
0.87185115 0.47760057 0.046202391
0.25316596 0.35607964 0.04802781
0.23391427 0.36489227 0.048618738
0.2364949 0.36476243 0.048739932
0.24165596 0.3645027 0.048982222
0.28472376 0.36670312 0.048545808
0.26659328 0.36761546 0.047694534
0.26918334 0.36748511 0.047816124
0.27177343 0.36735478 0.047937766
0.27436349 0.36722443 0.048059352
0.27695352 0.36709404 0.048180997
0.27954361 0.36696374 0.04830258
0.28213367 0.36683339 0.048424169
0.3177163 0.36941046 0.047636282
0.32031584 0.36927956 0.047758371
0.32291543 0.36914879 0.047880393
0.32811457 0.36888713 0.048124511
0.33071405 0.36875638 0.048246533
0.3333137 0.36862555 0.048368625
0.28648245 0.37229893 0.048418678
0.28908199 0.37216815 0.048540704
0.29168153 0.37203729 0.048662797
0.29428107 0.37190652 0.048784819
0.29688069 0.37177581 0.04890684
0.33513987 0.37509739 0.047762744
0.33775076 0.37496603 0.047885358
0.34036177 0.37483469 0.048007958
0.34297279 0.3747032 0.048130509
0.34558377 0.37457183 0.048253119
0.33252889 0.37522882 0.047640137
0.34759086 0.38017058 0.048163977
0.35021126 0.38003877 0.04828696
0.35283178 0.37990692 0.048410021
0.36529687 0.38586554 0.048341446
0.36792874 0.38573307 0.048465073
0.37056062 0.38560078 0.048588637
0.37319252 0.38546827 0.048712209
0.37582439 0.3853358 0.048835777
0.41721648 0.39423713 0.047719508
0.41986921 0.39410353 0.047844037
0.43012732 0.40020111 0.047719605
0.43279144 0.40006715 0.047844712
0.43545565 0.39993304 0.047969818
0.45923653 0.40448231 0.048981849
0.44052073 0.40542424 0.04810312
0.44319451 0.40528965 0.048228666
0.44586816 0.40515509 0.04835422
0.44854182 0.40502056 0.04847971
0.45121551 0.40488598 0.04860526
0.45388913 0.40475139 0.048730813
0.45656282 0.40461689 0.048856299
0.46706352 0.41072446 0.048781019
0.46974853 0.41058934 0.048907086
0.50466037 0.414114 0.047665063
0.50735688 0.41397834 0.047791652
0.51005328 0.41384271 0.047918238
0.51274985 0.41370693 0.04804489
0.51544625 0.41357127 0.048171472
0.51814282 0.41343561 0.048298057
0.52083933 0.41329986 0.048424654
0.52353561 0.41316426 0.048551235
0.52628845 0.41967905 0.048141833
0.52899635 0.41954273 0.048269004
0.54266 0.42552012 0.048391547
0.54537934 0.42538318 0.048519172
0.55081785 0.42510939 0.048774548
0.53722149 0.42579359 0.048136182
0.53994077 0.42565677 0.048263866
0.58924675 0.42846873 0.047717381
0.82634032 0.46691692 0.047694482
0.82916421 0.46677479 0.047827035
0.83198792 0.46663275 0.047959644
0.83481175 0.46649063 0.048092194
0.85028368 0.47247022 0.048459172
0.85311884 0.47232747 0.048592314
0.85595405 0.47218484 0.048725378
0.85878921 0.47204205 0.048858516
0.80771297 0.47604847 0.048913125
0.24028145 0.3580294 0.049645416
0.25312722 0.35738298 0.050248533
0.2545588 0.36385339 0.049588054
0.26488104 0.36333412 0.050072674
0.24423657 0.36437288 0.049103424
0.24681711 0.36424309 0.049224563
0.24939764 0.36411312 0.049345702
0.25619397 0.36945075 0.049446892
0.25878409 0.36932039 0.049568482
0.26137418 0.36919016 0.04969012
0.26914436 0.36879906 0.050054938
0.27173448 0.36866874 0.050176524
0.27432451 0.36853844 0.05029811
0.31247798 0.37099078 0.049639188
0.31507757 0.37086001 0.049761213
0.31767717 0.37072918 0.049883306
0.32027668 0.37059841 0.050005324
0.3228763 0.37046757 0.050127413
0.29948023 0.37164485 0.049028929
0.30207977 0.37151414 0.049150959
0.30467936 0.37138325 0.049273044
0.30727893 0.37125248 0.049395077
0.3098785 0.37112159 0.049517103
0.33248958 0.37655345 0.049896989
0.33510056 0.37642202 0.050019599
0.33771145 0.37629059 0.050142203
0.34032252 0.37615931 0.050264742
0.34293342 0.37602788 0.050387353
0.31943473 0.37721038 0.049284078
0.32204571 0.37707898 0.049406689
0.32465664 0.37694761 0.049529225
0.32726759 0.37681612 0.049651831
0.32987863 0.3766847 0.049774446
0.38371998 0.38493854 0.049206473
0.38108808 0.38507101 0.049082905
0.39117271 0.39028338 0.049407464
0.39381409 0.39015061 0.049531534
0.4065654 0.39611691 0.049514301
0.40921822 0.39598337 0.049638838
0.41187093 0.39584988 0.049763363
0.41452375 0.3957164 0.049887951
0.41717651 0.3955828 0.050012484
0.41982922 0.39544931 0.050137013
0.4039126 0.39625025 0.04938972
0.43275139 0.40141872 0.050147563
0.43541554 0.40128472 0.05027261
0.43807963 0.40115064 0.050397713
0.46191013 0.4043479 0.049107395
0.46458384 0.40421334 0.049232889
0.47260487 0.40380961 0.049609534
0.47527856 0.40367514 0.049735028
0.4778038 0.41018403 0.049285289
0.48048887 0.4100489 0.049411356
0.48317397 0.40991384 0.049537424
0.48585904 0.40977877 0.049663492
0.48854405 0.40964347 0.049789563
0.49122915 0.40950841 0.049915638
0.47243357 0.41045421 0.049033158
0.49922681 0.41575345 0.049742613
0.5019232 0.41561773 0.049869198
0.50461978 0.41548207 0.049995843
0.50731617 0.41534629 0.050122429
0.51001275 0.41521066 0.050249018
0.51270914 0.415075 0.050375603
0.49383387 0.41602474 0.049489371
0.49653032 0.41588914 0.049616016
0.5479514 0.41858882 0.049158931
0.55065936 0.41845262 0.04928609
0.55336726 0.41831633 0.049413256
0.55625653 0.42483586 0.049029853
0.55897576 0.42469904 0.049157545
0.56736016 0.43095335 0.049052
0.57009083 0.43081599 0.049180202
0.57282156 0.43067858 0.049308401
0.57555217 0.43054116 0.04943667
0.57828295 0.43040374 0.049564872
0.58101356 0.43026626 0.049693078
0.58374429 0.43012899 0.04982128
0.58647496 0.42999151 0.04994949
0.58920562 0.42985409 0.050077692
0.82065016 0.46863371 0.049870089
0.82347411 0.46849161 0.050002698
0.82629788 0.46834955 0.050135255
0.82912171 0.46820742 0.050267864
0.81054819 0.4759059 0.049046189
0.24161708 0.36581182 0.051212765
0.24419771 0.36568213 0.05133396
0.24677826 0.36555222 0.051455103
0.2493588 0.36542231 0.051576257
0.28209469 0.3681474 0.050662979
0.28468478 0.36801702 0.050784569
0.27691457 0.36840808 0.050419759
0.2795046 0.36827764 0.050541341
0.28644332 0.37361789 0.050665632
0.2890428 0.373487 0.050787725
0.29164246 0.37335619 0.05090975
0.29424196 0.3732253 0.051031779
0.29684156 0.37309459 0.051153868
0.29944107 0.3729637 0.051275901
0.3020407 0.37283298 0.051397983
0.30464026 0.37270203 0.051520009
0.30723986 0.37257126 0.05164203
0.30983937 0.37244055 0.051764116
0.34554446 0.37589639 0.050509959
0.31939542 0.37853494 0.051540922
0.3220064 0.37840354 0.051663477
0.32461739 0.37827218 0.05178608
0.36327419 0.38070893 0.051167205
0.35017186 0.38136816 0.050552022
0.35279232 0.38123637 0.050675068
0.35541278 0.38110441 0.050798122
0.3580333 0.38097259 0.050921164
0.36065376 0.38084069 0.051044151
0.38368037 0.38627371 0.051481362
0.38631219 0.38614124 0.051604927
0.38894409 0.3860088 0.051728487
0.37841663 0.38653857 0.051234215
0.38104847 0.38640612 0.051357791
0.38849157 0.39175639 0.051566601
0.39113289 0.3916235 0.051690616
0.4038727 0.39759615 0.051682692
0.39591441 0.39799654 0.051309049
0.3985672 0.39786318 0.051433627
0.45652255 0.40597329 0.051167361
0.45919627 0.40583882 0.051292911
0.46186996 0.40570429 0.051418398
0.46454367 0.40556979 0.051543947
0.44582787 0.40651155 0.050665226
0.4485015 0.40637696 0.050790776
0.45117527 0.40624237 0.050916322
0.4538489 0.4061079 0.051041815
0.47776344 0.41154626 0.051606178
0.48044842 0.41141108 0.051732257
0.46433794 0.41222176 0.050975841
0.46702304 0.4120867 0.051101908
0.46970823 0.41195157 0.051227976
0.47239318 0.41181645 0.051354043
0.5154056 0.41493917 0.050502196
0.51810217 0.41480356 0.050628841
0.52079856 0.41466793 0.050755423
0.52349508 0.41453227 0.050882008
0.49109682 0.41752848 0.051693559
0.54791075 0.41996267 0.051499583
0.55332649 0.41969025 0.05175386
0.52624768 0.42105278 0.050482497
0.52895552 0.42091641 0.050609611
0.53166342 0.42078018 0.050736703
0.53437132 0.42064393 0.050863877
0.59704572 0.42278326 0.050944962
0.599765 0.42264637 0.051072642
0.60248423 0.42250961 0.051200327
0.59160721 0.42305693 0.050689645
0.59432644 0.42292008 0.050817326
0.54261905 0.42689958 0.050741978
0.54533833 0.4267627 0.050869662
0.54805762 0.42662582 0.05099735
0.5507769 0.42648891 0.051125038
0.55349618 0.4263522 0.051252656
0.55621552 0.42621532 0.051380347
0.56165409 0.42594168 0.05163572
0.56437343 0.42580485 0.051763341
0.53718048 0.42717311 0.050486669
0.53989983 0.42703646 0.050614294
0.56458837 0.43247619 0.051284108
0.56731904 0.43233865 0.051412307
0.57004964 0.43220136 0.051540516
0.57278049 0.43206388 0.051668778
0.57551116 0.43192646 0.05179698
0.83194542 0.46806526 0.050400421
0.83476919 0.46792313 0.05053303
0.85307616 0.47376582 0.051042907
0.85591131 0.47362307 0.051176038
0.85874659 0.4734804 0.051309168
0.86158174 0.47333783 0.051442303
0.81050551 0.47734419 0.051496852
0.81334072 0.47720155 0.051629975
0.80483502 0.47762954 0.051230647
0.8076703 0.47748694 0.051363774
0.24024273 0.3593328 0.051866081
0.25308856 0.35868645 0.05246919
0.25451994 0.36516264 0.051818591
0.26484221 0.36464325 0.052303221
0.26742283 0.36451334 0.052424364
0.27946565 0.36959171 0.052780092
0.28205571 0.36946142 0.05290173
0.28464577 0.36933112 0.053023316
0.26133519 0.37050405 0.051928882
0.26651534 0.37024343 0.052172106
0.26910537 0.37011313 0.052293684
0.27428553 0.36985233 0.05253692
0.27687556 0.3697221 0.052658502
0.31243891 0.37230968 0.051886149
0.31503847 0.37217891 0.05200823
0.31763801 0.37204802 0.052130263
0.28900373 0.37480578 0.053034686
0.2916033 0.37467501 0.053156715
0.33245027 0.37787807 0.052153833
0.33506128 0.37774658 0.05227644
0.33767214 0.37761518 0.05239905
0.34028319 0.37748387 0.052521586
0.34289414 0.37735245 0.052644193
0.34550515 0.37722108 0.052766804
0.34811607 0.37708977 0.052889347
0.32722837 0.37814081 0.051908679
0.32983929 0.37800932 0.05203123
0.35013241 0.38269761 0.052817076
0.35275286 0.38256571 0.052940123
0.35537335 0.38243395 0.053063169
0.35799387 0.38230199 0.053186163
0.39377427 0.39149067 0.051814623
0.39641565 0.39135766 0.051938634
0.39905703 0.39122471 0.052062646
0.40169838 0.39109188 0.052186653
0.40652549 0.39746264 0.051807281
0.40917832 0.39732909 0.051931813
0.41183099 0.39719573 0.052056335
0.41448379 0.39706224 0.05218092
0.41713655 0.3969287 0.052305456
0.41978928 0.39679518 0.052429982
0.42244214 0.3966617 0.052554574
0.4250949 0.39652827 0.052679099
0.4277477 0.39639473 0.052803688
0.43040046 0.39626125 0.052928213
0.42471874 0.40317249 0.052075107
0.42738286 0.40303841 0.052200209
0.43004707 0.40290442 0.052325323
0.43271124 0.40277034 0.052450366
0.43537542 0.40263623 0.052575469
0.43803954 0.40250221 0.052700523
0.44070372 0.40236813 0.05282563
0.4433679 0.40223414 0.052950736
0.47523829 0.40503159 0.05204609
0.48313352 0.41127595 0.051858325
0.48581859 0.41114083 0.051984392
0.48850361 0.41100577 0.052110463
0.49118873 0.4108707 0.052236527
0.49918616 0.41712141 0.052073386
0.50188273 0.41698575 0.052199963
0.50457913 0.41685003 0.052326556
0.50727564 0.41671431 0.052453145
0.50997216 0.41657868 0.05257979
0.51266867 0.4164429 0.052706383
0.515365 0.4163073 0.052832965
0.51806152 0.41617158 0.05295955
0.52075809 0.41603583 0.053086203
0.49379325 0.41739282 0.051820144
0.49648976 0.41725704 0.051946737
0.52620691 0.42242652 0.052823108
0.52891481 0.42229027 0.052950203
0.53162271 0.42215398 0.053077374
0.59156615 0.42443651 0.053040065
0.57824188 0.43178904 0.05192519
0.58097249 0.43165168 0.052053392
0.58370316 0.43151423 0.052181602
0.81496012 0.47035038 0.052045755
0.81778395 0.47020835 0.052178375
0.82060778 0.47006628 0.052310918
0.82343155 0.46992421 0.052443467
0.82625532 0.46978199 0.052576091
0.82907909 0.46963987 0.052708633
0.83190292 0.46949789 0.052841254
0.83472669 0.46935576 0.052973799
0.83755052 0.46921363 0.053106412
0.81213641 0.47049251 0.051913213
0.23506576 0.36089477 0.05384554
0.2376349 0.36076546 0.053966176
0.24020408 0.3606362 0.054086793
0.25448111 0.36647183 0.054049142
0.25706163 0.36634195 0.054170284
0.25964224 0.3662121 0.054291483
0.26480335 0.36595243 0.054533765
0.25870615 0.37194842 0.054046042
0.26129615 0.37181807 0.054167632
0.26388624 0.37168768 0.054289281
0.26647633 0.37155744 0.05441086
0.26906639 0.37142703 0.05453245
0.30980024 0.37375933 0.054011077
0.31239974 0.37362844 0.054133169
0.3149994 0.37349769 0.054255195
0.31759888 0.3733668 0.054377228
0.2942028 0.37454414 0.053278804
0.2968024 0.37441337 0.053400829
0.29940194 0.3742826 0.053522915
0.30200154 0.37415171 0.053644944
0.30460113 0.37402099 0.053766962
0.3072007 0.3738901 0.053889051
0.32980001 0.37933394 0.054288074
0.33241096 0.37920263 0.054410674
0.33502194 0.37907121 0.054533288
0.3219671 0.37972811 0.053920321
0.32457808 0.37959674 0.05404292
0.327189 0.37946531 0.054165531
0.36323476 0.38203827 0.053432256
0.36585522 0.38190648 0.053555302
0.36847565 0.38177451 0.053678289
0.37109622 0.38164276 0.053801339
0.37371659 0.38151085 0.053924389
0.37633711 0.38137904 0.054047428
0.38100886 0.38774133 0.053632736
0.38364071 0.38760895 0.053756289
0.38627267 0.38747647 0.053879865
0.37837702 0.3878738 0.053509161
0.38845178 0.39309645 0.053849742
0.39109311 0.3929635 0.05397376
0.39373448 0.39283055 0.054097772
0.40165856 0.39243189 0.054469798
0.40383279 0.39894196 0.05397566
0.4064855 0.39880848 0.054100242
0.40913838 0.39867499 0.054224782
0.41179106 0.39854145 0.054349303
0.41444379 0.39840797 0.054473899
0.41709661 0.39827448 0.054598425
0.42467859 0.40452418 0.054377958
0.45648232 0.40732968 0.053478435
0.45915598 0.40719521 0.053603925
0.46182972 0.40706062 0.053729475
0.475198 0.40638798 0.054357097
0.4538087 0.40746436 0.053352885
0.48040804 0.41277331 0.054053139
0.48309305 0.41263819 0.05417921
0.48577815 0.41250306 0.054305274
0.48846328 0.412368 0.054431349
0.52345449 0.41590017 0.053212792
0.4991456 0.41848931 0.054404102
0.50184208 0.41835365 0.054530691
0.49105617 0.41889638 0.054024342
0.49375269 0.41876072 0.054150924
0.49644911 0.41862506 0.054277506
0.55870146 0.42079133 0.054348733
0.53433049 0.42201772 0.053204481
0.56161314 0.42732131 0.05398614
0.56727797 0.43372396 0.053772688
0.57000858 0.4335866 0.053900883
0.57273936 0.43344924 0.054029092
0.57546997 0.43331182 0.054157291
0.57820076 0.4331744 0.0542855
0.58093137 0.43303692 0.054413702
0.58366203 0.43289965 0.054541901
0.81491756 0.47178301 0.054486588
0.85586864 0.47506154 0.053626694
0.85870385 0.47491869 0.053759832
0.86153907 0.47477618 0.053892959
0.86437428 0.47463354 0.054026026
0.81046271 0.47878259 0.053947508
0.80479246 0.47906801 0.053681307
0.80762768 0.47892523 0.053814437
0.25304994 0.35998979 0.054689914
0.23245792 0.36232749 0.055945646
0.27254504 0.36556286 0.054897256
0.2794266 0.37090579 0.055018906
0.28201663 0.37077537 0.055140488
0.28460678 0.37064508 0.055262074
0.28719679 0.37051469 0.055383716
0.27165648 0.37129676 0.054654088
0.27424651 0.37116641 0.054775678
0.2768366 0.37103599 0.054897264
0.28896463 0.37612468 0.055281643
0.29156417 0.37599379 0.055403732
0.29676327 0.37573215 0.055647846
0.30196244 0.37547049 0.055891905
0.36113161 0.37775734 0.055759173
0.33763283 0.37893981 0.054655839
0.34024391 0.3788085 0.054778434
0.3428548 0.37867707 0.054901041
0.34546581 0.37854564 0.055023652
0.34807676 0.37841433 0.055146199
0.36581573 0.38323587 0.055820361
0.36843622 0.38310406 0.05594334
0.41974944 0.39814109 0.054723017
0.42240217 0.39800754 0.054847538
0.45132032 0.40318343 0.055628799
0.43267116 0.40412202 0.054753222
0.43533534 0.40398797 0.054878265
0.43799943 0.40385371 0.055003382
0.44066358 0.40371966 0.055128485
0.44332781 0.40358558 0.055253532
0.44599199 0.40345156 0.055378638
0.44865617 0.40331751 0.055503685
0.45644209 0.40868619 0.055789433
0.4591158 0.4085516 0.055914987
0.50453866 0.41821805 0.054657333
0.50723499 0.41808233 0.054783925
0.5099315 0.41794664 0.054910511
0.51262808 0.41781092 0.055037096
0.51532441 0.41767526 0.055163741
0.51802087 0.41753954 0.055290334
0.52071744 0.41740391 0.055416923
0.52341384 0.41726825 0.055543508
0.52887398 0.423664 0.055290803
0.53158194 0.42352778 0.05541797
0.53428978 0.42339146 0.055545077
0.53699756 0.42325518 0.055672247
0.53970557 0.42311904 0.055799354
0.54241335 0.42298269 0.055926517
0.58608675 0.42608973 0.05513519
0.58880597 0.42595291 0.055262871
0.59152526 0.42581597 0.055390559
0.81774139 0.47164086 0.054619145
0.82056528 0.47149885 0.054751754
0.82338905 0.47135672 0.054884311
0.82621288 0.47121462 0.05501686
0.82903659 0.47107249 0.055149466
0.83186042 0.47093046 0.055282027
0.83468425 0.47078839 0.055414628
0.83750808 0.47064626 0.055547185
0.84033179 0.47050411 0.055679798
0.23502707 0.36219817 0.056066263
0.23759624 0.36206892 0.056186892
0.24016546 0.36193955 0.056307517
0.24273454 0.36181045 0.056428134
0.24530375 0.36168107 0.056548759
0.24787289 0.36155182 0.056669388
0.25044206 0.36142245 0.056790009
0.2530112 0.36129326 0.056910627
0.25444227 0.36778101 0.056279689
0.25702277 0.36765102 0.056400888
0.27679759 0.37235013 0.05713607
0.27938768 0.37221974 0.057257652
0.28197771 0.37208945 0.057379302
0.26384726 0.37300172 0.056528028
0.27420753 0.37248042 0.057014421
0.30976111 0.37507811 0.056258097
0.31236058 0.37494734 0.056380123
0.31496018 0.37481648 0.056502216
0.31755975 0.3746857 0.056624237
0.32015938 0.37455475 0.056746274
0.30456197 0.37533978 0.056013994
0.30716157 0.37520888 0.05613602
0.32714975 0.38079 0.056422379
0.3297607 0.38065857 0.056544922
0.33237165 0.3805272 0.056667522
0.33498263 0.38039577 0.056790132
0.33759356 0.38026443 0.056912683
0.34020454 0.38013306 0.057035279
0.34281549 0.38000163 0.057157893
0.34542653 0.37987027 0.057280444
0.32453874 0.38092142 0.056299768
0.37105668 0.38297215 0.056066398
0.37367719 0.38284031 0.056189436
0.37629765 0.38270843 0.05631249
0.38360113 0.38894412 0.056031175
0.386233 0.38881171 0.056154743
0.39105338 0.39430356 0.056256846
0.39369476 0.39417061 0.056380853
0.39633611 0.39403778 0.056504864
0.39897749 0.39390478 0.056628875
0.40161884 0.39377183 0.056752894
0.40644556 0.4001542 0.056393221
0.40909839 0.40002084 0.05651775
0.41175112 0.39988729 0.056642339
0.41440389 0.39975375 0.056766864
0.41705671 0.39962026 0.0568914
0.41970947 0.39948675 0.057015985
0.4223623 0.39935333 0.057140511
0.42766777 0.39908636 0.057389632
0.42463848 0.40587568 0.056680758
0.43263105 0.40547353 0.057056017
0.43529519 0.40533948 0.057181127
0.43795931 0.4052054 0.057306238
0.46178943 0.40841702 0.05604054
0.46446317 0.40828264 0.056166023
0.46713677 0.40814805 0.056291576
0.46981046 0.40801346 0.056417122
0.47248417 0.40787891 0.056542613
0.47515786 0.40774438 0.056668166
0.47783145 0.40760991 0.056793712
0.4803676 0.41413549 0.056374028
0.4830527 0.41400042 0.0565001
0.48573774 0.4138653 0.056626167
0.48842278 0.41373017 0.056752242
0.49640858 0.41999304 0.056608289
0.50180149 0.41972166 0.056861464
0.50449806 0.41958588 0.056988049
0.50719446 0.41945031 0.057114694
0.50989091 0.41931465 0.057241283
0.51258749 0.41917881 0.057367876
0.54782927 0.42271015 0.056180794
0.55053711 0.42257398 0.056307893
0.55324495 0.42243767 0.056435063
0.55595285 0.42230144 0.05656217
0.55866069 0.42216513 0.056689337
0.54512137 0.42284644 0.056053624
0.52341747 0.4253104 0.057377134
0.56157225 0.42870083 0.056336626
0.56429154 0.42856395 0.056464314
0.5672369 0.43510932 0.056133002
0.56996757 0.4349719 0.056261208
0.57269824 0.43483448 0.05638941
0.5754289 0.43469706 0.056517616
0.57815957 0.43455964 0.056645818
0.58089024 0.43442225 0.056774028
0.8176989 0.47307348 0.057059918
0.82052267 0.47293136 0.057192527
0.82334656 0.47278929 0.05732514
0.81205136 0.47335765 0.056794815
0.81487513 0.47321552 0.056927368
0.85582608 0.47649983 0.056077361
0.86149639 0.47621459 0.056343615
0.80474979 0.48050624 0.056131966
0.80758488 0.48036364 0.05626509
0.81042022 0.48022088 0.056398172
0.23241927 0.36363083 0.05816637
0.23498842 0.36350158 0.05828698
0.23755759 0.36337227 0.058407616
0.24012677 0.36324304 0.058528233
0.24269588 0.36311379 0.058648854
0.24526508 0.36298448 0.058769476
0.2518228 0.36922005 0.05838909
0.25440344 0.3690902 0.058510289
0.25698394 0.36896032 0.058631428
0.25956449 0.36883047 0.058752574
0.2845678 0.37195903 0.057500888
0.28715786 0.37182871 0.057622463
0.29492801 0.37143773 0.057987284
0.30010816 0.37117711 0.058230508
0.2560381 0.37470677 0.058401965
0.25862816 0.37457633 0.05852361
0.26121819 0.37444597 0.0586452
0.26380831 0.37431574 0.058766779
0.30712244 0.37652779 0.058383033
0.30972195 0.37639689 0.058505058
0.31232142 0.37626612 0.058627084
0.31492105 0.37613529 0.058749177
0.28892544 0.37744346 0.057528663
0.29152504 0.37731257 0.057650696
0.29412451 0.37718186 0.057772782
0.29672411 0.37705094 0.057894811
0.3019233 0.37678939 0.058138922
0.30452284 0.37665856 0.058260955
0.35587031 0.37934482 0.057770796
0.35848135 0.37921333 0.057893407
0.3610923 0.3790819 0.058015957
0.36370328 0.3789506 0.058138549
0.34803748 0.37973896 0.057403043
0.35064843 0.37960747 0.057525653
0.35325938 0.37947607 0.057648197
0.32449946 0.38224599 0.058556616
0.36315587 0.38469717 0.057962362
0.36577627 0.38456532 0.058085412
0.36839673 0.38443345 0.058208402
0.37101731 0.3843016 0.058331445
0.37363774 0.3841697 0.058454495
0.37625822 0.38403788 0.058577545
0.37887871 0.38390592 0.058700535
0.35529444 0.38509274 0.057593271
0.37829775 0.39054427 0.058058914
0.38356155 0.39027929 0.058306113
0.38619339 0.39014682 0.058429688
0.38882524 0.39001459 0.058553245
0.39101368 0.39564362 0.05853999
0.39365497 0.39551061 0.058664002
0.39629635 0.39537773 0.058788016
0.43032053 0.39895281 0.057514153
0.40640566 0.40150005 0.058686201
0.45128024 0.40453506 0.057931654
0.45394439 0.40440106 0.058056701
0.44062352 0.40507141 0.057431284
0.4432877 0.40493733 0.057556387
0.44595188 0.40480319 0.057681438
0.44861603 0.40466914 0.057806544
0.45372814 0.41017714 0.057974949
0.45640185 0.41004258 0.058100503
0.45907551 0.409908 0.058226049
0.4617492 0.40977347 0.058351539
0.46442288 0.40963885 0.058477093
0.46709654 0.40950444 0.058602635
0.46977019 0.40936992 0.058728121
0.48032719 0.41549772 0.058694929
0.52606982 0.41850042 0.05800087
0.51528388 0.41904315 0.057494462
0.5179804 0.41890758 0.057621099
0.52067685 0.4187718 0.057747692
0.52337331 0.41863614 0.057874281
0.54778844 0.42408401 0.058521386
0.55049628 0.42394772 0.058648501
0.55320418 0.42381153 0.058775667
0.52612537 0.42517406 0.057504304
0.52883327 0.42503774 0.057631407
0.53154117 0.42490157 0.057758573
0.53424907 0.4247652 0.057885684
0.5396648 0.42449266 0.058139954
0.54237264 0.42435649 0.058267117
0.54508054 0.42422023 0.058394227
0.58604574 0.42746925 0.057485674
0.58876497 0.42733243 0.057613358
0.59148437 0.42719549 0.05774105
0.82617033 0.47264725 0.057457685
0.82899415 0.47250518 0.057590239
0.83181781 0.47236308 0.057722852
0.83464175 0.47222078 0.057855409
0.83746552 0.47207877 0.057988025
0.84028929 0.47193673 0.058120571
0.80470705 0.48194471 0.058582615
0.8075422 0.48180193 0.058715746
0.25297254 0.3625966 0.059131354
0.24783427 0.36285511 0.058890104
0.25040337 0.36272585 0.059010722
0.27246737 0.36818117 0.059358411
0.2621451 0.36870059 0.058873717
0.26730627 0.36844096 0.059116058
0.26988676 0.36831108 0.059237204
0.27416858 0.37379444 0.059253238
0.27675867 0.37366408 0.059374824
0.27934864 0.3735337 0.05949641
0.28193873 0.3734034 0.059618056
0.28452882 0.3732731 0.059739642
0.28711885 0.37314278 0.05986122
0.26639834 0.37418535 0.058888432
0.2689884 0.37405512 0.059010006
0.27157846 0.37392476 0.0591316
0.31752059 0.37600449 0.058871198
0.32012016 0.3758736 0.058993291
0.32271975 0.37574288 0.05911532
0.28368714 0.37902391 0.05953151
0.28628677 0.37889302 0.059653603
0.28888634 0.37876225 0.059775628
0.29148585 0.37863153 0.059897706
0.29408541 0.37850064 0.060019746
0.29668507 0.37836978 0.060141765
0.35844207 0.38053796 0.060150251
0.32972136 0.38198319 0.058801766
0.3323324 0.38185182 0.05892437
0.33755422 0.381589 0.059169531
0.34016529 0.38145769 0.059292123
0.34277627 0.38132626 0.059414737
0.34538722 0.38119483 0.059537284
0.34799814 0.38106352 0.059659891
0.35060915 0.38093203 0.059782498
0.35322011 0.38080063 0.059905037
0.38149914 0.38377413 0.058823578
0.3578755 0.38629034 0.059981316
0.36049595 0.38615838 0.06010437
0.35525504 0.38642213 0.05985833
0.3989377 0.3952449 0.05891202
0.40157908 0.39511183 0.059036039
0.40422043 0.39497906 0.059160039
0.43028066 0.40029871 0.059807129
0.40905848 0.40136656 0.05881073
0.41171116 0.40123308 0.058935255
0.41436395 0.40109965 0.059059843
0.41701677 0.40096611 0.059184372
0.41966954 0.40083259 0.059308961
0.42232233 0.40069917 0.059433483
