# .PCD v0.7 - Point Cloud Data file format
VERSION 0.7
FIELDS x y z
SIZE 4 4 4
TYPE F F F
COUNT 1 1 1
WIDTH 1420
HEIGHT 1
VIEWPOINT 0 0 0 1 0 0 0
POINTS 1420
DATA ascii
0.87810034 0.16905302 0.023908833
0.88046622 0.16893393 0.024019893
0.83311397 0.17251524 0.023843275
0.83547986 0.1723962 0.023954337
0.81651747 0.17454889 0.025110677
0.83888489 0.17671724 0.023852065
0.84125817 0.17659785 0.023963489
0.81511474 0.17911562 0.024789223
0.81748819 0.17899625 0.024900647
0.81986165 0.17887685 0.02501207
0.82223505 0.17875735 0.025123557
0.79612726 0.18007109 0.02389776
0.79850066 0.1799517 0.024009181
0.80087417 0.17983232 0.024120608
0.80324757 0.1797128 0.024232095
0.80562097 0.17959344 0.024343519
0.80799437 0.17947401 0.024454938
0.81274128 0.17923513 0.024677793
0.87355351 0.18029708 0.02465529
0.87593627 0.18017718 0.024767155
0.81156129 0.18462364 0.023806101
0.81394434 0.18450376 0.023918027
0.81632715 0.18438387 0.024029892
0.81871015 0.18426389 0.024141768
0.82109314 0.18414401 0.024253635
0.82347602 0.18402413 0.024365501
0.82585889 0.18390423 0.024477366
0.82824188 0.18378425 0.024589298
0.83062482 0.18366435 0.024701165
0.83300775 0.18354446 0.024813036
0.83539069 0.18342456 0.024924899
0.87499374 0.18555856 0.023914853
0.79007906 0.18691175 0.024858909
0.79246199 0.18679187 0.024970837
0.79484493 0.18667197 0.025082702
0.79722774 0.18655197 0.025194574
0.83189386 0.18893927 0.023960913
0.83428639 0.18881887 0.024073223
0.83667874 0.18869852 0.024185596
0.83907127 0.18857813 0.024297906
0.80075628 0.19171812 0.024568584
0.80314857 0.19159774 0.024680952
0.8055411 0.19147736 0.024793262
0.80793345 0.19135697 0.024905572
0.81032598 0.19123659 0.025017882
0.81271839 0.19111618 0.025130251
0.78640163 0.19244049 0.023894656
0.78879398 0.19232 0.024006974
0.79118651 0.19219962 0.024119286
0.79357886 0.19207926 0.02423165
0.79597139 0.19195886 0.024343964
0.79836369 0.19183849 0.024456272
0.83770192 0.19316819 0.02402078
0.83530182 0.19328901 0.023908105
0.78966498 0.19680123 0.023841675
0.79206514 0.19668053 0.023954345
0.79446507 0.19655968 0.024067024
0.79686511 0.19643898 0.024179697
0.8751325 0.19664176 0.025009589
0.87754208 0.19652055 0.025122706
0.81003869 0.20113797 0.024037825
0.81244832 0.20101666 0.024150949
0.81485778 0.20089546 0.024264062
0.81726736 0.20077413 0.024377184
0.82208639 0.20053163 0.02460348
0.87143493 0.20136553 0.024651086
0.87385213 0.20124391 0.024764573
0.81097013 0.2056326 0.023903186
0.81338722 0.20551096 0.024016669
0.81580436 0.20538932 0.024130156
0.81822157 0.20526767 0.024243644
0.82063866 0.20514604 0.024357125
0.82305574 0.20502438 0.024470614
0.82789004 0.2047811 0.024697583
0.87041891 0.20679197 0.023865974
0.82670277 0.21022111 0.023912707
0.82912946 0.21009897 0.024026634
0.80109817 0.21813339 0.024105305
0.80597049 0.21788824 0.024334041
0.80840659 0.21776561 0.024448412
0.81084281 0.21764307 0.02456278
0.81327891 0.21752046 0.024677152
0.81571501 0.21739793 0.024791576
0.86584634 0.21904077 0.024341529
0.86829197 0.21891762 0.024456348
0.87073779 0.21879461 0.024571156
0.82178801 0.22249666 0.024388634
0.82423371 0.22237353 0.024503451
0.82667929 0.22225052 0.024618259
0.82912499 0.22212748 0.024733068
0.80955976 0.22311196 0.023814514
0.81200546 0.22298895 0.023929328
0.81445104 0.22286582 0.024044143
0.81689668 0.22274281 0.024158953
0.81934237 0.22261967 0.024273766
0.86202985 0.22380771 0.024041632
0.86448312 0.22368425 0.024156807
0.82764751 0.22678055 0.024549572
0.83010077 0.22665708 0.024664747
0.81292802 0.2275213 0.023858501
0.81538117 0.22739784 0.023973679
0.8178345 0.22727437 0.024088856
0.82028776 0.22715093 0.024204032
0.82274097 0.22702748 0.024319213
0.82519424 0.226904 0.024434393
0.79326516 0.22975354 0.025057504
0.79571837 0.22963007 0.025172738
0.82640392 0.23226576 0.023834368
0.8288666 0.23214181 0.023949986
0.83132929 0.23201784 0.02406561
0.79435122 0.23512623 0.024459939
0.79681385 0.23500228 0.024575558
0.79927659 0.23487836 0.024691181
0.80173939 0.2347544 0.024806803
0.8042022 0.23463041 0.024922425
0.80666471 0.23450661 0.025038039
0.80912757 0.23438263 0.025153661
0.78942555 0.23537402 0.024228644
0.79188842 0.23525007 0.024344264
0.81768703 0.23938917 0.024923284
0.82015932 0.2392647 0.025039408
0.82263148 0.23914036 0.02515547
0.7954368 0.24050882 0.023878658
0.79790902 0.24038438 0.023994725
0.80038136 0.24025993 0.024110787
0.80285358 0.2401356 0.024226848
0.80532587 0.24001116 0.024342975
0.80779803 0.23988672 0.024459036
0.81027031 0.23976238 0.024575097
0.81274253 0.23963794 0.024691163
0.81521475 0.23951349 0.024807226
0.86356688 0.24126992 0.024314752
0.86604851 0.24114497 0.024431322
0.81637627 0.24490175 0.024246028
0.81885803 0.2447768 0.024362536
0.82133979 0.24465197 0.0244791
0.82382143 0.24452703 0.024595605
0.80893105 0.24527636 0.023896454
0.81141275 0.24515152 0.024013015
0.81389457 0.2450266 0.024129527
0.78655797 0.24765939 0.024992963
0.78903967 0.2475345 0.025109466
0.76174039 0.24890818 0.02382773
0.76422203 0.24878335 0.023944292
0.76670384 0.24865842 0.024060799
0.82002866 0.25017422 0.023818197
0.78262234 0.25331855 0.024217065
0.78511369 0.25319305 0.024334019
0.78760487 0.25306773 0.024450963
0.79258734 0.25281695 0.024684919
0.79507858 0.25269169 0.024801865
0.79756981 0.25256631 0.02491881
0.80006105 0.25244087 0.025035823
0.80255234 0.25231558 0.025152767
0.77514863 0.25369459 0.023866164
0.77763987 0.2535691 0.023983119
0.7801311 0.25344381 0.024100063
0.80865765 0.25747913 0.024864795
0.81115842 0.2573531 0.024982188
0.79365313 0.25823411 0.024160279
0.79615384 0.25810826 0.024277726
0.79865456 0.25798231 0.024395121
0.80115527 0.25785658 0.024512568
0.8036561 0.25773075 0.02462996
0.80615675 0.2576049 0.024747347
0.86253315 0.25897685 0.024664504
0.80475956 0.26315564 0.024123557
0.80978 0.262903 0.024359284
0.81229031 0.2627767 0.024477115
0.8148005 0.2626504 0.024595005
0.81731075 0.26252407 0.024712838
0.81982112 0.26239777 0.024830729
0.799739 0.26340827 0.023887834
0.80224931 0.26328194 0.024005724
0.8613351 0.26452219 0.024058284
0.86385494 0.26439536 0.024176622
0.85881537 0.26464897 0.02394001
0.81090212 0.2683365 0.023870191
0.81342191 0.26820967 0.023988524
0.81846136 0.26795605 0.024225136
0.82098114 0.26782927 0.024343414
0.77558774 0.27138993 0.024391929
0.82214105 0.27327046 0.023872564
0.79933959 0.27569911 0.024990018
0.80186892 0.27557179 0.025108797
0.77404708 0.27697182 0.023802547
0.7765764 0.27684462 0.023921262
0.7791056 0.27671731 0.02404004
0.78163481 0.27658999 0.024158759
0.78669327 0.27633548 0.02439625
0.79681051 0.27582648 0.024871301
0.85884321 0.27693275 0.025086906
0.79787487 0.28128675 0.024420595
0.80041355 0.2811591 0.024539812
0.80295241 0.28103125 0.024658976
0.80549103 0.28090358 0.024778191
0.80802983 0.28077582 0.02489741
0.81056857 0.28064802 0.02501657
0.81310743 0.28052035 0.025135789
0.78771979 0.28179783 0.023943774
0.79279727 0.2815423 0.02418221
0.79533613 0.2814146 0.024301374
0.76737154 0.2841078 0.02518468
0.85785145 0.28334799 0.024010172
0.76483274 0.28423557 0.025065456
0.81191021 0.28695172 0.024059238
0.81446028 0.28682342 0.024178976
0.81701046 0.28669497 0.024298718
0.81956071 0.28656667 0.024418458
0.80936003 0.28707996 0.023939505
0.76851916 0.29042697 0.024228109
0.77361941 0.29017028 0.024467587
0.8181408 0.29217246 0.02388561
0.82070053 0.29204363 0.024005789
0.82326013 0.29191491 0.024125969
0.78226709 0.29527426 0.024415592
0.78482676 0.29514548 0.02453577
0.78994608 0.29488787 0.024776133
0.7925058 0.29475906 0.024896311
0.79506534 0.29463029 0.025016494
0.79762489 0.29450145 0.025136678
0.7694689 0.29591838 0.023814684
0.77202845 0.29578954 0.023934862
0.77458811 0.29566064 0.024055047
0.77714777 0.29553193 0.024175225
0.77970743 0.29540309 0.024295406
0.85523915 0.29584965 0.0251777
0.82697839 0.29727182 0.023850841
0.78069466 0.30090216 0.023900287
0.78326392 0.30077299 0.024020908
0.78583312 0.30064362 0.024141535
0.7884022 0.30051437 0.024262153
0.79097134 0.300385 0.024382779
0.79354054 0.30025581 0.024503401
0.7961098 0.30012649 0.024624029
0.79867887 0.29999724 0.024744647
0.80124801 0.29986793 0.024865272
0.85418171 0.30230662 0.024163609
0.76010281 0.30323985 0.025156016
0.82317603 0.3051742 0.024940262
0.82575661 0.30504432 0.025061408
0.80769259 0.30595323 0.024213294
0.82059556 0.30530393 0.024819123
0.76636475 0.30934015 0.024505325
0.76894534 0.30921027 0.024626471
0.77152586 0.30908042 0.024747605
0.77410638 0.30895066 0.024868809
0.77668709 0.30882069 0.024989953
0.77926767 0.30869079 0.025111098
0.76120365 0.30959991 0.024262976
0.76378417 0.30947006 0.02438418
0.80877447 0.31146771 0.023857171
0.81136453 0.31133744 0.023978751
0.81395459 0.31120703 0.024100339
0.76729447 0.31486693 0.024150211
0.77506465 0.31447607 0.024515022
0.77765465 0.31434566 0.024636669
0.78024477 0.31421536 0.024758257
0.78902024 0.31935707 0.024787972
0.79161984 0.31922629 0.024910053
0.84771478 0.32152912 0.02439619
0.85032564 0.32139766 0.024518741
0.81112188 0.32469308 0.024936799
0.81373286 0.32456174 0.0250594
0.80328906 0.32508719 0.02456904
0.80589998 0.324956 0.024691643
0.80851096 0.32482451 0.024814194
0.84892869 0.32706681 0.024097187
0.885194 0.13387983 0.026271243
0.88750106 0.13376378 0.026379574
0.88980794 0.13364765 0.026487842
0.89211482 0.1335316 0.026596168
0.92614615 0.13588819 0.025225868
0.90989637 0.1378794 0.026466811
0.91221279 0.13776274 0.026575588
0.88441563 0.13916159 0.025270449
0.93447077 0.13990186 0.025252691
0.93679488 0.13978502 0.025361765
0.94284081 0.14392111 0.025294701
0.94517243 0.14380383 0.025404202
0.94750404 0.14368652 0.02551364
0.96098471 0.1482728 0.025220156
0.96332586 0.148155 0.025330102
0.96566695 0.1480372 0.025439985
0.96800798 0.14791942 0.025549931
0.97034925 0.14780162 0.025659816
0.87981665 0.14945473 0.026369767
0.97652775 0.15194726 0.025626991
0.97887659 0.15182903 0.025737246
0.98122525 0.15171081 0.0258475
0.98357397 0.15159267 0.025957806
0.87663358 0.15488926 0.025310306
0.87897474 0.15477146 0.02542025
0.81432396 0.1648685 0.026138723
0.81667262 0.16475038 0.026248971
0.81902146 0.16463214 0.026359288
0.81529504 0.16929948 0.025900833
0.81765145 0.16918091 0.02601145
0.88043058 0.17013425 0.026064832
0.88279635 0.1700152 0.026175888
0.81888336 0.17442983 0.025221797
0.82598084 0.17407267 0.025555037
0.82834673 0.17395358 0.025666101
0.87685961 0.17480634 0.025634991
0.87923318 0.17468682 0.025746426
0.88160658 0.17456745 0.025857905
0.8246085 0.17863795 0.025234981
0.8269819 0.17851844 0.025346411
0.82935542 0.17839907 0.025457835
0.83172876 0.17827967 0.025569256
0.83410227 0.17816019 0.025680689
0.80437672 0.18619233 0.025530173
0.80675954 0.18607244 0.025642103
0.80914253 0.18595245 0.025753975
0.81390834 0.1857127 0.025977707
0.81867421 0.18547282 0.026201503
0.82344002 0.18523303 0.026425241
0.82582295 0.18511316 0.026537105
0.79961073 0.18643211 0.025306441
0.80199367 0.18631221 0.025418306
0.8270731 0.19039384 0.025804179
0.81511092 0.19099584 0.025242561
0.81750333 0.19087534 0.025354877
0.81989574 0.19075498 0.025467245
0.82228822 0.19063458 0.025579559
0.82468063 0.19051419 0.025691869
0.87610239 0.19123586 0.025823724
0.87280905 0.20790094 0.026077447
0.87178302 0.21334241 0.025316568
0.86580968 0.22028147 0.02645543
0.86825532 0.22015838 0.026570302
0.86199284 0.22505228 0.02616212
0.8644461 0.22492884 0.026277294
0.86689931 0.22480536 0.026392477
0.79817164 0.2295066 0.025287919
0.80062485 0.22938316 0.025403097
0.80307817 0.22925971 0.025518276
0.80553132 0.22913626 0.025633456
0.80798459 0.22901277 0.025748635
0.86334503 0.23040685 0.025568796
0.82390404 0.23363905 0.025847448
0.82636684 0.23351513 0.02596307
0.81897855 0.23388696 0.025616204
0.82510382 0.23901595 0.025271533
0.8275761 0.23889148 0.025387598
0.79292738 0.24188738 0.025899505
0.86352938 0.24252889 0.02645993
0.86601126 0.24240406 0.02657643
0.79152137 0.24740958 0.025225971
0.79400313 0.24728477 0.025342537
0.79648501 0.24715982 0.025459042
0.79896659 0.247035 0.025575547
0.8014484 0.24691004 0.025692053
0.8039301 0.24678524 0.025808612
0.8064118 0.24666026 0.025925122
0.80889368 0.24653547 0.026041625
0.81137538 0.24641049 0.026158134
0.86237991 0.24804305 0.025806604
0.86487114 0.24791761 0.025923559
0.81002611 0.25193951 0.025503671
0.8125174 0.25181413 0.025620617
0.80504364 0.25219026 0.025269715
0.80753487 0.25206482 0.025386725
0.86371177 0.25344193 0.025286267
0.85877752 0.26592734 0.026118008
0.86129719 0.26580051 0.026236286
0.86381698 0.26567373 0.026354624
0.86007982 0.27136138 0.025653858
0.86260915 0.2712341 0.025772577
0.80439818 0.27544448 0.025227517
0.80692738 0.27531734 0.025346285
0.80945671 0.27519 0.025465008
0.81198597 0.27506274 0.025583789
0.81451517 0.27493536 0.025702566
0.81564611 0.28039253 0.025254952
0.77244908 0.28385228 0.025423057
0.77752662 0.28359678 0.025661433
0.85781306 0.2846418 0.02621441
0.86036319 0.28451344 0.02633415
0.81442189 0.28811705 0.026383283
0.80167121 0.28875867 0.025784591
0.80422133 0.2886304 0.025904333
0.8067714 0.28850216 0.026024064
0.85653579 0.29024044 0.025688261
0.85909545 0.2901116 0.025808444
0.81042325 0.29385751 0.025737578
0.81298304 0.29372862 0.025857702
0.81554264 0.29359987 0.025977876
0.8181023 0.29347104 0.026098059
0.80018467 0.29437268 0.025256852
0.80274427 0.2942439 0.025377033
0.80530399 0.29411501 0.025497217
0.85780823 0.29572028 0.025298325
0.81923229 0.29896301 0.025709633
0.82180136 0.2988337 0.02583026
0.8243705 0.29870445 0.025950881
0.77808702 0.30233482 0.026000382
0.78065616 0.30220562 0.026121007
0.7832253 0.30207628 0.026241628
0.7857945 0.30194709 0.026362251
0.78836364 0.30181772 0.026482875
0.76267195 0.30311051 0.025276644
0.76524109 0.30298132 0.025397265
0.76781029 0.30285195 0.025517892
0.77037954 0.30272275 0.025638513
0.77294862 0.30259338 0.025759138
0.77551776 0.30246419 0.025879757
0.85414284 0.30361593 0.026394153
0.85672331 0.30348602 0.026515352
0.79475105 0.30791178 0.025838068
0.79733157 0.30778182 0.025959214
0.79991215 0.30765194 0.026080415
0.80249262 0.30752221 0.026201552
0.78184819 0.30856103 0.025232295
0.78442878 0.30843118 0.025353437
0.78700936 0.3083013 0.025474582
0.78958982 0.30817139 0.025595726
0.79217046 0.3080416 0.025716921
0.8528055 0.30925199 0.025924411
0.79578519 0.31343332 0.025487876
0.79837513 0.31330296 0.025609467
0.80096525 0.31317273 0.025731107
0.80355525 0.31304231 0.025852697
0.79060495 0.313694 0.025244651
0.85144907 0.3148987 0.025470257
0.84884936 0.31502959 0.025348162
0.80201811 0.31870303 0.025398226
0.80461776 0.31857222 0.025520304
0.80721718 0.31844139 0.025642335
0.89442182 0.13341546 0.026704505
0.89672863 0.13329941 0.026812766
0.89903563 0.13318324 0.026921103
0.92379481 0.13717997 0.027119322
0.92611122 0.13706346 0.027228087
0.9284277 0.1369468 0.027336868
0.91452909 0.13764621 0.026684295
0.91684556 0.13752967 0.026793066
0.91916198 0.13741304 0.026901843
0.92147845 0.1372965 0.02701061
0.87974787 0.1405699 0.027055193
0.88206428 0.14045322 0.027163967
0.88438076 0.14033671 0.027272735
0.88669717 0.14022017 0.027381444
0.88901365 0.14010353 0.027490223
0.93443584 0.14108093 0.027261501
0.93675995 0.14096397 0.027370641
0.93908393 0.1408471 0.027479716
0.88094825 0.14494973 0.026760647
0.88327229 0.14483275 0.026869787
0.94746906 0.14486943 0.027529048
0.94980061 0.144752 0.027638493
0.95213234 0.14463471 0.027747998
0.95446384 0.14451738 0.027857436
0.95679557 0.1444001 0.027966941
0.96329051 0.14934266 0.027353654
0.96563166 0.14922486 0.027463598
0.9679727 0.14910707 0.027573546
0.97031391 0.14898926 0.027683431
0.97265512 0.14887148 0.027793312
0.98118973 0.15290244 0.027877698
0.98353863 0.15278417 0.027987955
0.87893945 0.15595923 0.027443858
0.88128066 0.15584134 0.02755375
0.88012379 0.16036771 0.027196217
0.88130778 0.16478394 0.026961749
0.87682408 0.17601039 0.027686531
0.87919742 0.175891 0.02779795
0.88157094 0.17577149 0.027909381
0.87590057 0.18138611 0.026826894
0.87828344 0.1812661 0.026938768
0.82820606 0.18499316 0.026649041
0.87509626 0.19786416 0.027092332
0.87750584 0.19774295 0.02720545
0.87139857 0.20259175 0.026740367
0.87381577 0.20247011 0.02685385
0.87174642 0.21457841 0.027422257
0.87418246 0.21445575 0.027536627
0.87070096 0.22003533 0.026685113
0.87314653 0.2199122 0.02679993
0.86330807 0.23165616 0.027697494
0.86577076 0.23153234 0.027813109
0.86713189 0.23690104 0.027244778
0.86367416 0.25471053 0.027447859
0.80611914 0.25887349 0.02690894
0.86004174 0.27264458 0.027840072
0.86257106 0.27251723 0.027958786
0.85880494 0.27822071 0.02728132
0.86134374 0.27809295 0.027400488
0.80291408 0.28231934 0.026853392
0.80545282 0.28219149 0.026972612
0.80782509 0.29528475 0.027829858
0.81038475 0.29515603 0.027950028
0.80270576 0.29554248 0.027589485
0.80526549 0.29541358 0.027709669
0.85520047 0.297153 0.027398363
0.85776955 0.29702374 0.027519038
0.86033875 0.29689437 0.027639607
0.80891681 0.30078349 0.027447863
0.81148607 0.30065429 0.027568484
0.81405509 0.30052492 0.027689109
0.81662434 0.30039555 0.027809737
0.79093277 0.30168846 0.026603499
0.79350191 0.30155915 0.026724122
0.79607111 0.30142996 0.026844744
0.79864025 0.30130059 0.026965369
0.80120939 0.30117139 0.02708599
0.80377859 0.30104205 0.027206616
0.7921316 0.30935082 0.027947469
0.76374543 0.31077912 0.026614727
0.76890647 0.31051952 0.026857009
0.771487 0.31038961 0.026978211
0.78438985 0.3097403 0.027583981
0.7869705 0.30961043 0.027705129
0.79315603 0.31487766 0.027605049
0.79574615 0.31474733 0.02772663
0.79833621 0.31461698 0.027848275
0.85140985 0.3162176 0.027717212
0.85400939 0.31608677 0.027839245
0.79677987 0.32028341 0.027401131
0.79937947 0.3201527 0.027523158
0.85028642 0.32272241 0.026775578
0.85289747 0.32259098 0.026898187
0.80847162 0.32614908 0.027071036
0.8110826 0.32601771 0.027193641
0.80586076 0.32628056 0.026948487
0.89900088 0.13435361 0.028915172
0.9013077 0.13423757 0.029023441
0.90361464 0.13412143 0.029131776
0.90592158 0.1340054 0.029240103
0.88515931 0.13505018 0.028265262
0.88746625 0.13493416 0.028373586
0.88977313 0.13481799 0.028481917
0.89208007 0.13470195 0.028590182
0.89438701 0.1345858 0.028698517
0.89669389 0.13446978 0.028806845
0.91912717 0.13858828 0.028904067
0.92144358 0.13847162 0.029012838
0.92376006 0.13835509 0.029121606
0.92607635 0.13823855 0.029230377
0.92839289 0.13812204 0.029339144
0.91217786 0.13893798 0.02857781
0.8866623 0.1413953 0.029383732
0.88434589 0.14151184 0.029274965
0.88091326 0.1461288 0.028769458
0.88323718 0.14601181 0.028878601
0.8797816 0.15063767 0.028385112
0.88243711 0.16144107 0.029336674
0.88362855 0.16586083 0.0291091
0.88276076 0.17121542 0.028220894
0.88394427 0.17565209 0.028020805
0.87586457 0.18259501 0.028886633
0.87824756 0.18247502 0.028998507
0.88063049 0.18235512 0.029110374
0.88301343 0.18223529 0.029222304
0.87731421 0.18786566 0.028163062
0.87506002 0.19908655 0.029175019
0.87746954 0.19896536 0.029288197
0.8737793 0.20369634 0.028943127
0.87619632 0.20357482 0.029056607
0.87277257 0.20913205 0.028174927
0.87310982 0.22115295 0.028913887
0.86821842 0.22139911 0.028684264
0.87066412 0.22127606 0.02879907
0.86440927 0.22617342 0.028397785
0.86686254 0.22604994 0.028512964
0.86709476 0.23815522 0.029381743
0.86845559 0.2435382 0.028838107
0.86597383 0.24366304 0.02872161
0.86483365 0.24918158 0.028076934
0.86732483 0.24905615 0.028193882
0.8649677 0.26139751 0.02912193
0.86377901 0.2669521 0.028532619
0.86510032 0.27238992 0.028077567
0.8603248 0.28580719 0.02853846
0.86287493 0.28567892 0.028658187
0.80673313 0.28979579 0.02822837
0.85905689 0.29141018 0.028020954
0.86161649 0.29128143 0.028141132
0.81294447 0.29502726 0.028070213
0.81550407 0.29489836 0.028190395
0.85410404 0.30492505 0.028624756
0.85668451 0.30479518 0.028745899
0.85276657 0.31056607 0.028163223
0.85024709 0.32404703 0.02903243
0.85285819 0.3239156 0.029155036
0.89435232 0.13575619 0.030692594
0.88973844 0.13598835 0.030475935
0.89204538 0.13587232 0.030584263
0.9307093 0.13800541 0.029447863
0.88897878 0.14127877 0.029492443
0.89129519 0.14116223 0.029601214
0.93904901 0.14202607 0.029488536
0.94137299 0.14190909 0.029597668
0.94369698 0.14179224 0.029706804
0.95676041 0.14558288 0.029982349
0.9590922 0.14546558 0.030091794
0.94976556 0.14593491 0.029653898
0.95209718 0.14581761 0.029763399
0.95442879 0.14570032 0.029872844
0.88087833 0.14730774 0.030778276
0.96559644 0.15041266 0.029487146
0.96793753 0.15029472 0.029597102
0.97027874 0.15017694 0.029707046
0.97261983 0.15005913 0.029816927
0.97496104 0.14994137 0.029926876
0.97730213 0.14982355 0.03003676
0.88207817 0.15170325 0.030509958
0.88440973 0.15158597 0.030619459
0.98350328 0.1539758 0.030018156
0.88124537 0.15702911 0.029577361
0.88358647 0.1569113 0.029687243
0.88745683 0.17217761 0.030488009
0.88982272 0.17205857 0.030599067
0.88509101 0.17229655 0.030376894
0.87916166 0.17709503 0.029849486
0.88153517 0.17697565 0.029960906
0.88390851 0.17685626 0.030072333
0.88628197 0.17673677 0.03018376
0.88865536 0.17661738 0.030295247
0.87967056 0.18895893 0.030343318
0.87727815 0.18907945 0.030231001
0.87843019 0.19355032 0.030085472
0.87516242 0.210241 0.030386398
0.87414575 0.21569163 0.029642383
0.86818165 0.22263984 0.030798161
0.86682546 0.22729465 0.030633507
0.86927885 0.22717118 0.030748686
0.86819649 0.23265775 0.030057492
0.86956704 0.23803081 0.029497812
0.86479616 0.25044546 0.030230256
0.86728746 0.25032002 0.030347263
0.86363649 0.25597924 0.029609444
0.86613727 0.25585347 0.029726835
0.86253297 0.27380037 0.030145003
0.8650623 0.27367318 0.030263769
0.86130553 0.27938104 0.02959496
0.86157799 0.29257992 0.030353589
0.86413777 0.29245117 0.030473767
0.86669737 0.29232228 0.030593948
0.86030012 0.2981979 0.029860323
0.86286926 0.29806852 0.029980952
0.85773093 0.29832709 0.029739702
0.85531771 0.31174967 0.030523563
0.85790765 0.31161937 0.030645205
0.85397035 0.31740555 0.030086266
0.89665926 0.13564013 0.030800859
0.89896613 0.13552399 0.030909194
0.90127307 0.13540794 0.031017518
0.90357995 0.13529179 0.031125793
0.90588695 0.13517576 0.031234117
0.90819377 0.13505971 0.031342439
0.9128077 0.13482754 0.031559043
0.91511458 0.13471138 0.031667374
0.92140871 0.13964687 0.031015059
0.92372519 0.13953035 0.03112383
0.9260416 0.13941368 0.031232605
0.92835796 0.13929716 0.031341374
0.93067449 0.13918062 0.031450082
0.93299091 0.1390641 0.031558853
0.93530726 0.13894747 0.031667627
0.88431102 0.14268708 0.031277183
0.8866275 0.14257054 0.031385951
0.88894391 0.14245392 0.031494729
0.89126033 0.14233737 0.031603493
0.8935768 0.14222082 0.031712268
0.89589316 0.1421043 0.031820975
0.94366193 0.14297119 0.031715557
0.94598597 0.14285421 0.031824701
0.9567253 0.14676581 0.031997692
0.95905697 0.1466485 0.032107193
0.88320231 0.14719091 0.030887412
0.8855263 0.14707392 0.030996548
0.97492582 0.15112913 0.031950481
0.97726697 0.15101135 0.032060366
0.97960806 0.15089342 0.032170322
0.96790236 0.15148254 0.031620707
0.97024345 0.15136471 0.031730652
0.97258461 0.15124692 0.031840533
0.88355124 0.15809898 0.031710859
0.88589233 0.15798119 0.031820804
0.88709909 0.16239624 0.031587377
0.88475043 0.16251445 0.031477123
0.88359314 0.16705626 0.031145887
0.88594949 0.16693772 0.031256504
0.88387275 0.17806032 0.032123864
0.87821162 0.18368395 0.031058246
0.88059467 0.18356408 0.031170109
0.88297749 0.1834442 0.031282037
0.87839401 0.19476783 0.032159954
0.87743324 0.20018774 0.031370878
0.87984282 0.20006657 0.031484056
0.87374294 0.20492271 0.03103246
0.87615997 0.20480105 0.031145947
0.87857711 0.2046794 0.031259429
0.87410909 0.2169276 0.031748123
0.87654525 0.21680495 0.031862497
0.87062728 0.22251683 0.030912967
0.87307298 0.22239368 0.03102784
0.87173212 0.22704773 0.030863864
0.86952984 0.23928514 0.031634707
0.87200207 0.23916069 0.031750832
0.86841816 0.2447973 0.030983279
0.87090003 0.24467236 0.031099787
0.86609966 0.25712207 0.031888422
0.86860037 0.25699621 0.032005813
0.86493003 0.26267099 0.031291723
0.86744022 0.26254469 0.031409618
0.86626089 0.26810357 0.030828902
0.86878061 0.26797679 0.03094724
0.86380613 0.28054121 0.031908542
0.86283666 0.28697267 0.030862434
0.86538678 0.28684431 0.030982176
0.86026138 0.29950118 0.032081045
0.8576923 0.29963055 0.031960417
0.85406518 0.30623424 0.030855304
0.8566457 0.30610436 0.03097645
0.85020775 0.32537165 0.031289272
0.85281879 0.32524016 0.031411879
0.85542977 0.3251088 0.031534486
0.85143077 0.33092317 0.031015394
0.89201051 0.13704269 0.032578275
0.89431751 0.13692652 0.032686606
0.89662439 0.13681051 0.032794874
0.8989315 0.13669434 0.032903209
0.90123832 0.13657829 0.033011533
0.90354532 0.13646217 0.033119861
0.90585214 0.13634612 0.033228133
0.90815914 0.13622999 0.033336464
0.91046602 0.13611394 0.033444785
0.91277295 0.13599791 0.03355306
0.92137378 0.14082199 0.033017341
0.92369026 0.14070547 0.033126116
0.92832321 0.14047241 0.033343591
0.93063951 0.14035574 0.033452369
0.93295598 0.14023922 0.033561133
0.88659257 0.14374568 0.033388238
0.88890898 0.14362915 0.033496946
0.96138853 0.14653118 0.032216635
0.88549137 0.14825301 0.033005357
0.8878153 0.14813602 0.033114437
0.89013952 0.14801905 0.033223577
0.89246345 0.14790204 0.033332653
0.89136946 0.15241684 0.032963254
0.89370114 0.15229943 0.033072699
0.88437456 0.15276876 0.032634869
0.88670629 0.15265144 0.032744311
0.88978702 0.17325877 0.032644007
0.89215285 0.17313972 0.032755073
0.89099318 0.17770201 0.032458201
0.8862462 0.17794093 0.032235283
0.88861966 0.17782143 0.032346778
0.88055879 0.18477298 0.03322985
0.88294166 0.1846531 0.033341773
0.88532466 0.18453322 0.033453643
0.88770759 0.18441321 0.03356551
0.87963462 0.19017275 0.032411262
0.88202703 0.19005236 0.032523628
0.87980652 0.20128894 0.033566743
0.87612367 0.20602727 0.033235222
0.87854075 0.20590566 0.033348706
0.87755263 0.21134996 0.032597806
0.875126 0.21147211 0.032483876
0.87303615 0.22363444 0.033141736
0.87548172 0.22351144 0.033256549
0.87414831 0.22816886 0.033099528
0.86924183 0.22841576 0.032869171
0.8716951 0.2282923 0.032984354
0.87062216 0.23378322 0.032301802
0.8683809 0.24605629 0.033128396
0.87086266 0.24593146 0.033244893
0.87334442 0.24580652 0.033361461
0.86724985 0.2515839 0.032500643
0.86974114 0.25145853 0.032617588
0.87223238 0.25133324 0.032734532
0.86622298 0.269382 0.033006903
0.86874276 0.26925516 0.033125237
0.87126255 0.26912838 0.033243515
0.86249483 0.27508351 0.03233121
0.86502421 0.27495626 0.032449983
0.86755341 0.274829 0.032568701
0.86789858 0.28800982 0.033306215
0.86409909 0.29374978 0.032686274
0.86665881 0.29362091 0.03280646
0.86283064 0.29937199 0.032201666
0.86539978 0.29924271 0.032322295
0.85918742 0.3072837 0.033328187
0.86176789 0.30715379 0.033449333
0.85527867 0.31306374 0.032762371
0.85786873 0.31293333 0.032883957
0.85393113 0.31872445 0.032333218
0.85653079 0.31859356 0.03245531
0.85913026 0.31846285 0.032577336
0.85139138 0.33225256 0.033280391
0.91738677 0.13576572 0.033769716
0.91507983 0.13588174 0.033661388
0.89658976 0.13798086 0.034788948
0.89889663 0.13786469 0.034897279
0.93990523 0.13988952 0.03388739
0.9352724 0.14012268 0.033669908
0.93758881 0.14000607 0.033778623
0.8912254 0.14351261 0.033605717
0.89354187 0.14339596 0.033714492
0.89585829 0.14327942 0.033823263
0.94362694 0.14415027 0.033724431
0.94595098 0.1440333 0.033833511
0.94827503 0.14391631 0.033942655
0.95059907 0.14379945 0.034051724
0.95292312 0.14368248 0.03416086
0.95902187 0.1478314 0.034122538
0.96135342 0.14771411 0.034232035
0.9636851 0.14759669 0.034341492
0.97020817 0.15255238 0.033754207
0.97254932 0.15243459 0.033864152
0.97489041 0.15231679 0.033974037
0.97723162 0.15219899 0.034083981
0.97957277 0.15208121 0.034193926
0.98191381 0.15196341 0.03430381
0.88667119 0.15383434 0.034759715
0.8890028 0.15371704 0.034869153
0.89133447 0.15359975 0.034978654
0.88819832 0.15905103 0.0339543
0.89053935 0.15893327 0.034064189
0.8928805 0.15881546 0.034174133
0.89522165 0.15869768 0.034284078
0.89756274 0.15857989 0.034393962
0.8870638 0.16358784 0.033617578
0.88941264 0.1634696 0.033727832
0.8917613 0.16335134 0.033838086
0.89411008 0.16323324 0.033948395
0.89211726 0.17433994 0.034800015
0.89448309 0.17422085 0.03491113
0.8862105 0.17914498 0.034286816
0.88858396 0.17902558 0.034398247
0.89095736 0.17890607 0.034509733
0.89333087 0.17878668 0.034621157
0.89570427 0.17866719 0.034732588
0.8838371 0.17926437 0.0341754
0.89009047 0.18429333 0.033677384
0.87959856 0.19138642 0.034479208
0.88199091 0.19126606 0.034591582
0.88438338 0.19114567 0.034703888
0.88075811 0.19586465 0.034347169
0.88315797 0.19574393 0.034459841
0.88221616 0.20116763 0.033679925
0.88462555 0.20104642 0.03379304
0.87751603 0.21258107 0.03469535
0.87994277 0.21245906 0.034809273
0.87407243 0.21816346 0.033853821
0.87650847 0.21804094 0.033968188
0.87894475 0.21791829 0.034082554
0.87304777 0.23490873 0.034546182
0.87196487 0.2404149 0.033887736
0.86970359 0.25272244 0.034770906
0.87219483 0.25259706 0.03488791
0.8685627 0.25826496 0.034167394
0.87106353 0.25813904 0.034284793
0.86991268 0.26369187 0.03369724
0.864986 0.2762394 0.034636192
0.86751527 0.27611214 0.034754913
0.85765356 0.30093384 0.03418114
0.8602227 0.30080459 0.034301765
0.8627919 0.30067536 0.034422386
0.86536103 0.30054599 0.034543015
0.85649163 0.3199124 0.034702271
0.85909116 0.31978163 0.034824301
0.86169076 0.31965074 0.034946389
0.85277951 0.32656479 0.033668727
0.85539043 0.32643336 0.033791274
0.9127382 0.13716827 0.03554713
0.91504526 0.13705213 0.035655465
0.91735202 0.13693605 0.035763733
0.92427284 0.13658772 0.036088664
0.90120363 0.13774869 0.035005551
0.90351045 0.1376325 0.035113879
0.90581745 0.1375165 0.035222203
0.90812439 0.13740033 0.035330478
0.91043133 0.13728431 0.035438806
0.93523753 0.14129782 0.035672136
0.937554 0.14118129 0.035780907
0.93987042 0.14106476 0.035889611
0.92133898 0.14199722 0.035019565
0.92828822 0.14164752 0.035345878
0.93060476 0.14153101 0.03545459
0.93292117 0.14141434 0.035563365
0.90277267 0.14410484 0.036151744
0.9050892 0.14398831 0.036260515
0.89350706 0.1445712 0.035716712
0.89582348 0.14445457 0.035825491
0.89813989 0.14433801 0.035934258
0.90045631 0.1442215 0.036043026
0.94824016 0.14509539 0.035951465
0.95056415 0.1449784 0.036060542
0.95288819 0.14486143 0.036169682
0.95521212 0.14474458 0.036278814
0.88778043 0.149315 0.035123255
0.89475244 0.14896415 0.035450608
0.89707643 0.14884716 0.035559744
0.96131831 0.14889687 0.036247391
0.96365005 0.1487796 0.036356889
0.89366597 0.15348233 0.035088107
0.8959977 0.15336505 0.035197604
0.970173 0.15374018 0.035777815
0.97251403 0.15362227 0.035887763
0.98187864 0.15315109 0.036327425
0.89518636 0.15988535 0.036307629
0.88937724 0.16466123 0.03575803
0.8917259 0.16454297 0.035868287
0.89407468 0.16442472 0.035978541
0.89642346 0.16430663 0.036088847
0.89877212 0.16418839 0.0361991
0.89294755 0.16897282 0.035661884
0.89530385 0.16885425 0.035772499
0.89684898 0.1741018 0.035022195
0.88290584 0.18586202 0.035401456
0.88528872 0.18574202 0.035513386
0.88767171 0.18562214 0.035625257
0.89005464 0.18550228 0.03573712
0.87977022 0.20251134 0.035649486
0.88217992 0.20239003 0.035762612
0.88458931 0.20226884 0.03587579
0.88699895 0.20214765 0.035988905
0.88940841 0.20202629 0.036102027
0.89422745 0.20178379 0.036328264
0.87850434 0.20713198 0.035438035
0.88092154 0.20701034 0.035551526
0.87647182 0.21927683 0.036073938
0.87890804 0.21915416 0.036188308
0.8813442 0.21903169 0.036302675
0.87544489 0.22475207 0.03537051
0.87789047 0.22462904 0.035485324
0.88033617 0.22450601 0.035600193
0.88278174 0.22438291 0.035715006
0.88522744 0.22425988 0.035829812
0.87165815 0.22953689 0.035104841
0.87411141 0.22941343 0.035220079
0.87656456 0.22928996 0.035335258
0.87439984 0.24154466 0.036140762
0.87330705 0.24706563 0.035506569
0.87578869 0.24694069 0.035623141
0.8723852 0.26483911 0.03598487
0.87489533 0.26471278 0.036102761
0.86870474 0.27053353 0.035303175
0.87122458 0.27040669 0.035421509
0.86786008 0.28930345 0.035510462
0.87041026 0.28917515 0.0356302
0.86662024 0.29491949 0.035018913
0.8591485 0.30859283 0.03555873
0.86172909 0.30846301 0.035679881
0.86041987 0.31411695 0.035244357
0.86057299 0.32749522 0.036293324
0.85274017 0.32788941 0.035925567
0.85535121 0.32775798 0.036048118
0.85796207 0.32762662 0.036170717
0.85397238 0.33345011 0.035668492
0.90808964 0.1385707 0.037324492
0.91039652 0.13845466 0.03743282
0.91270357 0.13833852 0.037541158
0.91501039 0.13822247 0.037649419
0.91731727 0.13810647 0.037757747
0.89655501 0.1391511 0.036782973
0.898862 0.13903508 0.036891241
0.90116882 0.13891904 0.036999561
0.90347576 0.13880287 0.037107896
0.90578264 0.13868684 0.037216224
0.9328863 0.1425896 0.037565582
0.93520266 0.14247307 0.037674356
0.93751913 0.14235643 0.037783131
0.92130411 0.14317237 0.037021849
0.90168953 0.14979243 0.037786763
0.96598166 0.14866228 0.03646633
0.8970415 0.15002626 0.037568551
0.8993656 0.14990929 0.037677694
0.98421979 0.15303329 0.03643731
0.89829421 0.15443063 0.03732245
0.90062582 0.15431322 0.037431899
0.9029575 0.15419592 0.037541401
0.9022097 0.15953195 0.036637407
0.89752752 0.15976755 0.036417577
0.89986861 0.15964974 0.036527518
0.89681333 0.17530212 0.037067126
0.89092165 0.18011023 0.036561202
0.89329505 0.17999072 0.036672633
0.89566845 0.17987132 0.036784112
0.8980419 0.17975184 0.03689554
0.88525289 0.18695095 0.037573125
0.88763583 0.18683109 0.037684992
0.89001876 0.18671121 0.037796859
0.88434744 0.19235945 0.036771834
0.88673985 0.19223911 0.03688414
0.88913226 0.1921186 0.036996517
0.89152467 0.19199824 0.037108827
0.88552195 0.19684078 0.036647059
0.88792205 0.19671991 0.036759734
0.89032209 0.19659923 0.036872406
0.89272207 0.1964784 0.036985081
0.88088512 0.20823656 0.037640803
0.88330215 0.20811492 0.037754282
0.87990624 0.21369007 0.036906816
0.88233286 0.21356802 0.037020743
0.8837803 0.21890904 0.036417045
0.87785363 0.2258698 0.037599277
0.88029933 0.22574666 0.037714094
0.87407446 0.23065799 0.037340567
0.87652767 0.23053454 0.037455741
0.87898088 0.2304111 0.037570924
0.88143414 0.23028766 0.037686106
0.87301075 0.23615819 0.036674872
0.87547332 0.23603423 0.036790498
0.87326974 0.2483246 0.037651747
0.87575144 0.24819978 0.037768252
0.87215734 0.25386095 0.037041232
0.87464857 0.25373563 0.037158236
0.87102586 0.25940776 0.036446374
0.87352657 0.25928199 0.036563762
0.87602723 0.25915614 0.036681212
0.87370646 0.27155817 0.037717797
0.86866695 0.27181178 0.037481185
0.87118667 0.27168494 0.037599519
0.87253577 0.2771408 0.037178617
0.86494803 0.27752253 0.036822349
0.86747718 0.27739528 0.036941126
0.87000656 0.27726796 0.037059903
0.86782175 0.29059732 0.037714761
0.86658174 0.2962181 0.037231423
0.8691414 0.29608923 0.037351605
0.87170106 0.29596052 0.037471779
0.86275333 0.30197877 0.036643047
0.86532247 0.30184951 0.036763668
0.86297083 0.31530064 0.03760469
0.85645247 0.32123125 0.036949228
0.85905206 0.32110041 0.037071321
0.8616516 0.32096964 0.037193343
0.92193109 0.13787425 0.037974402
0.92423815 0.13775808 0.038082678
0.93983561 0.14223987 0.037891898
0.94215196 0.14212336 0.038000669
0.94446838 0.1420067 0.038109384
0.89810497 0.14551316 0.037936486
0.90042138 0.14539662 0.038045257
0.90273786 0.14528009 0.038154025
0.90505427 0.14516355 0.038262732
0.90737069 0.1450469 0.038371507
0.9096871 0.14493038 0.038480278
0.92126924 0.14434759 0.03902407
0.9505291 0.14615749 0.038069412
0.95285302 0.14604051 0.038178492
0.95517713 0.14592353 0.038287628
0.95750123 0.14580669 0.038396705
0.9729414 0.14949319 0.038810182
0.97527301 0.1493759 0.038919628
0.97760463 0.1492586 0.039029069
0.96361482 0.14996247 0.038372289
0.96594656 0.1498452 0.038481735
0.89983332 0.16083738 0.038551077
0.90217447 0.16071962 0.038661018
0.90451562 0.16060181 0.038770907
0.9034341 0.16514361 0.038449802
0.89638799 0.16549811 0.038118992
0.89873672 0.16537999 0.038229235
0.9010855 0.16526176 0.038339552
0.89762467 0.16993113 0.037919849
0.89088595 0.18131426 0.038612735
0.89325929 0.18119489 0.038724158
0.8956328 0.18107539 0.038835589
0.8980062 0.18095601 0.038947068
0.8924017 0.1865913 0.037908725
0.89478457 0.18647128 0.038020596
0.89028591 0.19781673 0.038946945
0.89508599 0.19757523 0.039172295
0.88214356 0.20361254 0.037845351
0.88455302 0.20349123 0.037958473
0.88696259 0.20337002 0.038071651
0.88937205 0.20324869 0.038184773
0.89178157 0.20312749 0.038297884
0.89419121 0.20300631 0.038411006
0.88571942 0.20799324 0.03786777
0.8861798 0.22002237 0.038637161
0.88861591 0.21989973 0.038751535
0.88763624 0.2253775 0.038058586
0.88274503 0.22562367 0.037828907
0.88519061 0.22550051 0.03794378
0.87543631 0.23728357 0.038919255
0.87789905 0.23715974 0.039034866
0.87683481 0.24267456 0.038393728
0.87849039 0.26029891 0.038960189
0.87598962 0.26042473 0.038842741
0.8748576 0.26598626 0.0382725
0.87736791 0.26585996 0.038390394
0.87234741 0.2661126 0.038154669
0.86743909 0.27867842 0.039127335
0.87130779 0.28402182 0.038849391
0.87037194 0.29046896 0.037834499
0.86271453 0.30328217 0.038863763
0.86528355 0.3031528 0.038984392
0.86785275 0.30302361 0.039105009
0.86169022 0.30977213 0.037910428
0.86427075 0.30964234 0.038031623
0.85792279 0.32895124 0.038427569
0.86053383 0.32881984 0.038550172
0.86314476 0.32868841 0.038672727
0.85531187 0.32908255 0.038304962
0.85393298 0.33477962 0.037933543
0.90574795 0.13985722 0.039210238
0.90805477 0.13974106 0.039318573
0.91036189 0.13962504 0.039426897
0.9126687 0.13950887 0.039535165
0.9149757 0.13939285 0.0396435
0.91728264 0.1392768 0.03975182
0.92189652 0.13904461 0.039968424
0.92420346 0.13892846 0.040076751
0.92651027 0.13881242 0.040185079
0.92881715 0.13869625 0.040293355
0.93516779 0.14364818 0.03967664
0.9374842 0.14353165 0.039785355
0.93980068 0.14341502 0.039894126
0.94211715 0.14329848 0.040002894
0.94443339 0.14318195 0.040111665
0.94674987 0.14306539 0.04022038
0.90270293 0.14645523 0.040156253
0.90501934 0.14633869 0.040265024
0.90733582 0.14622214 0.040373787
0.90965217 0.14610563 0.040482499
0.91196859 0.14598897 0.040591277
0.95746624 0.14698564 0.040405527
0.95979017 0.14686866 0.040514659
0.90397865 0.15085442 0.039904725
0.90630263 0.15073757 0.040013857
0.96591139 0.1510281 0.040497143
0.90292233 0.15537883 0.039556805
0.90525401 0.1552615 0.039666243
0.89870149 0.16657151 0.040259443
0.90105009 0.16645336 0.040369693
0.90339893 0.16633515 0.040480006
0.90574759 0.166217 0.040590253
0.89758921 0.17112646 0.039956648
0.89994556 0.17100789 0.040067263
0.89914352 0.17638327 0.03922319
0.89713168 0.18756033 0.040192202
0.89951456 0.18744047 0.040304128
0.89236587 0.18780021 0.039968465
0.89474869 0.18768021 0.040080335
0.89388108 0.19309166 0.03928908
0.89627355 0.19297129 0.039401393
0.89866602 0.1928509 0.039513756
0.89174539 0.20434989 0.040380631
0.89415485 0.2042287 0.040493753
0.88692641 0.20459245 0.040154334
0.88933581 0.20447123 0.040267453
0.88326579 0.20934127 0.039843619
0.885683 0.20921962 0.039957102
0.88810015 0.20909795 0.040070586
0.89051735 0.20897631 0.040184066
0.88515377 0.22674125 0.040057674
0.88759947 0.22661825 0.040172547
0.89004517 0.22649513 0.040287361
0.88270819 0.22686438 0.039942861
0.87649077 0.23177916 0.039576236
0.87894398 0.23165566 0.039691415
0.88139725 0.23153222 0.039806589
0.8838504 0.23140875 0.039921768
0.88630372 0.23128532 0.040037014
0.87679768 0.24392876 0.040530697
0.875714 0.24945876 0.039913423
0.8781957 0.24933395 0.040029924
0.87710232 0.25487402 0.039428569
0.87481982 0.26725975 0.040442295
0.87733001 0.26713344 0.04056019
0.87366837 0.27283648 0.039895795
0.87618804 0.2727097 0.040014133
0.87870783 0.27258286 0.040132411
0.88122767 0.27245614 0.040250741
0.86996853 0.2785511 0.039246112
0.87249768 0.27842394 0.039364826
0.87502682 0.27829662 0.039483607
0.87288368 0.29163432 0.040158492
0.86654317 0.29751667 0.039443932
0.86910284 0.29738784 0.039564118
0.8716625 0.29725897 0.039684299
0.864232 0.31095153 0.04026217
0.86681247 0.31082165 0.040383313
0.86293185 0.31661466 0.039843507
0.86552197 0.31648424 0.039965089
0.8616125 0.32228842 0.039440364
0.86421204 0.32215759 0.039562393
0.86681157 0.32202682 0.039684422
0.85527253 0.33040717 0.04056181
0.91032702 0.14079536 0.041420918
0.91263402 0.14067924 0.041529246
0.91494095 0.14056319 0.04163751
0.91724783 0.14044705 0.041745849
0.92186177 0.14021498 0.041962434
0.93744934 0.14470677 0.041787639
0.93976581 0.14459023 0.041896347
0.91428506 0.14587244 0.040700044
0.96824306 0.15091069 0.040606588
0.97057468 0.15079339 0.040716086
0.97290635 0.1506761 0.040825527
0.97523797 0.15055878 0.040935032
0.97756958 0.15044138 0.041044477
0.97990119 0.15032409 0.041153982
0.9052189 0.15644445 0.041681651
0.90755057 0.15632699 0.0417911
0.90988219 0.15620969 0.041900598
0.90448034 0.16178949 0.040794518
0.90682155 0.16167168 0.040904462
0.90916258 0.1615539 0.041014351
0.89910799 0.17758349 0.041268133
0.90147376 0.17746443 0.041379191
0.90271735 0.18192126 0.041221455
0.89559704 0.18227954 0.040887117
0.89797044 0.18216005 0.040998545
0.90034389 0.18204066 0.041110028
0.89623755 0.19418494 0.041469339
0.89862996 0.19406457 0.041581709
0.90102237 0.19394419 0.041694019
0.89504987 0.19879285 0.041246831
0.89744985 0.19867204 0.04135951
0.89984983 0.19855133 0.041472185
0.89656442 0.20410737 0.040606871
0.88322943 0.21056747 0.041932892
0.89196628 0.21554168 0.041671477
0.88953972 0.21566382 0.04155755
0.88857925 0.22113572 0.040857282
0.89101535 0.22101308 0.040971652
0.87890708 0.23290026 0.041811962
0.88136035 0.23277679 0.04192714
0.87786204 0.23840909 0.041163564
0.88032484 0.23828511 0.041279253
0.88278747 0.2381613 0.041394867
0.8792699 0.24380435 0.040646758
0.87955606 0.25601256 0.041698899
0.8820473 0.25588724 0.041815847
0.87845266 0.26156768 0.041121777
0.87984031 0.26700714 0.040678021
0.87245971 0.27970707 0.041551039
0.87498879 0.27957976 0.041669816
0.87126946 0.28530988 0.041043807
0.86906427 0.29868647 0.041776568
0.87162399 0.29855758 0.041896749
0.86524504 0.30445632 0.041205108
0.86781424 0.30432695 0.041325733
0.87038344 0.3041977 0.041446358
0.87295252 0.30406839 0.041566979
0.87197375 0.31056195 0.040625654
0.86677247 0.3233456 0.041931439
0.86417294 0.32347643 0.04180935
0.85788345 0.3302758 0.040684413
0.86049438 0.33014446 0.040806964
0.86310542 0.33001304 0.040929571
0.92647558 0.13998277 0.042179093
0.92878246 0.13986664 0.042287428
0.93108946 0.13975058 0.042395752
0.92416871 0.14009881 0.042070772
0.94903147 0.14412399 0.042331427
0.95134777 0.14400733 0.04244015
0.9536643 0.14389081 0.042548917
0.94208229 0.14447372 0.042005118
0.94439858 0.14435709 0.042113893
0.94671494 0.14424054 0.04222266
0.91656667 0.14693101 0.042811044
0.90730089 0.14739728 0.042376015
0.90961736 0.14728075 0.04248479
0.91193372 0.14716421 0.042593557
0.9142502 0.14704756 0.042702276
0.95975524 0.14804773 0.042523474
0.96207929 0.14793077 0.04263261
0.90626764 0.15191653 0.042022672
0.90859163 0.15179953 0.042131756
0.96820784 0.15209359 0.042621989
0.97053957 0.15197632 0.04273149
0.97287118 0.151859 0.042840935
0.97520286 0.15174159 0.042950384
0.97753447 0.15162426 0.043059878
0.90678632 0.16285947 0.042928014
0.90912735 0.16274166 0.043037955
0.91146857 0.1626239 0.043147903
0.91380972 0.16250595 0.043257795
0.9010148 0.16764487 0.042399898
0.90336347 0.16752675 0.042510148
0.90571231 0.16740851 0.042620461
0.90806091 0.16729039 0.042730708
0.9022665 0.17208476 0.04221461
0.89991015 0.17220336 0.042103991
0.90030819 0.18324481 0.043161552
0.90268171 0.18312532 0.043272983
0.89947873 0.18864937 0.042363867
0.90186167 0.18852951 0.042475734
0.90424454 0.18840949 0.042587608
0.89170915 0.20557229 0.042463318
0.89411867 0.20545109 0.042576496
0.89652824 0.20532979 0.042689614
0.89893776 0.20520858 0.042802736
0.90134728 0.20508739 0.042915847
0.89531517 0.20995925 0.042500317
0.89773232 0.20983772 0.042613797
0.88564664 0.21044584 0.042046376
0.88806379 0.2103242 0.042159863
0.89048094 0.21020253 0.04227335
0.89289802 0.21008091 0.042386834
0.89097869 0.22224893 0.043077409
0.8934148 0.22212642 0.043191772
0.89585096 0.22200379 0.043306146
0.88756263 0.22785901 0.042286444
0.89000833 0.22773588 0.042401258
0.89245385 0.22761284 0.042516127
0.89489955 0.22748972 0.042630944
0.8838135 0.23265335 0.042042319
0.88626677 0.23252988 0.042157494
0.88872004 0.23240642 0.042272672
0.88170493 0.24493423 0.042899784
0.88417709 0.24480978 0.043015849
0.88664937 0.24468532 0.04313191
0.88912171 0.24456099 0.043247968
0.87923265 0.24505855 0.042783719
0.87815833 0.25059307 0.042175099
0.88064021 0.25046808 0.042291604
0.88312185 0.25034323 0.042408105
0.88560361 0.25021833 0.042524613
0.88231277 0.26815432 0.042965651
0.88482296 0.26802799 0.043083541
0.88733327 0.26790169 0.043201372
0.87615019 0.27398813 0.042192131
0.87866992 0.27386129 0.042310409
0.88118976 0.27373451 0.042428747
0.88370949 0.27360767 0.042547021
0.88622916 0.27348083 0.042665351
0.87376994 0.28647006 0.043357447
0.87284523 0.29292807 0.042362791
0.87418365 0.29842883 0.042016931
0.86677366 0.31213078 0.042613856
0.86935425 0.31200099 0.042735055
0.87193477 0.31187114 0.042856202
0.8745153 0.31174126 0.042977344
0.86807305 0.31766802 0.042325482
0.87066305 0.31753764 0.042447068
0.87325311 0.31740728 0.042568654
0.86937201 0.32321483 0.042053465
0.85523319 0.3317318 0.042818658
0.85784411 0.33160046 0.042941261
0.86045521 0.33146903 0.043063805
0.8630662 0.3313376 0.043186415
0.92182702 0.14138533 0.043956511
0.92413396 0.14126918 0.044064842
0.92644083 0.14115314 0.04417311
0.92874777 0.14103697 0.044281442
0.93105471 0.14092097 0.044389766
0.93336165 0.1408048 0.044498041
0.91490632 0.14173357 0.043631587
0.91721314 0.1416174 0.043739859
0.91952008 0.14150138 0.04384819
0.94436383 0.14553231 0.044116173
0.94668013 0.14541568 0.044224951
0.9489966 0.14529914 0.044333655
0.95131296 0.14518258 0.044442426
0.95362937 0.14506604 0.044551197
0.95594591 0.14494941 0.044659916
0.93741453 0.14588203 0.043789856
0.93973082 0.14576536 0.043898631
0.94204742 0.14564884 0.044007406
0.91189897 0.14833933 0.044595785
0.91421533 0.1482228 0.044704553
0.90958244 0.14845587 0.044487011
0.95739627 0.14934365 0.044423155
0.95972013 0.1492268 0.044532284
0.96204424 0.14910984 0.044641424
0.96436828 0.14899285 0.044750504
0.91088068 0.15286164 0.044249706
0.97050452 0.1531592 0.044746839
0.90984714 0.15739259 0.043915942
0.91217864 0.15727533 0.044025443
0.91451043 0.15715788 0.044134952
0.90332818 0.16871825 0.044540353
0.9056769 0.16860013 0.044650603
0.90802556 0.16848189 0.044760853
0.90223092 0.17328022 0.044251341
0.90458727 0.17316166 0.044361964
0.903804 0.17854567 0.043535247
0.90182585 0.18973841 0.044535473
0.90420878 0.18961842 0.044647347
0.90098637 0.19515787 0.043761969
0.90337884 0.1950375 0.043874282
0.89741373 0.19988966 0.043434046
0.89981377 0.19976884 0.043546725
0.8928616 0.21130726 0.044476166
0.89527881 0.21118563 0.044589654
0.89769596 0.21106395 0.044703133
0.89192981 0.21677279 0.043768965
0.89435643 0.21665065 0.043882951
0.88997144 0.22897662 0.044515215
0.89241713 0.22885358 0.044630021
0.89486283 0.22873046 0.044744898
0.88622981 0.23377445 0.044277988
0.88868308 0.233651 0.044393167
0.89113629 0.23352768 0.044508334
0.89358962 0.23340423 0.044623513
0.89604276 0.23328078 0.044738695
0.88377655 0.23389792 0.044162806
0.88521308 0.23928666 0.043639187
0.887676 0.23916286 0.043754805
0.88028765 0.2395346 0.043407947
0.88275039 0.23941061 0.043523565
0.88308448 0.25160223 0.044553284
0.88556623 0.25147739 0.044669785
0.88804799 0.25135243 0.044786293
0.87951857 0.25727645 0.043852217
0.88200986 0.25715107 0.043969221
0.88450098 0.25702569 0.044086177
0.88699234 0.25690037 0.044203117
0.88091582 0.26271048 0.043400757
0.88341653 0.26258466 0.043518148
0.88591725 0.26245886 0.043635536
0.87611228 0.27526632 0.044370141
0.87863213 0.27513954 0.044488415
0.88115185 0.27501282 0.044606686
0.88367152 0.27488604 0.044725019
0.8724215 0.28099021 0.043737248
0.87495071 0.2808629 0.043856028
0.87747997 0.28073558 0.04397475
0.87535697 0.29409346 0.044686779
0.87670469 0.29959857 0.044349622
