# .PCD v0.7 - Point Cloud Data file format
VERSION 0.7
FIELDS x y z
SIZE 4 4 4
TYPE F F F
COUNT 1 1 1
WIDTH 951
HEIGHT 1
VIEWPOINT 0 0 0 1 0 0 0
POINTS 951
DATA ascii
0.75317413 0.36100236 0.023706792
0.75669873 0.36648929 0.023628077
0.75937235 0.36635476 0.023753624
0.73986286 0.38178936 0.023718098
0.76010293 0.35413823 0.024805848
0.76275575 0.35400471 0.024930434
0.75583833 0.36086836 0.023831898
0.75850248 0.36073434 0.023957007
0.76116663 0.36060023 0.024082052
0.76383078 0.36046615 0.024207162
0.76649493 0.3603321 0.024332268
0.76915926 0.36019808 0.024457311
0.78076184 0.36527839 0.024757845
0.76204616 0.36622015 0.023879176
0.76471972 0.36608568 0.02400467
0.76739353 0.36595109 0.024130218
0.77006727 0.36581653 0.024255769
0.77274078 0.36568195 0.024381258
0.77541453 0.36554742 0.024506809
0.77808827 0.36541295 0.024632357
0.77921957 0.37189379 0.023949476
0.7819047 0.37175867 0.024075544
0.78458977 0.37162355 0.024201611
0.78727484 0.37148836 0.024327682
0.78995985 0.37135324 0.024453754
0.74158812 0.37514755 0.024505464
0.74427325 0.37501249 0.024631536
0.7469582 0.37487736 0.024757599
0.74964333 0.37474224 0.024883671
0.75232846 0.37460706 0.025009746
0.75501347 0.37447193 0.025135756
0.73084778 0.37568799 0.024001196
0.73353291 0.37555286 0.024127265
0.73621798 0.3754178 0.024253333
0.73890293 0.37528262 0.024379401
0.79652965 0.37757185 0.024046024
0.79922605 0.37743619 0.024172613
0.8019225 0.37730053 0.024299191
0.80461901 0.3771649 0.02442584
0.80731547 0.37702912 0.024552429
0.81270844 0.3767578 0.024805604
0.74255937 0.3816537 0.023844739
0.74525583 0.38151792 0.023971334
0.81126809 0.38339111 0.024041506
0.72453433 0.39049906 0.024654346
0.72724229 0.39036283 0.024781512
0.72995013 0.39022657 0.024908617
0.73265809 0.39009029 0.025035787
0.72182643 0.39063531 0.024527239
0.72270572 0.3971751 0.023911426
0.72542495 0.39703822 0.024039108
0.70796937 0.41250813 0.024336802
0.71071142 0.41237018 0.02446558
0.71345347 0.41223216 0.024594305
0.71619558 0.41209424 0.024723029
0.7189377 0.41195628 0.024851745
0.72167969 0.41181815 0.024980538
0.72442192 0.41168022 0.025109259
0.70480275 0.43398148 0.024885034
0.70757908 0.43384176 0.025015375
0.6964739 0.43440065 0.024494011
0.69925016 0.43426096 0.024624355
0.70202655 0.43412119 0.024754694
0.67834055 0.45007214 0.025045959
0.68113971 0.4499312 0.025177339
0.6577462 0.4735415 0.02470343
0.66058141 0.47339883 0.024836557
0.66341656 0.4732562 0.024969626
0.65964365 0.49691144 0.02519645
0.65677041 0.49705601 0.025061546
0.75665849 0.36784568 0.025939139
0.75933212 0.36771122 0.026064636
0.76200587 0.3675766 0.026190184
0.76467955 0.36744207 0.026315732
0.76735318 0.36730748 0.026441285
0.77002686 0.36717293 0.026566772
0.77649415 0.37339115 0.026144296
0.77917916 0.37325591 0.026270371
0.78186423 0.37312073 0.02639644
0.7845493 0.37298566 0.026522506
0.76038373 0.37420174 0.025387891
0.78839952 0.379347 0.025996972
0.79109597 0.37921128 0.026123559
0.79379243 0.37907553 0.026250148
0.796489 0.37893987 0.026376737
0.7991854 0.37880427 0.02650338
0.73173285 0.38356438 0.025669051
0.73442936 0.38342872 0.025795704
0.73712581 0.383293 0.025922282
0.73982221 0.38315731 0.026048878
0.74251878 0.38302165 0.026175462
0.74521536 0.38288599 0.026302109
0.74791175 0.38275021 0.026428701
0.75060821 0.38261458 0.026555283
0.72364336 0.38397145 0.02528929
0.72633988 0.38383579 0.025415877
0.72903639 0.38370016 0.025542459
0.81122732 0.38476485 0.026382111
0.72538412 0.39841774 0.026389541
0.7281034 0.39828092 0.026517229
0.71535134 0.40552381 0.025291091
0.71808207 0.40538645 0.025419295
0.72081286 0.40524903 0.025547499
0.72354358 0.40511161 0.025675705
0.72627419 0.40497419 0.025803905
0.72900486 0.40483677 0.025932109
0.72716397 0.41154227 0.025238037
0.7032305 0.42076573 0.025908252
0.705984 0.42062727 0.026037548
0.70873755 0.42048869 0.026166797
0.71149099 0.42035013 0.026296092
0.71424448 0.42021167 0.026425395
0.71699804 0.420073 0.02655464
0.7040168 0.42736784 0.025386849
0.70678163 0.42722878 0.025516665
0.70954669 0.4270896 0.025646487
0.69997102 0.44230166 0.026550766
0.68045712 0.44328359 0.025634574
0.68324488 0.44314319 0.025765492
0.68603253 0.44300294 0.025896354
0.68882024 0.44286272 0.026027216
0.69160795 0.44272241 0.026158132
0.6943956 0.44258213 0.02628899
0.69718337 0.44244182 0.026419906
0.68393874 0.44979039 0.025308777
0.68673784 0.44964957 0.02544021
0.67627537 0.45917365 0.026430458
0.67908782 0.45903206 0.026562491
0.67346305 0.45931524 0.026298428
0.67128652 0.46613669 0.025757819
0.67411035 0.46599466 0.025890369
0.67693412 0.46585253 0.026022917
0.66563892 0.46642086 0.025492655
0.66846281 0.46627882 0.025625208
0.65553665 0.48271379 0.026189607
0.6583851 0.48257044 0.026323333
0.65620452 0.49031872 0.025381263
0.65906626 0.49017465 0.025515648
0.72150439 0.55610573 0.025416041
0.77270055 0.36703834 0.026692325
0.77537417 0.36690381 0.026817877
0.78723443 0.3728506 0.026648575
0.78991944 0.37271547 0.026774645
0.79260451 0.37258035 0.026900707
0.74691784 0.37623948 0.027078496
0.74960285 0.37610435 0.027204564
0.75228792 0.37596929 0.027330633
0.75497305 0.37583417 0.027456703
0.757658 0.3756991 0.027582772
0.76034319 0.37556398 0.027708778
0.76302832 0.37542886 0.027834846
0.76571327 0.37529379 0.027960913
0.80188191 0.37866843 0.026629973
0.80457836 0.3785328 0.02675656
0.80727488 0.3783972 0.026883148
0.76139408 0.38207185 0.027061692
0.7640906 0.38193607 0.027188288
0.76678699 0.38180041 0.02731487
0.77487648 0.3813934 0.027694693
0.77757299 0.38125774 0.027821282
0.7802695 0.38112202 0.027947923
0.75330472 0.38247892 0.02668187
0.75600123 0.38234314 0.026808463
0.75869769 0.38220748 0.026935106
0.72720152 0.39173657 0.027122112
0.7299093 0.39160025 0.027249223
0.7326172 0.39146414 0.027376382
0.73532516 0.39132777 0.027503492
0.74344879 0.39091894 0.027884936
0.73082262 0.3981441 0.026644906
0.73354197 0.39800727 0.026772594
0.72712266 0.41293341 0.027608175
0.72986478 0.41279539 0.027736897
0.71067023 0.41376132 0.026835719
0.71341223 0.4136233 0.026964439
0.7161544 0.41348532 0.027093222
0.71889645 0.4133473 0.027221953
0.7216385 0.41320929 0.027350673
0.72438067 0.41307136 0.027479457
0.71975148 0.41993454 0.026683938
0.72801197 0.41951877 0.027071789
0.70476097 0.43538991 0.027284829
0.70753723 0.43525031 0.027415162
0.69643199 0.43580908 0.026893744
0.69920844 0.43566933 0.027024088
0.70198476 0.43552962 0.027154429
0.70275867 0.44216135 0.026681682
0.67829835 0.45149207 0.027465407
0.68109751 0.45135126 0.027596783
0.6838966 0.45121044 0.027728217
0.68669564 0.45106947 0.02785966
0.68949473 0.45092872 0.027991036
0.6819002 0.45889065 0.026694523
0.68471253 0.45874912 0.026826618
0.68752497 0.45860752 0.026958654
0.66559649 0.46785349 0.027933424
0.66620916 0.47455186 0.027553417
0.67471474 0.47412387 0.027952747
0.65770358 0.47497997 0.027154086
0.66053867 0.47483712 0.027287161
0.66337395 0.47469449 0.027420288
0.6596005 0.4983691 0.027679933
0.65450758 0.50629634 0.026657039
0.65739417 0.50615126 0.026792591
0.66028059 0.50600594 0.026928084
0.70274311 0.55078703 0.027723912
0.75661814 0.36920214 0.028250145
0.76196557 0.36893299 0.028501244
0.76463926 0.36879846 0.028626738
0.767313 0.36866388 0.028752288
0.76998657 0.36852932 0.028877841
0.77266026 0.36839479 0.029003391
0.76839852 0.37515873 0.028086985
0.77108359 0.37502354 0.028213048
0.7737686 0.37488836 0.028339123
0.77645367 0.37475324 0.028465187
0.7791388 0.37461808 0.028591258
0.78182381 0.37448296 0.02871733
0.78450888 0.3743479 0.028843397
0.78835887 0.38071501 0.028327683
0.79105544 0.38057917 0.028454339
0.7937519 0.3804436 0.028580928
0.79644835 0.38030788 0.028707506
0.79914486 0.3801721 0.028834099
0.80184132 0.3800365 0.028960692
0.80453783 0.37990087 0.029087329
0.80723423 0.37976509 0.029213926
0.78296602 0.38098627 0.028074516
0.78566247 0.38085067 0.028201101
0.7586571 0.3835755 0.029265823
0.76135361 0.38343975 0.029392472
0.73438877 0.38479674 0.028126413
0.73708522 0.38466096 0.028253002
0.73978168 0.38452533 0.028379651
0.74247813 0.38438967 0.028506236
0.74517465 0.38425389 0.028632829
0.74787116 0.38411823 0.028759414
0.75056762 0.3839826 0.028886056
0.75326413 0.38384682 0.029012648
0.75596058 0.38371116 0.029139237
0.75157237 0.39051014 0.028266309
0.74615663 0.39078268 0.028012035
0.74886453 0.3906464 0.028139206
0.73078167 0.39952362 0.028995397
0.73350102 0.39938679 0.029123021
0.7362203 0.39924988 0.029250706
0.73442507 0.4059473 0.028548891
0.72896373 0.40622213 0.028292486
0.73169446 0.40608478 0.028420685
0.71970999 0.42133135 0.029063968
0.72246337 0.42119288 0.029193265
0.72521704 0.42105421 0.029322511
0.7114495 0.42174712 0.028676113
0.714203 0.42160848 0.028805422
0.71695656 0.42146999 0.028934663
0.71503484 0.42821404 0.028295981
0.7177996 0.42807493 0.028425792
0.72056448 0.42793581 0.028555619
0.72885919 0.4275184 0.028945083
0.70950502 0.42849237 0.028036395
0.69992906 0.44371587 0.028960386
0.70271683 0.44357556 0.029091241
0.70550448 0.44343531 0.029222155
0.70829213 0.44329503 0.029353017
0.68877828 0.44427693 0.028436834
0.69156599 0.44413662 0.028567689
0.6943537 0.4439964 0.028698606
0.69714135 0.44385621 0.028829468
0.67904532 0.4604589 0.028993437
0.68185782 0.46031737 0.029125473
0.68467021 0.4601759 0.029257564
0.6874826 0.46003443 0.029389603
0.67124408 0.46756932 0.028198587
0.67406791 0.4674271 0.028331207
0.67689168 0.46728504 0.028463757
0.67971539 0.46714297 0.028596306
0.68536305 0.46685874 0.028861469
0.66842031 0.46771145 0.028066037
0.66119069 0.48387223 0.028919222
0.66403919 0.48372889 0.029052945
0.66688782 0.4835856 0.029186735
0.66474682 0.49133849 0.028258013
0.66188502 0.4914825 0.028123694
0.76835793 0.37652078 0.030407941
0.77104312 0.37638566 0.030533945
0.78831828 0.38208297 0.030658467
0.79101485 0.38194725 0.030785052
0.76405001 0.38330409 0.029519057
0.76674652 0.38316843 0.029645642
0.76944298 0.38303265 0.029772235
0.77213943 0.38289708 0.029898824
0.77483588 0.38276136 0.030025465
0.7775324 0.38262564 0.030152058
0.78022885 0.38248998 0.030278647
0.78292537 0.38235435 0.030405229
0.78562182 0.38221857 0.030531881
0.73704457 0.38602903 0.030583782
0.73974115 0.38589323 0.030710367
0.7786513 0.38914758 0.02953768
0.7759434 0.38928387 0.029410569
0.7515316 0.39188394 0.030606912
0.75423956 0.39174771 0.030734072
0.73528439 0.39270151 0.029844096
0.73799217 0.39256528 0.029971259
0.74070019 0.39242896 0.030098366
0.74340802 0.3922928 0.030225532
0.74611586 0.39215642 0.030352699
0.74882388 0.39202026 0.030479806
0.74165887 0.39897636 0.029506074
0.74437815 0.39883947 0.029633703
0.74709743 0.39870259 0.029761391
0.74981666 0.39856568 0.029889079
0.75253594 0.39842898 0.030016756
0.75525528 0.39829215 0.030144444
0.75797451 0.39815527 0.030272068
0.76341313 0.39788169 0.030527441
0.76613235 0.39774477 0.030655125
0.73165333 0.40747002 0.030780999
0.72982341 0.41418642 0.030107101
0.73256558 0.41404855 0.030235821
0.73530769 0.41391054 0.030364605
0.72159719 0.41460049 0.029720867
0.72433925 0.41446251 0.029849591
0.72797048 0.42091575 0.029451812
0.73072398 0.42077723 0.029581049
0.71222818 0.42975581 0.030556066
0.71499318 0.42961681 0.030685881
0.70946342 0.42989501 0.030426243
0.70471913 0.43679845 0.029684553
0.70749545 0.43665874 0.029814897
0.71027184 0.43651906 0.029945238
0.71860069 0.43609986 0.030336259
0.7213769 0.43596014 0.030466599
0.6950509 0.45206702 0.030673357
0.68945265 0.45234883 0.030410541
0.69225174 0.45220795 0.030541914
0.70435703 0.45918527 0.030181853
0.70716941 0.45904374 0.030313889
0.69029498 0.45989284 0.029521631
0.69310737 0.45975137 0.029653663
0.69591981 0.45960978 0.029785695
0.69873226 0.45946831 0.029917786
0.70154458 0.45932677 0.030049825
0.6683777 0.4691439 0.030506818
0.67120147 0.46900177 0.030639367
0.66616642 0.47599021 0.030004079
0.66900164 0.47584754 0.030137209
0.67183679 0.47570491 0.030270273
0.67467207 0.47556216 0.030403407
0.660496 0.47627559 0.029737877
0.66333127 0.47613296 0.029870944
0.66470379 0.49279043 0.030731672
0.66184193 0.49293438 0.030597294
0.66243029 0.4996821 0.030298388
0.66530359 0.49953765 0.030433225
0.66817677 0.49939293 0.030568184
0.66023725 0.50747031 0.029423142
0.66312373 0.50732505 0.029558631
0.6660102 0.50717998 0.029694187
0.7937113 0.3818115 0.030911645
0.79640776 0.38167584 0.03103829
0.79910415 0.38154024 0.031164879
0.80180067 0.3814044 0.031291462
0.80449718 0.38126877 0.031418052
0.8071937 0.38113311 0.031544697
0.75861645 0.38494346 0.031596601
0.7613129 0.38480783 0.031723183
0.76400936 0.38467216 0.031849772
0.76670587 0.38453633 0.031976424
0.76940233 0.38440073 0.032103006
0.75322342 0.3852149 0.03134336
0.75591993 0.38507923 0.031470004
0.77861047 0.39052144 0.03187833
0.78402632 0.39024889 0.032132603
0.7569474 0.39161149 0.030861249
0.75965536 0.39147523 0.030988349
0.76236314 0.39133894 0.031115519
0.76507109 0.39120263 0.031242626
0.76777893 0.3910664 0.031369787
0.77319467 0.39079392 0.03162406
0.77590257 0.3906576 0.031751167
0.77700955 0.39719748 0.031165807
0.74161792 0.40035588 0.031856503
0.74433726 0.40021899 0.031984188
0.74705642 0.40008217 0.032111876
0.73617941 0.40062946 0.031601194
0.73889858 0.4004927 0.031728875
0.76169086 0.40595856 0.032191243
0.734384 0.4073326 0.030909201
0.73711473 0.40719521 0.031037403
0.7398454 0.40705785 0.031165609
0.74257612 0.40692043 0.031293813
0.74530673 0.40678301 0.031422015
0.7480374 0.40664566 0.031550221
0.75076813 0.40650818 0.031678423
0.75349885 0.40637076 0.031806629
0.75622946 0.40623334 0.031934835
0.75896019 0.40609592 0.032063037
0.76821268 0.41225469 0.031909525
0.72242206 0.42258969 0.031573288
0.72517556 0.42245114 0.03170253
0.73068249 0.42217404 0.031961072
0.73343605 0.42203555 0.032090373
0.71140808 0.42314398 0.031056138
0.717758 0.42947757 0.0308157
0.72052288 0.4293384 0.030945534
0.72328788 0.42919934 0.031075345
0.72605264 0.42906022 0.031205168
0.72881758 0.42892104 0.031334929
0.73158246 0.42878193 0.031464744
0.69988704 0.44513014 0.031369943
0.70267487 0.44498989 0.031500861
0.70546246 0.44484958 0.031631716
0.70825016 0.4447093 0.031762633
0.71103787 0.44456887 0.031893499
0.71382558 0.44442871 0.032024421
0.71661329 0.44428834 0.032155275
0.69152397 0.44555095 0.030977311
0.69431162 0.44541073 0.031108161
0.69709939 0.44527042 0.031239083
0.69784993 0.45192626 0.030804792
0.70064908 0.45178536 0.030936169
0.70344818 0.45164448 0.031067612
0.70624727 0.4515036 0.031199047
0.7090463 0.45136285 0.031330481
0.71184528 0.45122188 0.031461861
0.71464449 0.45108107 0.031593293
0.68181556 0.46174416 0.031556416
0.68744022 0.46146116 0.031820543
0.69025272 0.46131957 0.031952579
0.69306517 0.46117803 0.03208461
0.69943953 0.46758085 0.031965181
0.67684913 0.46871772 0.030904526
0.67967302 0.4685756 0.031037139
0.68249679 0.4684335 0.031169692
0.68532062 0.46829143 0.031302299
0.68814433 0.4681493 0.031434849
0.69096822 0.46800715 0.031567466
0.69379193 0.46786508 0.031700019
0.66684484 0.48503074 0.031648889
0.66969335 0.48488733 0.031782616
0.66756558 0.49264631 0.030866059
0.66596675 0.50864422 0.032189179
0.70479923 0.54442066 0.031009207
0.78558135 0.38358665 0.032862592
0.78827775 0.38345098 0.032989241
0.79097414 0.38331515 0.033115827
0.79367071 0.38317952 0.033242416
0.79636723 0.38304392 0.033369005
0.79906368 0.38290814 0.03349559
0.77209878 0.38426504 0.032229591
0.78018826 0.383858 0.032609418
0.78288472 0.38372225 0.032736011
0.75961465 0.39284891 0.03332895
0.7379514 0.39393902 0.03231186
0.76881075 0.39898747 0.033133239
0.77153003 0.39885071 0.033260915
0.77424932 0.39871383 0.033388607
0.7769686 0.39857706 0.033516236
0.74977571 0.39994544 0.032239556
0.75249499 0.3998085 0.032367177
0.75521427 0.39967161 0.032494869
0.7579335 0.39953479 0.032622557
0.7606529 0.39939809 0.032750238
0.76337218 0.39926127 0.032877922
0.76609147 0.39912435 0.033005551
0.76442152 0.40582103 0.032319449
0.76715219 0.40568376 0.032447711
0.76988298 0.40554634 0.032575913
0.77261353 0.40540886 0.032704119
0.77807498 0.40513402 0.03296053
0.73707354 0.40858063 0.033397716
0.73980421 0.40844315 0.033525921
0.73252428 0.4154397 0.032606013
0.73526639 0.41530174 0.032734741
0.73800838 0.41516364 0.032863528
0.77305579 0.42669502 0.033412006
0.71218663 0.43115857 0.032945972
0.71495152 0.4310194 0.033075791
0.72324616 0.43060204 0.033465192
0.72601104 0.43046287 0.033595018
0.77412647 0.43330583 0.032943234
0.77690279 0.43316615 0.03307363
0.73521656 0.43667009 0.033518091
0.71022999 0.43792754 0.032344971
0.7130062 0.43778777 0.032475311
0.71578258 0.43764806 0.032605655
0.71855891 0.43750829 0.032735996
0.72133511 0.43736869 0.032866389
0.72411144 0.43722907 0.032996722
0.7268877 0.43708935 0.033127069
0.72966409 0.43694958 0.033257406
0.73244023 0.43680987 0.033387747
0.74449021 0.44288564 0.0334641
0.74727786 0.44274536 0.033595018
0.70712703 0.46047053 0.032744832
0.70993942 0.46032894 0.032876864
0.71275187 0.46018746 0.0330089
0.71556425 0.46004587 0.033140991
0.69587737 0.46103662 0.032216638
0.69868988 0.46089503 0.03234867
0.70150226 0.46075356 0.032480765
0.70431459 0.46061206 0.032612797
0.67680669 0.47015029 0.033345353
0.67963046 0.47000822 0.033477906
0.6689589 0.47728583 0.032587864
0.67179412 0.4771432 0.032720935
0.67462945 0.47700059 0.032854062
0.67746454 0.47685784 0.032987196
0.68029982 0.47671527 0.033120327
0.67038423 0.49395418 0.033474047
0.6681335 0.50085062 0.033051677
0.6688531 0.50849903 0.032324679
0.80176014 0.38277248 0.033622235
0.76936179 0.38576868 0.03443373
0.78014761 0.38522595 0.034940135
0.77856976 0.39189512 0.034218937
0.7839855 0.39162263 0.034473211
0.76773828 0.39244014 0.033710394
0.77044612 0.39230388 0.033837497
0.7731539 0.39216766 0.033964664
0.77968788 0.39844015 0.03364392
0.76164979 0.40734386 0.034551613
0.7643804 0.40720645 0.034679819
0.76984185 0.40693164 0.034936227
0.74253505 0.40830573 0.033654127
0.74526566 0.40816838 0.033782329
0.74799639 0.40803096 0.033910532
0.75072706 0.40789348 0.034038737
0.75345773 0.40775606 0.03416694
0.75618833 0.40761864 0.034295145
0.75891912 0.40748128 0.034423351
0.75446105 0.41433585 0.033635981
0.75720304 0.41419783 0.033764709
0.75994521 0.41405985 0.033893429
0.76268721 0.41392183 0.034022205
0.76542932 0.41378376 0.034150936
0.76817143 0.41364583 0.034279656
0.77091348 0.41350794 0.034408439
0.77365559 0.41336992 0.034537163
0.77913976 0.41309386 0.034794673
0.7333945 0.42343241 0.034470398
0.73614812 0.42329383 0.034599695
0.72877592 0.43032381 0.03372483
0.7315408 0.43018457 0.033854656
0.73430568 0.43004546 0.033984475
0.73707056 0.4299064 0.034114301
0.75564086 0.44232452 0.033987656
0.75842869 0.44218424 0.034118511
0.75006557 0.44260499 0.033725876
0.75285327 0.44246483 0.033856798
0.71657121 0.44570261 0.034564838
0.7193591 0.44556239 0.034695752
0.72214663 0.44542214 0.03482661
0.72493428 0.44528186 0.034957528
0.70900422 0.45278296 0.033749923
0.71180326 0.45264199 0.033881303
0.71460235 0.45250118 0.034012739
0.71740144 0.45236036 0.034144174
0.69583511 0.46246335 0.034647591
0.70145994 0.46218035 0.034911711
0.7022208 0.46887141 0.034538563
0.70504457 0.4687292 0.034671117
0.70786846 0.46858713 0.03480373
0.71069229 0.46844506 0.034936283
0.68245423 0.46986601 0.033610523
0.68527806 0.46972394 0.033743076
0.68810177 0.46958181 0.033875689
0.6909256 0.46943977 0.034008238
0.69374943 0.46929765 0.034140851
0.69657314 0.46915555 0.034273401
0.69939697 0.46901354 0.03440601
0.68104446 0.48575914 0.034779683
0.66965044 0.48633242 0.03424472
0.67249894 0.48618907 0.034378506
0.67534751 0.4860459 0.034512229
0.67819601 0.48590255 0.034645952
0.67610788 0.49366614 0.033742808
0.66880977 0.50996333 0.03481967
0.70010215 0.53065002 0.03463636
0.70682877 0.53805572 0.034293257
0.70976657 0.5379079 0.034431171
0.71270442 0.53776002 0.034569155
0.7855407 0.3849546 0.035193361
0.78823709 0.38481888 0.035319958
0.79093361 0.38468322 0.035446543
0.79363012 0.38454759 0.035573184
0.79632664 0.38441181 0.035699777
0.77420837 0.40009341 0.035739034
0.77964693 0.39981967 0.035994407
0.78236628 0.39968297 0.036122084
0.7850855 0.39954609 0.036249712
0.7725724 0.40679422 0.035064436
0.77530318 0.4066568 0.035192639
0.77803385 0.40651938 0.035320845
0.78076458 0.40638196 0.035449047
0.78349519 0.40624455 0.035577253
0.73976314 0.40982851 0.035886232
0.74249387 0.40969115 0.036014438
0.74522454 0.40955368 0.03614264
0.7479552 0.40941626 0.036270849
0.75068593 0.40927884 0.036399052
0.75441974 0.41572693 0.036006119
0.75716174 0.41558892 0.036134902
0.75990391 0.41545099 0.036263622
0.7626459 0.41531286 0.03639235
0.73522514 0.41669276 0.035104938
0.73796713 0.41655478 0.035233662
0.74070925 0.41641682 0.035362441
0.74345142 0.41627887 0.035491168
0.74619335 0.41614088 0.035619888
0.74893546 0.41600281 0.035748672
0.75167763 0.4158648 0.035877399
0.75817585 0.42218539 0.03563394
0.76092947 0.42204681 0.035763182
0.76643646 0.42176974 0.036021724
0.76918983 0.42163122 0.036151022
0.77024931 0.42823678 0.035672031
0.73517489 0.43807855 0.035917822
0.73795104 0.4379389 0.036048222
0.74072737 0.43779925 0.036178559
0.71851701 0.43891692 0.035135783
0.72129333 0.43877715 0.035266124
0.72406965 0.43863752 0.035396468
0.72684598 0.43849781 0.035526808
0.72962224 0.43835804 0.035657145
0.73239851 0.43821833 0.035787486
0.7555989 0.44373879 0.036397215
0.72772211 0.44514161 0.035088386
0.73050976 0.44500133 0.035219304
0.73329735 0.44486108 0.035350163
0.73608512 0.4447208 0.03548108
0.73887283 0.44458038 0.035611942
0.74166054 0.44444022 0.035742804
0.74444824 0.44429991 0.035873722
0.74723589 0.44415957 0.036004581
0.75002366 0.44401932 0.036135502
0.75281137 0.4438791 0.036266357
0.70708477 0.46189731 0.035175778
0.70989716 0.46175578 0.03530781
0.71270943 0.46161425 0.035439845
0.71552193 0.46147272 0.03557194
0.71833432 0.46133119 0.035703972
0.7211467 0.46118966 0.035836007
0.72395903 0.46104813 0.035968039
0.70427227 0.4620389 0.035043746
0.68241173 0.47129858 0.036051296
0.68523556 0.47115651 0.036183905
0.68805933 0.47101444 0.036316458
0.6717515 0.47858167 0.035171587
0.67458665 0.47843888 0.035304725
0.67742187 0.47829625 0.035437852
0.68025702 0.4781535 0.035570987
0.6830923 0.47801095 0.035704054
0.68592739 0.47786832 0.035837188
0.68876266 0.47772551 0.035970319
0.69159788 0.4775829 0.03610345
0.69443309 0.47744027 0.03623651
0.67034119 0.49540606 0.035947707
0.67320311 0.49526197 0.036082089
0.67606479 0.49511802 0.036216408
0.67892653 0.49497402 0.036350794
0.67096341 0.50216359 0.035670064
0.67383671 0.50201899 0.035804965
0.67670983 0.50187457 0.035939865
0.78549999 0.3863225 0.037524145
0.78819662 0.3861869 0.03765073
0.79089302 0.38605112 0.037777323
0.78010714 0.38659397 0.037270907
0.78123677 0.39313266 0.036686644
0.78394473 0.39299637 0.03681381
0.77526206 0.40804222 0.037552945
0.76538801 0.4151749 0.036521133
0.76813012 0.41503704 0.036649857
0.77087224 0.41489902 0.036778573
0.77361429 0.41476101 0.036907356
0.77635634 0.41462302 0.037036087
0.77909845 0.41448501 0.037164807
0.73792583 0.41794592 0.037603855
0.740668 0.41780791 0.037732583
0.7471205 0.42413658 0.037496805
0.74987406 0.42399797 0.037626117
0.75262749 0.42385945 0.037755415
0.73886007 0.42455229 0.037108965
0.74161351 0.42441362 0.037238263
0.744367 0.4242751 0.037367571
0.73979384 0.43116987 0.036633968
0.74255878 0.43103081 0.036763787
0.7453236 0.43089163 0.03689361
0.75085348 0.43061346 0.037153248
0.7536183 0.43047425 0.037283074
0.75638318 0.43033519 0.03741283
0.75914812 0.43019602 0.037542656
0.76191306 0.43005684 0.037672475
0.73702902 0.43130904 0.036504149
0.76293766 0.43668166 0.037221339
0.7601614 0.4368214 0.037090998
0.75838673 0.44359851 0.036528137
0.76117444 0.44345826 0.036658987
0.76396203 0.44331798 0.036789909
0.72768015 0.44655582 0.037498005
0.73046774 0.4464156 0.037628863
0.73325545 0.44627529 0.037759785
0.71931708 0.44697672 0.037105374
0.72210473 0.44683641 0.037236232
0.72489238 0.44669607 0.037367087
0.72295749 0.45349866 0.036826435
0.72575659 0.4533577 0.036957879
0.72855574 0.45321688 0.037089318
0.73135477 0.45307606 0.03722069
0.73415387 0.45293513 0.03735213
0.7173593 0.45378029 0.036563624
0.72015834 0.45363948 0.036695004
0.70217836 0.47030392 0.036979396
0.70500207 0.47016189 0.037111949
0.7078259 0.47001976 0.037244562
0.71064973 0.46987769 0.037377112
0.7134735 0.46973559 0.037509724
0.71629721 0.46959352 0.037642274
0.7191211 0.46945149 0.037774824
0.6908831 0.47087234 0.036449067
0.69370699 0.47073022 0.036581621
0.6965307 0.47058821 0.03671423
0.69935459 0.47044599 0.036846787
0.70010352 0.47715485 0.036502779
0.68385011 0.48706082 0.037375569
0.68669856 0.48691747 0.037509359
0.67245609 0.48763427 0.036840666
0.6781531 0.48734757 0.03710812
0.6810016 0.48720422 0.037241843
0.68178838 0.49483004 0.036485173
0.67165279 0.51128256 0.037450213
0.67453933 0.51113719 0.037585776
0.79358947 0.38591549 0.037903909
0.78072351 0.40776733 0.037809357
0.75437844 0.41711807 0.038376316
0.76260471 0.41670412 0.038762543
0.74340999 0.41767001 0.037861302
0.7461521 0.41753191 0.03799009
0.74889427 0.41739395 0.038118809
0.75163645 0.41725603 0.038247529
0.75538093 0.42372081 0.037884656
0.75813442 0.42358238 0.038013957
0.76088792 0.42344379 0.038143195
0.76364142 0.42330521 0.038272504
0.76639497 0.4231666 0.038401805
0.75555694 0.445153 0.038806826
0.73604327 0.44613501 0.037890643
0.73883086 0.44599465 0.038021564
0.74161851 0.44585437 0.038152423
0.74440634 0.44571412 0.038283281
0.74719393 0.44557384 0.038414199
0.74998164 0.44543359 0.038545053
0.75276941 0.44529331 0.038675975
0.73516637 0.46190888 0.038927171
0.7379787 0.46176741 0.039059207
0.71266711 0.4630411 0.037870847
0.71547955 0.46289951 0.038002882
0.71829194 0.46275797 0.038134914
0.72110426 0.4626165 0.038266949
0.72391683 0.46247497 0.038398981
0.72672921 0.46233332 0.038531017
0.72954142 0.46219185 0.038663108
0.73235393 0.46205035 0.038795147
0.73041618 0.46888301 0.038305156
0.73324007 0.46874094 0.038437769
0.72194487 0.46930924 0.037907444
0.7247687 0.46916711 0.03803999
0.72759241 0.46902514 0.038172603
0.69648814 0.47202066 0.039155006
0.69722557 0.47873592 0.038820304
0.70006084 0.47859332 0.038953431
0.70289588 0.47845057 0.039086565
0.68304968 0.4794493 0.038154706
0.68588477 0.47930655 0.038287845
0.68872005 0.47916391 0.038420975
0.6915552 0.47902131 0.038554102
0.69439036 0.4788785 0.038687177
0.67888343 0.4964259 0.038824454
0.68174523 0.49628186 0.038958833
0.68460709 0.49613786 0.039093155
0.67092025 0.50362134 0.038153548
0.67379344 0.50347668 0.038288452
0.67666668 0.50333214 0.038423352
0.67953974 0.50318742 0.03855826
0.68241304 0.50304294 0.038693152
0.68528622 0.50289834 0.038828053
0.68815941 0.50275379 0.038962957
0.69835544 0.51675767 0.038447984
0.70125347 0.51661193 0.038583998
0.70211822 0.52429235 0.037931256
0.78545946 0.38769057 0.039854858
0.78815603 0.38755479 0.039981447
0.79085237 0.38741922 0.040108096
0.74707913 0.42553332 0.039876834
0.73600119 0.44754934 0.040300258
0.7387889 0.44740891 0.04043112
0.74157661 0.44726869 0.040562041
0.7257145 0.45477787 0.039377321
0.72851354 0.45463693 0.039508753
0.73131263 0.45449623 0.039640129
0.73411185 0.45435524 0.039771572
0.73691082 0.45421445 0.039903004
0.73970985 0.45407364 0.040034384
0.7021358 0.47173649 0.039420165
0.70495957 0.47159451 0.039552774
0.7077834 0.47145239 0.039685328
0.71060717 0.47131026 0.039817881
0.713431 0.4711681 0.039950497
0.71625477 0.47102603 0.040083047
0.71907866 0.470884 0.04021566
0.72190237 0.47074187 0.040348213
0.7247262 0.47059974 0.040480822
0.70573115 0.47830793 0.039219633
0.70856643 0.47816527 0.039352767
0.71140158 0.47802252 0.039485902
0.71707195 0.47773716 0.039752103
0.68380719 0.48850602 0.039837729
0.6866557 0.48836261 0.039971512
0.68950421 0.48821932 0.040105239
0.69235271 0.48807603 0.040238969
0.69520116 0.48793268 0.040372699
0.69804972 0.48778921 0.040506482
0.69677907 0.50231999 0.039367653
0.69965225 0.50217539 0.039502557
0.70252544 0.50203079 0.039637461
0.70539868 0.50188631 0.039772354
0.68026888 0.51231116 0.040351816
0.68315542 0.51216584 0.040487308
0.67449594 0.51260167 0.040080763
0.67738235 0.51245648 0.04021626
0.76359993 0.42470214 0.040652525
0.74436432 0.44712833 0.040692896
0.74715197 0.44698817 0.040823758
0.74993962 0.44684786 0.040954676
0.73512399 0.46333554 0.041358128
0.73793626 0.46319413 0.041490152
0.74074882 0.46305266 0.041622184
0.73037374 0.47031558 0.040745981
0.73319751 0.47017351 0.040878534
0.72755003 0.4704577 0.040613376
0.69718289 0.48017427 0.041270964
0.70001811 0.48003161 0.041404091
0.70285326 0.47988898 0.041537158
0.70568854 0.47974622 0.041670296
0.70852369 0.47960362 0.041803427
0.71135885 0.47946092 0.04193655
0.68867725 0.48060226 0.040871635
0.69151253 0.4804596 0.041004762
0.69434768 0.48031697 0.041137829
0.71229219 0.48707271 0.041175164
0.70089823 0.48764598 0.040640205
0.70374662 0.48750263 0.040773932
0.70944375 0.48721588 0.041041445
0.69028765 0.49730182 0.041835576
0.69314945 0.49715775 0.041969903
0.69386262 0.50392228 0.041716304
0.6967358 0.50377762 0.041851148
0.69960904 0.50363308 0.041986104
0.67662346 0.50478983 0.040906899
0.67949653 0.50464517 0.041041799
0.68236971 0.50450057 0.041176703
0.68524307 0.50435591 0.041311607
0.68811619 0.50421143 0.0414465
0.69098949 0.50406682 0.041581344
0.70913398 0.5108586 0.041707013
0.71202046 0.5107134 0.041842561
0.71490699 0.51056808 0.041978069
0.69181496 0.51173013 0.04089392
0.69470131 0.51158494 0.041029416
0.70336092 0.51114929 0.041436017
0.70624745 0.51100385 0.041571513
0.70410752 0.51793623 0.041224945
0.7070055 0.51779038 0.041360967
0.70990342 0.51764452 0.041497044
0.74153459 0.4486829 0.042971596
0.74432236 0.44854265 0.043102458
0.73966771 0.45549357 0.042453837
0.73033118 0.47174802 0.043186761
0.73315513 0.47160608 0.043319374
0.71338832 0.47260073 0.042391267
0.71903604 0.47231653 0.042656433
0.72185987 0.4721745 0.042789038
0.72468364 0.47203237 0.042921592
0.72750747 0.47189027 0.043054204
0.72553486 0.47874758 0.042602085
0.71419406 0.47931829 0.042069692
0.71702927 0.47917557 0.042202756
0.71986443 0.47903299 0.042335887
0.72269964 0.47889024 0.042469017
0.68661278 0.48980781 0.042433672
0.68946141 0.48966447 0.042567402
0.69230986 0.48952118 0.042701129
0.69515824 0.48937783 0.042834848
0.69800693 0.48923442 0.042968575
0.70085537 0.48909107 0.043102365
0.70370388 0.48894772 0.043236092
0.70655233 0.48880437 0.043369815
0.7074585 0.49643764 0.042641751
0.71032017 0.49629366 0.042776134
0.71318203 0.49614966 0.042910457
0.70248222 0.50348848 0.042120945
0.70535547 0.50334394 0.042255908
0.70822859 0.50319928 0.042390749
0.71110189 0.5030548 0.042525642
0.71397501 0.50291026 0.042660549
0.71779358 0.510423 0.042113621
0.72068 0.51027769 0.04224911
0.73508173 0.46476239 0.043789074
0.73789406 0.4646208 0.043921106
0.7359789 0.47146398 0.043451924
0.70564574 0.48118469 0.044120949
0.71415138 0.48075664 0.044520281
0.71698666 0.48061386 0.044653423
0.71982187 0.48047122 0.044786546
0.71224934 0.48851767 0.043637335
0.71509778 0.48837438 0.043771058
0.71794635 0.48823109 0.043904785
0.7207948 0.48808768 0.044038512
0.70940089 0.48866102 0.043503545
0.71197701 0.51217765 0.044337563
0.71486348 0.51203263 0.044473112
0.74149269 0.45009717 0.045381214
0.7442804 0.44995692 0.045512076
0.74242473 0.4567728 0.045004714
0.73028874 0.47318077 0.04562759
0.73311251 0.47303858 0.045760144
0.7359364 0.47289655 0.045892756
0.73876017 0.47275442 0.046025306
0.72746497 0.47332278 0.045494981
0.72549224 0.48018593 0.045052752
0.72832745 0.48004329 0.045185875
0.72265708 0.48032865 0.04491967
0.71600074 0.49745747 0.045518506
0.71886259 0.4973135 0.045652822
0.72172439 0.49716944 0.045787208
0.73958349 0.45833361 0.047292784
0.73785168 0.46604764 0.046352055
0.72261429 0.48176694 0.047370333
0.72544956 0.48162434 0.047503401
0.71505487 0.48981953 0.046233222
0.71790355 0.48967618 0.046366945
0.72075194 0.48953283 0.046500672
0.72360045 0.48938948 0.046634395
0.73307008 0.47447121 0.04820098
0.73589385 0.47432905 0.048333533
0.73024625 0.47461334 0.048068359
0.72737992 0.47618803 0.050376583
0.7282421 0.48291999 0.050087199
0.72540689 0.48306262 0.049954064
0.73020363 0.47604579 0.050509196
