# .PCD v0.7 - Point Cloud Data file format
VERSION 0.7
FIELDS x y z
SIZE 4 4 4
TYPE F F F
COUNT 1 1 1
WIDTH 1464
HEIGHT 1
VIEWPOINT 0 0 0 1 0 0 0
POINTS 1464
DATA ascii
0.77088022 0.71662998 0.1117327
0.77404422 0.7164706 0.11188122
0.76455235 0.71694827 0.1114356
0.78165555 0.7252174 0.11196262
0.77720815 0.71631145 0.11202981
0.78483474 0.72505748 0.11211187
0.78801382 0.72489756 0.11226112
0.77399659 0.71807575 0.11461609
0.77716058 0.71791649 0.11476463
0.76450479 0.71855336 0.11417041
0.76766872 0.7183941 0.11431895
0.77083266 0.71823496 0.11446754
0.75695211 0.71140629 0.11682892
0.7601009 0.71124792 0.11697676
0.77711302 0.71952176 0.11749945
0.75496525 0.72063607 0.11645963
0.76445711 0.72015852 0.11690522
0.7676211 0.71999931 0.11705378
0.77078503 0.71984005 0.11720235
0.77394897 0.71968091 0.11735086
0.78027695 0.71936244 0.11764797
0.78344077 0.71920317 0.11779655
0.7866047 0.71904391 0.11794507
0.78791809 0.72812325 0.11775705
0.75690478 0.71300364 0.11955062
0.76005352 0.71284527 0.11969846
0.78022921 0.72096771 0.12038279
0.75491768 0.7222414 0.11919443
0.75808161 0.72208214 0.11934295
0.76124555 0.72192293 0.11949152
0.76440948 0.72176361 0.11964004
0.76757342 0.72160447 0.11978859
0.77073729 0.7214452 0.11993716
0.7739014 0.72128606 0.12008573
0.77706534 0.72112691 0.12023426
0.78339326 0.72080833 0.12053137
0.75803405 0.72368729 0.12207777
0.76119792 0.72352797 0.12222629
0.7643618 0.72336876 0.12237487
0.76752585 0.72320968 0.12252339
0.77068979 0.72305042 0.12267197
0.77385366 0.72289109 0.12282049
0.75487 0.72384638 0.12192927
0.78650945 0.72225422 0.1234147
0.78334552 0.7224136 0.12326617
0.75165844 0.72561073 0.12451547
0.77570248 0.71524787 0.12588099
0.76431423 0.72497392 0.12510969
0.75482237 0.72545159 0.12466405
0.75798625 0.72529244 0.12481258
0.77885127 0.71508938 0.12602878
0.7832979 0.72401863 0.126001
0.78646189 0.72385937 0.12614952
0.75477481 0.72705662 0.12739888
0.77880377 0.7166869 0.12875046
0.75991136 0.71763754 0.12786348
0.76620877 0.71732056 0.1281592
0.7693575 0.71716219 0.12830698
0.77250624 0.71700376 0.12845483
0.77565503 0.71684527 0.12860268
0.7579388 0.72689754 0.12754741
0.78641427 0.72546458 0.12888435
0.75472713 0.72866189 0.1301337
0.79090589 0.73441464 0.12889813
0.75986385 0.71923488 0.13058519
0.76301265 0.71907651 0.13073297
0.76616138 0.71891797 0.13088083
0.76931018 0.71875972 0.13102868
0.77245885 0.71860117 0.13117652
0.77560759 0.71844274 0.13132438
0.77875644 0.71828431 0.13147216
0.75789106 0.72850269 0.13028222
0.78190511 0.71812576 0.13162002
0.74835157 0.73058534 0.13257141
0.75151557 0.73042619 0.13271993
0.75981659 0.72083235 0.13330683
0.76296526 0.72067404 0.13345467
0.76611394 0.72051537 0.13360253
0.77241147 0.72019851 0.13389817
0.77556026 0.72004014 0.134046
0.78185767 0.71972328 0.13434164
0.78500646 0.71956474 0.13448949
0.75347161 0.72274673 0.13573281
0.78948289 0.72851568 0.13450257
0.74830407 0.73219055 0.13530624
0.751468 0.73203135 0.13545474
0.77737921 0.7123751 0.13706554
0.76797861 0.71284825 0.1366242
0.76291782 0.72227126 0.13617635
0.75662041 0.72258824 0.13588066
0.75976914 0.72242969 0.13602851
0.75342417 0.72434407 0.13845451
0.74825639 0.7337957 0.13804103
0.75142032 0.7336365 0.13818961
0.77733219 0.71396482 0.13977407
0.7804656 0.71380723 0.13992125
0.76479799 0.71459562 0.13918561
0.76793146 0.71443808 0.1393327
0.771065 0.71428019 0.13947983
0.77419853 0.71412259 0.13962699
0.75657296 0.72418571 0.13860236
0.75337684 0.72594148 0.14117615
0.75652552 0.72578317 0.141324
0.75137264 0.73524159 0.14092436
0.78041834 0.71539688 0.14262979
0.75848359 0.71650082 0.14159988
0.76161718 0.71634293 0.14174706
0.76475066 0.71618545 0.1418941
0.77101779 0.71587002 0.14218839
0.77415133 0.71571219 0.14233552
0.78223914 0.70613682 0.14292555
0.78668559 0.71508145 0.14292401
0.789819 0.71492386 0.14307112
0.75332946 0.727539 0.14389786
0.75647813 0.72738051 0.14404571
0.77595562 0.70803273 0.14532815
0.76660067 0.70850337 0.14488894
0.75843656 0.71809036 0.14430845
0.7615701 0.71793264 0.14445557
0.78219235 0.70771891 0.14562096
0.75328207 0.72913635 0.14661953
0.77279025 0.70977151 0.1478771
0.77590865 0.70961469 0.14802353
0.77902693 0.70945781 0.14816993
0.76343524 0.71024227 0.14743787
0.76655364 0.71008557 0.14758427
0.76967198 0.70992851 0.14773071
0.75838935 0.71968007 0.14701699
0.78526366 0.709144 0.14846273
0.78838205 0.708987 0.14860915
0.75520855 0.72142744 0.14957839
0.75834215 0.72126985 0.14972551
0.75323462 0.73073381 0.14934121
0.78095585 0.70271379 0.15079336
0.7758618 0.71119684 0.15071894
0.77898014 0.71103972 0.15086533
0.78209847 0.71088284 0.15101175
0.78521675 0.71072596 0.15115817
0.76027012 0.71198124 0.14998689
0.7633884 0.71182442 0.1501333
0.76650685 0.71166742 0.15027969
0.76962513 0.71151042 0.1504261
0.7727434 0.71135366 0.15057252
0.78833508 0.71056902 0.15130457
0.75516146 0.72301722 0.15228693
0.75318724 0.73233128 0.15206286
0.79022425 0.70382035 0.15391457
0.78205144 0.71246493 0.15370713
0.78516978 0.71230781 0.15385352
0.78828818 0.71215111 0.15399995
0.76022321 0.7135632 0.15268229
0.76334143 0.71340632 0.15282865
0.76957816 0.71309263 0.15312149
0.77269632 0.71293557 0.15326791
0.77581477 0.71277875 0.15341432
0.77893311 0.71262175 0.15356073
0.75705779 0.71530223 0.15523125
0.76017618 0.71514535 0.15537769
0.7551142 0.72460693 0.15499546
0.75313985 0.73392874 0.15478455
0.79017752 0.7053957 0.15659848
0.79328251 0.7052393 0.15674426
0.76533717 0.70664567 0.15543219
0.78824127 0.71373302 0.15669534
0.76329446 0.71498835 0.15552406
0.76529038 0.70822078 0.15811613
0.79759622 0.7132622 0.15713456
0.80071461 0.71310544 0.15728098
0.76012927 0.71672726 0.15807308
0.75701088 0.71688414 0.15792669
0.75506705 0.72619665 0.157704
0.75820065 0.72603899 0.15785111
0.79013067 0.70697087 0.1592824
0.79323578 0.70681465 0.15942819
0.76839554 0.7080645 0.15826191
0.77150047 0.70790839 0.15840767
0.77460557 0.70775217 0.15855345
0.77771056 0.70759588 0.15869926
0.7808156 0.70743966 0.15884505
0.78392065 0.70728338 0.1589908
0.78819424 0.71531504 0.15939078
0.76524365 0.70979613 0.16080002
0.76834875 0.70963997 0.16094579
0.76213866 0.70995235 0.16065423
0.79443091 0.71500117 0.15968359
0.79754931 0.71484435 0.15982997
0.7600823 0.71830922 0.16076846
0.79580313 0.72414666 0.1596166
0.7581535 0.72762865 0.16055962
0.76128703 0.72747099 0.16070676
0.77145374 0.70948368 0.16109158
0.77455884 0.70932734 0.16123734
0.77766383 0.70917112 0.16138314
0.78076887 0.70901483 0.16152893
0.78387392 0.70885861 0.16167469
0.79008394 0.7085461 0.16196628
0.79126567 0.71674007 0.16223253
0.78814727 0.71689695 0.16208613
0.79262239 0.72589421 0.16217799
0.79397869 0.73506367 0.1621498
0.77140707 0.71105886 0.16377544
0.76209188 0.71152771 0.16333809
0.76519704 0.71137142 0.16348389
0.76830196 0.71121508 0.1636297
0.76315367 0.71973431 0.16361026
0.76123989 0.72906077 0.16341528
0.77451199 0.71090263 0.16392125
0.77761716 0.71074641 0.16406704
0.78072214 0.71059018 0.16421284
0.78382713 0.7104339 0.1643586
0.76515019 0.71294665 0.1661678
0.76825529 0.71279031 0.16631359
0.77136022 0.71263403 0.16645935
0.7631067 0.72131634 0.16630565
0.76622504 0.72115952 0.16645205
0.76119262 0.73065037 0.16612385
0.77446526 0.7124778 0.16660513
0.77757037 0.71232164 0.16675094
0.78067541 0.71216536 0.16689672
0.7837804 0.71200919 0.16704248
0.7868855 0.71185279 0.16718827
0.78805339 0.720061 0.16747691
0.76820856 0.71436554 0.1689975
0.77131355 0.71420938 0.16914327
0.77441859 0.71405309 0.16928905
0.76305979 0.72289836 0.16900104
0.76617813 0.72274148 0.16914746
0.76114547 0.73224014 0.16883238
0.7775237 0.71389681 0.16943486
0.78062862 0.71374071 0.16958064
0.78373373 0.7135843 0.1697264
0.79248089 0.73066324 0.17030361
0.76816177 0.71594083 0.1716814
0.77126676 0.71578455 0.17182717
0.77437174 0.71562833 0.17197296
0.77747691 0.71547216 0.17211874
0.76301277 0.72448039 0.17169641
0.76109833 0.73382986 0.17154093
0.78058183 0.71531594 0.17226453
0.78368694 0.71515971 0.17241029
0.78679192 0.71500343 0.1725561
0.76500994 0.71767247 0.1742195
0.76811504 0.71751624 0.17436527
0.77122009 0.71736002 0.17451106
0.77432513 0.71720368 0.17465684
0.77743012 0.71704739 0.17480262
0.78053516 0.71689111 0.17494842
0.76296592 0.72606236 0.17439182
0.78364021 0.71673495 0.17509419
0.78674525 0.71657866 0.17523998
0.76496321 0.7192477 0.17690341
0.76806831 0.71909148 0.1770492
0.77117324 0.71893513 0.17719497
0.7742784 0.71877891 0.17734076
0.77738339 0.71862262 0.17748655
0.78359348 0.71831012 0.17777811
0.76291895 0.72764432 0.17708725
0.78669852 0.71815389 0.1779239
0.77913123 0.71086103 0.18033177
0.76491642 0.72082299 0.17958732
0.76802152 0.72066671 0.1797331
0.77112657 0.72051042 0.17987888
0.77423161 0.72035414 0.18002465
0.77733666 0.72019786 0.18017046
0.78354681 0.71988535 0.180462
0.76287198 0.72922635 0.17978263
0.78665173 0.71972919 0.1806078
0.78781867 0.72797102 0.18095388
0.77908468 0.71242869 0.18300255
0.76486975 0.72239822 0.1822712
0.76797479 0.722242 0.18241699
0.77107978 0.72208571 0.18256275
0.77418482 0.72192949 0.18270855
0.77728987 0.72177309 0.18285435
0.78349996 0.72146064 0.1831459
0.76594341 0.73065138 0.18262447
0.76282501 0.73080844 0.18247803
0.77903819 0.71399617 0.18567331
0.77103311 0.72366101 0.18524665
0.77413821 0.72350454 0.18539245
0.78345323 0.72303593 0.18582977
0.78655833 0.72287971 0.18597558
0.76792806 0.72381717 0.18510088
0.7627781 0.73239034 0.18517341
0.7658965 0.73223358 0.1853198
0.77590191 0.71571922 0.18819898
0.77899164 0.71556365 0.18834406
0.77409136 0.72507995 0.18807635
0.78651154 0.724455 0.18865949
0.78961653 0.72429866 0.18880528
0.76788127 0.72539258 0.18778482
0.77098632 0.72523612 0.18793057
0.76584953 0.73381543 0.18801524
0.77585542 0.71728677 0.19086976
0.77894521 0.71713138 0.19101483
0.78203505 0.71697575 0.1911599
0.78646487 0.72603017 0.1913434
0.7895698 0.72587389 0.19148919
0.7678346 0.72696781 0.1904687
0.77093953 0.72681159 0.19061445
0.77404463 0.7266553 0.19076024
0.76778781 0.72854304 0.19315258
0.77580893 0.71885425 0.1935405
0.77889866 0.71869874 0.19368558
0.78198862 0.71854341 0.19383065
0.77089286 0.72838664 0.19329835
0.7739979 0.72823048 0.19344415
0.77084607 0.72996205 0.19598223
0.77576238 0.72042185 0.19621128
0.77885211 0.7202664 0.19635634
0.78194201 0.72011083 0.19650142
0.78503186 0.71995544 0.19664648
0.78947639 0.72902429 0.19685698
0.79258138 0.72886825 0.19700274
0.77395105 0.72980577 0.19612803
0.7707994 0.73153722 0.19866614
0.77571583 0.72198939 0.19888201
0.77880561 0.72183388 0.19902708
0.78189546 0.72167844 0.19917218
0.7849853 0.72152287 0.1993172
0.77390438 0.73138094 0.19881193
0.77566928 0.723557 0.20155278
0.77075261 0.73311245 0.20135005
0.77385765 0.73295635 0.20149584
0.77875918 0.72340149 0.20169784
0.78184897 0.72324604 0.20184293
0.78493887 0.72309059 0.201988
0.78802866 0.72293508 0.20213306
0.78938282 0.73217499 0.20222478
0.79248792 0.73201871 0.20237057
0.77562284 0.72512454 0.20422353
0.76760083 0.73484391 0.20388818
0.77070588 0.73468781 0.20403394
0.7848922 0.72465789 0.20465873
0.78933609 0.7337501 0.20490867
0.77735758 0.71729428 0.2069499
0.78043216 0.71713948 0.20709425
0.77248645 0.72684747 0.20674922
0.77557623 0.7266919 0.20689429
0.78484583 0.7262255 0.20732953
0.77731127 0.71885425 0.20960748
0.78038585 0.71869946 0.20975183
0.7724399 0.72841507 0.20941995
0.7755298 0.7282595 0.20956504
0.78479928 0.72779304 0.21000026
0.78788912 0.72763771 0.21014531
0.77726507 0.72041398 0.2122651
0.78033954 0.72025925 0.21240947
0.76621372 0.73029363 0.21180061
0.76930362 0.73013818 0.21194565
0.77239347 0.72998273 0.21209073
0.77548325 0.72982723 0.21223582
0.78784263 0.72920519 0.2128161
0.79093254 0.72904968 0.21296117
0.77721864 0.72197384 0.21492273
0.76616728 0.73186105 0.21447138
0.76925713 0.73170555 0.21461643
0.79088593 0.73061728 0.21563193
0.76303089 0.73358411 0.21699703
0.75994116 0.73373967 0.21685196
0.77409774 0.72368842 0.217436
0.77717233 0.72353363 0.21758033
0.78024691 0.72337896 0.2177247
0.78332168 0.72322428 0.21786906
0.78639632 0.72306961 0.21801342
0.77102309 0.72384322 0.21729161
0.78465974 0.73249567 0.21801254
0.78774959 0.73234016 0.21815759
0.76482755 0.72571236 0.21966052
0.77772534 0.70738733 0.21983157
0.78077143 0.7072342 0.21997458
0.78020066 0.72493875 0.22038233
0.7679022 0.72555768 0.2198049
0.77097678 0.72540295 0.21994926
0.77405149 0.72524828 0.22009361
0.77594137 0.71834469 0.22243901
0.75555736 0.72773641 0.22188504
0.758632 0.72758162 0.22202942
0.76058871 0.72066784 0.22436646
0.76364994 0.72051388 0.22451022
0.76671129 0.7203598 0.22465394
0.75441986 0.72252911 0.2267251
0.76844937 0.71248335 0.22730142
0.7714954 0.7123301 0.22744447
0.77454162 0.71217686 0.22758746
0.77758771 0.71202344 0.2277305
0.78063381 0.71187031 0.22787349
0.78367996 0.71171695 0.22801654
0.75748122 0.72237504 0.22686887
0.75926501 0.71448863 0.22950536
0.78548843 0.7048105 0.23034665
0.78363407 0.71326238 0.23064953
0.76231116 0.71433538 0.22964841
0.7733115 0.70695972 0.23239851
0.76421297 0.70741749 0.23197132
0.76724577 0.70726484 0.23211373
0.77027857 0.70711219 0.23225613
0.75312704 0.71634048 0.23185231
0.75617313 0.7161873 0.23199534
0.75921923 0.71603388 0.23213834
0.77634424 0.70680708 0.23254091
0.77937704 0.70665443 0.23268333
0.78544271 0.70634913 0.23296811
0.78847545 0.70619649 0.23311046
0.79150838 0.70604402 0.2332529
0.77629864 0.70834571 0.23516241
0.76113445 0.70910877 0.23445044
0.76416725 0.70895612 0.23459281
0.76720005 0.70880353 0.23473524
0.77023292 0.70865089 0.23487763
0.77326572 0.70849812 0.23502
0.75308108 0.71788579 0.23448533
0.75612724 0.71773273 0.23462833
0.77933139 0.70819306 0.23530479
0.78236425 0.70804048 0.23544718
0.78539717 0.70788777 0.23558959
0.78842986 0.70773524 0.23573194
0.79146266 0.70758259 0.23587438
0.77928573 0.70973176 0.23792624
0.75805598 0.71079981 0.23692951
0.76108879 0.7106474 0.2370719
0.77625299 0.70988423 0.23778386
0.75303531 0.71943128 0.23711827
0.76297766 0.70371681 0.23937124
0.78231859 0.70957905 0.23806864
0.78535146 0.70942646 0.23821105
0.7883842 0.70927376 0.23835342
0.791417 0.70912117 0.23849584
0.79444987 0.70896858 0.23863825
0.76599717 0.70356476 0.23951305
0.76901668 0.70341283 0.23965479
0.77203625 0.70326078 0.23979658
0.78227299 0.71111768 0.24069017
0.75497746 0.7124911 0.23940861
0.75801033 0.71233863 0.23955099
0.77924007 0.71127033 0.24054778
0.74994326 0.72112989 0.23960823
0.75991267 0.70540053 0.24183948
0.76293212 0.70524853 0.24198122
0.76595169 0.7050966 0.24212301
0.78530586 0.7109651 0.24083255
0.78833866 0.71081245 0.24097493
0.79137146 0.71065992 0.24111733
0.79440421 0.71050721 0.24125974
0.79743701 0.71035457 0.2414021
0.75796467 0.7138772 0.24217249
0.75189906 0.7141825 0.24188773
0.75493193 0.71402985 0.24203011
0.77501029 0.70464069 0.24254829
0.7852602 0.71250361 0.24345404
0.78829288 0.71235108 0.24359643
0.78222734 0.71265626 0.24331166
0.76763362 0.69719225 0.24471536
0.77063793 0.69704103 0.24485642
0.75986725 0.70693237 0.24444947
0.76288664 0.70678037 0.24459121
0.79132581 0.7121985 0.24373882
0.79435867 0.71204585 0.24388124
0.7973913 0.7118932 0.24402361
0.80042422 0.71174061 0.244166
0.80345708 0.71158791 0.24430841
0.79558939 0.72037596 0.24438649
0.79863548 0.72022277 0.24452953
0.80168164 0.72006947 0.24467254
0.80472773 0.71991611 0.24481553
0.77798438 0.70602059 0.24530008
0.78824729 0.7138896 0.24621791
0.79128015 0.71373701 0.2463603
0.78521436 0.71404231 0.24607554
0.80924737 0.72907472 0.24518901
0.76458406 0.6988675 0.24717118
0.79554355 0.72192138 0.24701945
0.79858959 0.72176808 0.24716248
0.8016358 0.72161484 0.2473055
0.80468184 0.72146147 0.24744852
0.74651289 0.70129883 0.24892168
0.74951726 0.70114756 0.24906273
0.78095841 0.70740062 0.24805181
0.79123437 0.71527565 0.24898176
0.78516889 0.71558082 0.248697
0.78820157 0.71542835 0.24883939
0.76641816 0.6919263 0.24944492
0.76940924 0.69177574 0.24958532
0.77240026 0.69162518 0.24972577
0.77355182 0.69993818 0.25019112
0.77655619 0.69978696 0.25033218
0.79549766 0.72346675 0.24965243
0.79854369 0.72331351 0.24979548
0.80158991 0.72316009 0.2499385
0.80463606 0.72300696 0.25008151
0.80768222 0.7228536 0.2502245
0.75141805 0.69419616 0.25132808
0.75440902 0.69404578 0.25146848
0.7574001 0.69389516 0.25160894
0.76039112 0.69374466 0.25174937
0.76338214 0.69359428 0.2518898
0.78091294 0.70893252 0.25066179
0.7446332 0.71228766 0.25157055
0.74765271 0.71213585 0.25171232
0.78815597 0.71696693 0.25146085
0.79118884 0.71681428 0.25160325
0.76637322 0.6934436 0.25203025
0.76936424 0.69329309 0.25217065
0.77651095 0.70131117 0.252929
0.79849786 0.72485882 0.25242844
0.80459011 0.72455233 0.25271446
0.80763632 0.72439891 0.25285751
0.75137317 0.69571364 0.2539134
0.75436407 0.69556302 0.25405383
0.75735509 0.69541252 0.25419429
0.74539095 0.69601464 0.25363258
0.74838197 0.69586408 0.253773
0.74942678 0.7041958 0.25425643
0.78388709 0.71031249 0.25341356
0.80024159 0.71789497 0.2546519
0.79114312 0.71835303 0.25422475
0.79417598 0.71820027 0.25436711
0.7723102 0.69466007 0.25489643
0.77946991 0.70268399 0.255667
0.78686106 0.71169233 0.25616533
0.80759043 0.7259444 0.25549048
0.7592029 0.68845695 0.25644574
0.76218057 0.68830705 0.25658551
0.7651583 0.68815708 0.25672534
0.76813608 0.68800735 0.25686511
0.75431901 0.69708055 0.25663921
0.75731003 0.69692999 0.25677961
0.76030111 0.69677961 0.25692007
0.76329207 0.69662899 0.2570605
0.75132799 0.69723105 0.25649875
0.74337292 0.7060225 0.25657111
0.74637723 0.70587122 0.2567122
0.79716319 0.71958637 0.25713098
0.80019599 0.71943378 0.25727338
0.80322886 0.71928102 0.2574158
0.79109752 0.71989149 0.25684622
0.79413038 0.71973902 0.25698861
0.77525616 0.69602698 0.25762221
0.74829191 0.69889885 0.25894368
0.78242916 0.70405704 0.25840482
0.81059068 0.72733653 0.25826645
0.76511347 0.68966788 0.25929925
0.7680912 0.68951803 0.25943902
0.77106899 0.68936813 0.25957879
0.77521122 0.69754428 0.26020756
0.77820218 0.69739383 0.26034799
0.80015033 0.7209723 0.25989488
0.8031832 0.72081977 0.26003727
0.806216 0.72066712 0.26017964
0.79105181 0.72143018 0.25946769
0.79408461 0.72127753 0.25961006
0.79711747 0.72112495 0.25975248
0.75911325 0.69147831 0.26159343
0.76209098 0.69132847 0.26173323
0.75018001 0.69192767 0.26117402
0.75315779 0.69177794 0.26131383
0.75613552 0.69162804 0.26145363
0.74226493 0.70071733 0.26124817
0.74525595 0.70056683 0.26138863
0.78238392 0.70558131 0.26100171
0.78538829 0.70543009 0.26114276
0.80749875 0.7290352 0.2607564
0.76506877 0.6911785 0.26187307
0.76804638 0.69102865 0.26201284
0.77102405 0.69087881 0.26215267
0.77516609 0.69906163 0.26279292
0.77815711 0.69891131 0.26293337
0.80313754 0.72235829 0.2626588
0.79403901 0.72281617 0.26223159
0.79707181 0.72266352 0.26237395
0.80010468 0.72251099 0.26251635
0.75906837 0.69298899 0.26416731
0.76204604 0.69283915 0.26430708
0.76502377 0.69268924 0.26444691
0.76800168 0.69253927 0.26458675
0.74715757 0.69358826 0.2636081
0.7501353 0.69343841 0.2637479
0.75311291 0.69328856 0.26388764
0.75609058 0.69313872 0.26402751
0.78534305 0.70695418 0.26373956
0.7897442 0.71613616 0.26413706
0.80440664 0.73073375 0.26324636
0.80745286 0.73058045 0.26338938
0.77097934 0.69238949 0.26472652
0.73817956 0.69554836 0.26576251
0.74115729 0.69539857 0.26590231
0.77811217 0.70042866 0.26551867
0.78110313 0.70027822 0.26565909
0.79399329 0.7243548 0.26485303
0.7970261 0.72420216 0.26499543
0.80005896 0.72404951 0.26513782
0.7620014 0.69434971 0.26688093
0.76497906 0.69419974 0.26702079
0.76795667 0.69404995 0.26716056
0.7709344 0.69390017 0.26730034
0.74413502 0.69524872 0.26604211
0.74711269 0.69509888 0.26618192
0.75009048 0.69494915 0.26632172
0.75306815 0.6947993 0.26646152
0.75604588 0.69464946 0.26660135
0.75902361 0.69449955 0.2667411
0.78529769 0.70847839 0.26633644
0.78969872 0.71766782 0.266747
0.80740696 0.73212594 0.26602241
0.77391219 0.69375032 0.2674402
0.77806705 0.70194614 0.26810402
0.78105807 0.70179546 0.26824445
0.7969805 0.72574085 0.26761693
0.80001336 0.7255882 0.26775932
0.80304623 0.72543555 0.26790172
0.80736113 0.73367113 0.26865539
0.76493412 0.69571066 0.26959461
0.7708897 0.69541079 0.26987422
0.77386737 0.69526094 0.27001405
0.76195639 0.69586051 0.26945481
0.78525257 0.7100026 0.26893327
0.78965336 0.71919984 0.269357
0.79267287 0.71904784 0.26949874
0.74005002 0.69006658 0.27053335
0.74301445 0.68991745 0.2706725
0.74597883 0.68976825 0.27081174
0.74894327 0.68961918 0.27095088
0.75190771 0.68947005 0.27109006
0.75487214 0.6893208 0.2712293
0.75783658 0.68917155 0.27136844
0.73708558 0.69021577 0.27039418
0.77802217 0.70346338 0.2706894
0.78101307 0.70331287 0.27082983
0.79996765 0.72712684 0.27038082
0.80300051 0.72697425 0.27052319
0.81036144 0.73506331 0.27143136
0.76672983 0.6887241 0.271786
0.737041 0.69171977 0.27295649
0.77382255 0.69677168 0.27258787
0.75893396 0.69752085 0.27188885
0.76191169 0.69737107 0.2720286
0.81949991 0.7346034 0.27186039
0.82254595 0.73445028 0.27200347
0.8255921 0.73429686 0.27214643
0.82863814 0.73414367 0.27228945
0.83168429 0.73399037 0.27243251
0.83473051 0.73383689 0.2725755
0.74000549 0.69157058 0.2730957
0.74296987 0.69142145 0.27323484
0.74593425 0.6912722 0.27337405
0.74889874 0.69112319 0.27351323
0.75186312 0.69097388 0.2736524
0.7548275 0.69082475 0.27379158
0.76372075 0.69037718 0.27420917
0.76668519 0.69022793 0.27434832
0.73804504 0.70008039 0.27348402
0.77797699 0.70498091 0.27327475
0.78096801 0.70483035 0.27341515
0.78395903 0.70467991 0.27355555
0.80598766 0.72836018 0.27328709
0.76964968 0.69007885 0.27448747
0.74292523 0.69292527 0.27579722
0.73996073 0.69307441 0.27565804
0.76782233 0.69858199 0.27488205
0.77079999 0.69843215 0.27502188
0.77377766 0.6982823 0.27516174
0.75888914 0.69903153 0.27446264
0.76186669 0.69888175 0.27460247
0.76484454 0.69873196 0.27474231
0.79417509 0.71259731 0.27455014
0.79117072 0.71274841 0.27440909
0.80164057 0.72165579 0.27514404
0.83773077 0.73522913 0.27535149
0.7458896 0.69277608 0.27593642
0.7488541 0.69262701 0.27607563
0.7518186 0.69247776 0.27621475
0.75478292 0.69232869 0.27635396
0.75884432 0.70054221 0.27703652
0.76182199 0.70039231 0.27717632
0.78092301 0.70634788 0.2760005
0.78391409 0.70619726 0.27614093
0.78690511 0.7060467 0.27628142
0.82413894 0.72898304 0.27676296
0.8271718 0.72883058 0.27690533
0.83020467 0.72867793 0.27704769
0.8089748 0.72974622 0.27605096
0.74584496 0.69428003 0.27849877
0.73398739 0.69487667 0.27794206
0.73695177 0.6947276 0.27808124
0.73991615 0.69457829 0.27822039
0.74288052 0.69442916 0.27835959
0.77075511 0.69994289 0.27759576
0.77373284 0.69979298 0.27773556
0.77671057 0.69964314 0.27787536
0.76479971 0.70024258 0.27731615
0.7677775 0.70009279 0.27745596
0.79713404 0.71397024 0.27728805
0.81669271 0.72242796 0.27846286
0.7488094 0.69413096 0.27863795
0.75177383 0.69398171 0.27877712
0.75473827 0.69383252 0.27891636
0.76475483 0.70175314 0.27988997
0.78985107 0.70741373 0.27900714
0.79284215 0.70726323 0.2791476
0.74580032 0.69578397 0.28106111
0.74876481 0.69563478 0.28120029
0.75172931 0.69548559 0.28133947
0.73394269 0.69638062 0.28050435
0.73690706 0.69623137 0.28064358
0.73987156 0.69608229 0.28078276
0.742836 0.69593304 0.28092191
0.77368808 0.70130372 0.28030941
0.77666587 0.70115393 0.28044924
0.77964348 0.70100397 0.28058904
0.78262115 0.70085424 0.28072879
0.78559887 0.7007044 0.28086862
0.73195517 0.70491213 0.28092602
0.75469363 0.6953364 0.28147864
0.75765812 0.69518721 0.28161785
0.7606225 0.69503802 0.28175703
0.76655138 0.6947397 0.28203535
0.76951569 0.69459057 0.28217456
0.80177003 0.70832902 0.2821542
0.78980601 0.70893103 0.28159249
0.79279709 0.70878065 0.28173292
0.79578805 0.70863008 0.28187332
0.79877907 0.70847964 0.28201377
0.73293161 0.71330822 0.28150964
0.83174485 0.72320008 0.28178167
0.7338981 0.69788456 0.28306672
0.73686254 0.69773543 0.28320596
0.73982692 0.69758618 0.28334507
0.74279141 0.69743699 0.28348428
0.74575573 0.6972878 0.28362352
0.78257638 0.70236486 0.28330269
0.78555411 0.70221502 0.28344253
0.72989559 0.71497601 0.28395453
0.73288661 0.71482563 0.28409499
0.80906093 0.71641397 0.28304589
0.82408249 0.71565801 0.28375119
0.82708687 0.71550685 0.28389224
0.77539986 0.69579619 0.28501529
0.77836436 0.695647 0.28515443
0.76354229 0.69639283 0.28445858
0.76650667 0.69624352 0.28459775
0.77243549 0.69594526 0.28487608
0.80471611 0.70969594 0.28487998
0.81069809 0.70939493 0.28516081
0.81368911 0.70924431 0.28530127
0.81668019 0.70909387 0.2854417
0.81967121 0.70894331 0.28558213
0.79275203 0.71029794 0.28431824
0.79574305 0.7101475 0.2844587
0.79873407 0.70999694 0.2845991
0.80172515 0.70984644 0.28473952
0.83169943 0.72473192 0.28439164
0.75057 0.69011563 0.28589904
0.75352108 0.6899671 0.28603762
0.75647217 0.68981868 0.28617615
0.75942338 0.68967015 0.2863147
0.76827675 0.68922454 0.28673035
0.74761879 0.69026417 0.28576046
0.73385346 0.69938844 0.28562903
0.73681778 0.69923919 0.28576824
0.73978221 0.69909012 0.28590745
0.78550935 0.70372558 0.28601632
0.78848702 0.70357591 0.28615612
0.73484319 0.70778358 0.28621349
0.82704163 0.71703106 0.28648916
0.74167228 0.69205827 0.2880342
0.7446233 0.69190985 0.28817278
0.74757445 0.6917612 0.28831136
0.77831966 0.69715083 0.28771678
0.78128409 0.69700176 0.28785598
0.7723909 0.69744921 0.28743845
0.77535534 0.69730002 0.2875776
0.81364405 0.71076173 0.28788662
0.81663513 0.71061134 0.28802702
0.81962621 0.71046084 0.28816748
0.82261717 0.71031028 0.28830791
0.83165389 0.72626376 0.28700167
0.75347668 0.69146436 0.28858846
0.75642782 0.69131583 0.28872705
0.75937897 0.69116724 0.28886557
0.76233006 0.69101888 0.28900412
0.76528114 0.69087029 0.28914267
0.76823229 0.69072175 0.28928122
0.75052559 0.69161278 0.28844991
0.80630845 0.70418745 0.28956884
0.80928618 0.70403761 0.28970864
0.79141986 0.70493668 0.28886977
0.79439759 0.70478696 0.2890096
0.79737532 0.70463687 0.28914943
0.80035305 0.70448703 0.28928921
0.80333084 0.70433718 0.28942904
0.7318207 0.70944405 0.2886475
0.73479843 0.70929432 0.28878728
0.83160847 0.72779566 0.28961164
0.75343215 0.69296139 0.29113933
0.73572564 0.69385237 0.29030797
0.73867667 0.69370401 0.29044655
0.74162781 0.69355553 0.2905851
0.74457884 0.693407 0.29072362
0.74752998 0.69325846 0.29086217
0.78420401 0.69835645 0.2905575
0.78716832 0.69820738 0.29069668
0.72783536 0.70269459 0.2904754
0.72487092 0.70284379 0.29033622
0.72284263 0.71140426 0.29080194
0.72582042 0.71125436 0.29094175
0.81958115 0.71197814 0.29075286
0.82257211 0.71182775 0.2908932
0.82556313 0.71167725 0.29103366
0.7563833 0.69281292 0.29127786
0.76228559 0.69251603 0.29155499
0.76523679 0.69236749 0.29169357
0.76818794 0.69221896 0.29183209
0.77113897 0.69207048 0.29197064
0.7770412 0.69177336 0.29224777
0.77999234 0.69162488 0.29238632
0.80924135 0.70554823 0.29228246
0.81221914 0.7053985 0.29242232
0.81519675 0.70524859 0.2925621
0.80328596 0.70584792 0.29200289
0.80626369 0.70569807 0.29214263
0.75818038 0.68577915 0.29338878
0.749367 0.68622273 0.29297501
0.73568118 0.69534963 0.29285881
0.78712368 0.69971108 0.29325902
0.79008806 0.69956207 0.29339826
0.79305255 0.69941276 0.29353741
0.79601693 0.69926363 0.29367658
0.79898131 0.69911444 0.29381582
0.72779077 0.70419854 0.29303777
0.73075521 0.70404935 0.29317692
0.72279787 0.71291494 0.29337576
0.7257756 0.71276516 0.29351562
0.82551825 0.71319455 0.29361904
0.77286941 0.68503994 0.29407847
0.73757154 0.68830431 0.29496264
0.74050927 0.6881566 0.29510057
0.74344707 0.68800879 0.29523849
0.74638486 0.68786097 0.29537645
0.78289896 0.69297361 0.29507574
0.73268563 0.69699532 0.29527113
0.81515199 0.70675933 0.29513592
0.81812972 0.70660937 0.29527575
0.75813621 0.68726951 0.29592815
0.76107395 0.68712169 0.29606608
0.76401174 0.68697381 0.296204
0.76694959 0.68682611 0.29634193
0.76988739 0.68667817 0.29647988
0.77282524 0.68653035 0.29661778
0.77576309 0.68638241 0.29675573
0.74932271 0.68771309 0.29551437
0.75226051 0.68756521 0.2956523
0.75519836 0.68741745 0.29579023
0.79004347 0.70106596 0.29596061
0.79300791 0.70091677 0.29609975
0.79597229 0.70076752 0.29623893
0.79893672 0.70061833 0.29637814
0.80190122 0.70046926 0.29651728
0.8048656 0.70032001 0.29665649
0.80783004 0.70017087 0.2967957
0.73071057 0.70555323 0.29573929
0.72774613 0.70570254 0.29560015
0.82110745 0.70645958 0.29541552
0.72275299 0.71442562 0.29594961
0.72573078 0.71427578 0.29608944
0.77870083 0.68623465 0.29689369
0.73458946 0.6899426 0.29736403
0.73752719 0.68979478 0.29750195
0.74046499 0.68964696 0.29763991
0.74340278 0.68949914 0.29777786
0.74634069 0.68935138 0.29791576
0.74927855 0.68920338 0.29805368
0.7522164 0.68905556 0.29819164
0.7858057 0.69432229 0.29776517
0.78285456 0.69447088 0.29762661
0.73264116 0.69849247 0.297822
0.81079441 0.70002168 0.29693484
0.72770149 0.70720637 0.29816246
0.81808484 0.70812011 0.2978496
0.82106262 0.70797026 0.2979894
0.75809199 0.68875986 0.29846749
0.76102978 0.6886121 0.29860544
0.76396757 0.68846422 0.29874337
0.76690549 0.6883164 0.29888129
0.76984328 0.6881687 0.29901925
0.77278095 0.68802077 0.29915714
0.77571881 0.68787289 0.29929513
0.77865654 0.68772501 0.29943305
0.75515413 0.68890786 0.29832959
0.73066592 0.70705718 0.2983017
0.82701802 0.70767057 0.29826897
0.72568595 0.71578646 0.29866326
0.73454523 0.69143301 0.29990339
0.73748302 0.69128507 0.30004129
0.74042088 0.69113725 0.30017924
0.74335867 0.69098961 0.30031717
0.74629647 0.69084162 0.30045512
0.74923426 0.69069386 0.30059305
0.75217205 0.69054604 0.30073097
0.75510985 0.6903981 0.3008689
0.78871232 0.69567096 0.30045459
0.79166347 0.69552255 0.30059311
0.79461461 0.69537395 0.30073166
0.7975657 0.69522548 0.30087021
0.7857613 0.69581932 0.30031601
0.73259676 0.69998962 0.30037278
0.81371427 0.70137632 0.29963642
0.82260746 0.70092893 0.30005392
0.72765684 0.70871019 0.3007248
0.8210178 0.70948094 0.30056325
0.77273667 0.68951106 0.30169651
0.77861243 0.6892156 0.30197236
0.78155023 0.68906772 0.30211031
0.80051684 0.69507688 0.30100876
0.80346799 0.69492841 0.30114734
0.80641901 0.69477987 0.30128586
0.80937022 0.69463146 0.30142444
0.816634 0.70273119 0.30233794
0.75981885 0.68319756 0.30308211
0.76274323 0.68305045 0.30321938
0.76566774 0.68290335 0.30335671
0.76859224 0.68275607 0.30349401
0.77444136 0.6824618 0.3037686
0.75689417 0.68334478 0.30294475
0.73450106 0.69292337 0.30244273
0.7374388 0.69277555 0.30258065
0.74037659 0.69262773 0.30271858
0.74331433 0.69247991 0.3028565
0.74625212 0.69233209 0.30299446
0.74919009 0.69218427 0.30313241
0.75212789 0.69203633 0.30327031
0.75506568 0.69188851 0.30340824
0.78866798 0.69716817 0.30300537
0.7296012 0.70163536 0.30278513
0.82256287 0.70243281 0.30261627
0.79031944 0.69011468 0.30506349
0.76387912 0.69144517 0.30382204
0.76975477 0.69114947 0.30409792
0.77269262 0.69100165 0.30423585
0.77856821 0.69070584 0.30451173
0.781506 0.69055808 0.30464965
0.7844438 0.69041038 0.30478758
0.73739451 0.69426608 0.30511999
0.73151892 0.69456166 0.30484417
0.73445678 0.69441384 0.3049821
0.81227684 0.69598007 0.30411386
0.72365463 0.70342958 0.3050589
0.72660571 0.70328104 0.30519742
0.81955385 0.70408589 0.30503944
0.76562369 0.68438691 0.30588457
0.77439725 0.68394548 0.30629647
0.75685018 0.68482858 0.30547264
0.75977468 0.68468124 0.30560994
0.82263535 0.68848836 0.30658072
0.79325724 0.68996686 0.30520141
0.79619503 0.68981898 0.30533928
0.79913282 0.68967116 0.30547726
0.80207062 0.6895234 0.30561519
0.80500847 0.6893754 0.30575314
0.80794638 0.68922764 0.30589104
0.76383489 0.69293559 0.30636144
0.76677275 0.69278765 0.30649936
0.75208372 0.69352698 0.30580968
0.72460324 0.71186721 0.30571032
0.73925906 0.687195 0.30717668
0.74218357 0.68704802 0.30731401
0.74510807 0.68690073 0.30745125
0.74803263 0.68675357 0.30758858
0.75388151 0.6864593 0.30786324
0.7697106 0.69263989 0.30663729
0.77264827 0.69249213 0.30677521
0.77558607 0.69234419 0.30691317
0.77852398 0.69219643 0.30705109
0.78146172 0.69204861 0.30718902
0.78439963 0.69190067 0.30732697
0.78733742 0.69175291 0.3074649
0.72853684 0.69619989 0.30724561
0.7314747 0.69605207 0.30738357
0.73441255 0.69590431 0.30752146
0.82108575 0.69703168 0.30708039
0.81518358 0.69732875 0.30680326
0.72656131 0.70477808 0.30774826
0.75680619 0.68631208 0.30800048
0.7597307 0.68616498 0.3081378
0.79908866 0.69116157 0.30801663
0.80202651 0.69101369 0.30815452
0.81083995 0.69057018 0.30856836
0.79190034 0.68454605 0.30964819
0.7948249 0.68439895 0.30978552
0.80359828 0.68395746 0.31019744
0.80652285 0.68381041 0.31033474
0.78897583 0.68469328 0.30951092
0.73921508 0.68867868 0.30970451
0.74213958 0.68853164 0.30984178
0.74506402 0.68838435 0.30997911
0.74798858 0.68823719 0.31011641
0.75091308 0.68809009 0.31025371
0.75383759 0.68794292 0.31039101
0.75676215 0.6877957 0.31052831
0.75968665 0.68764865 0.31066567
0.73629051 0.68882596 0.30956718
0.78141755 0.69353902 0.30972838
0.72849268 0.69769037 0.30978495
0.73143047 0.69754249 0.30992287
0.8180902 0.69867754 0.30949271
0.7265169 0.70627528 0.31029913
0.76553571 0.68735427 0.31094024
0.76846015 0.6872071 0.31107756
0.7713846 0.68706 0.31121486
0.77430916 0.68691278 0.31135219
0.77723372 0.68676567 0.31148946
0.78308266 0.68647122 0.31176412
0.78600717 0.68632406 0.31190142
0.78893179 0.68617696 0.31203875
0.79185635 0.68602979 0.31217602
0.76261109 0.68750137 0.31080294
0.73332208 0.69045675 0.31195775
0.73624653 0.69030958 0.31209508
0.81373346 0.69191277 0.31124565
0.81960911 0.69161701 0.3115215
0.72747833 0.71472597 0.31097427
0.82381618 0.71537369 0.31099841
0.82679397 0.71522391 0.31113824
0.79478085 0.68588269 0.31231332
0.79770529 0.68573552 0.31245062
0.80062991 0.68558836 0.31258798
0.80355436 0.6854412 0.31272525
0.80647886 0.68529397 0.31286255
0.80940336 0.68514675 0.3129999
0.73917103 0.69016248 0.31223235
0.74209553 0.69001532 0.31236967
0.74502009 0.68986821 0.312507
0.74794453 0.68972093 0.3126443
0.7508691 0.68957371 0.31278157
0.75379354 0.6894266 0.3129189
0.7567181 0.6892795 0.31305623
0.75964278 0.68913227 0.31319353
0.76256722 0.68898505 0.31333083
0.76549166 0.68883789 0.31346813
0.72844845 0.69918072 0.31232432
0.73138624 0.69903302 0.31246224
0.72942346 0.7076239 0.31298855
0.82377124 0.71688449 0.31357229
0.81825393 0.66926575 0.31482351
0.76841617 0.68869078 0.31360546
0.77134073 0.68854362 0.31374273
0.77426517 0.68839633 0.31388009
0.77718967 0.68824923 0.31401736
0.78011411 0.68810219 0.31415471
0.78303868 0.68795496 0.31429198
0.73327804 0.69194043 0.31448564
0.73620248 0.6917932 0.31462291
0.73912704 0.69164616 0.31476021
0.82250267 0.69295979 0.31419879
0.81368923 0.69340312 0.31378502
0.81662703 0.69325542 0.31392291
0.81956494 0.69310755 0.3140609
0.81800139 0.70167166 0.31459439
0.82674903 0.71673465 0.31371209
0.82814896 0.72518331 0.31444225
0.825158 0.72533399 0.31430176
0.78467745 0.68088186 0.31631494
0.80935931 0.68663049 0.3155278
0.76837212 0.6901744 0.31613329
0.77129662 0.6900273 0.31627059
0.74790049 0.69120455 0.31517214
0.75082505 0.69105744 0.31530944
0.75959861 0.69061589 0.31572139
0.76252306 0.69046885 0.31585869
0.76544768 0.69032156 0.31599602
0.81364506 0.69489354 0.31632432
0.73134208 0.70052332 0.31500161
0.72642803 0.70926964 0.31540084
0.72937912 0.70912111 0.31553939
0.8193754 0.7101016 0.31528887
0.82074881 0.71854496 0.31600636
0.82954854 0.73364556 0.31519544
0.81990129 0.66320258 0.31658861
0.8182103 0.67073607 0.31732839
0.79632235 0.68029594 0.31686169
0.79923344 0.6801495 0.31699836
0.80214483 0.68000299 0.31713504
0.80505598 0.67985636 0.31727171
0.78758866 0.68073535 0.31645158
0.79049987 0.68058896 0.31658831
0.7934112 0.68044239 0.31672499
0.74096555 0.68455625 0.31678104
0.74387676 0.68440974 0.31691769
0.75261039 0.68397027 0.31732777
0.7555216 0.68382388 0.31746444
0.77422112 0.68988019 0.31640792
0.77714568 0.68973297 0.31654522
0.78007013 0.68958569 0.31668255
0.73323405 0.69342417 0.31701344
0.73615849 0.693277 0.31715077
0.73908299 0.69312972 0.3172881
0.73129779 0.70201373 0.31754091
0.82511294 0.72685122 0.31688711
0.82950336 0.73516977 0.31779227
0.78172243 0.68250531 0.31869462
0.78463364 0.6823588 0.31883126
0.78754491 0.68221235 0.31896794
0.80931532 0.68811429 0.31805563
0.77125263 0.69151092 0.31879842
0.77417707 0.69136375 0.31893575
0.77710164 0.69121665 0.31907305
0.76247907 0.69195247 0.31838655
0.76540363 0.6918053 0.31852385
0.76832813 0.69165814 0.31866115
0.81360072 0.69638407 0.31886369
0.82070404 0.72005558 0.31858018
0.79918969 0.68162638 0.31951466
0.80210096 0.68147987 0.3196514
0.80501205 0.68133336 0.31978807
0.74383295 0.68588662 0.31943405
0.74674416 0.68574011 0.31957075
0.74965537 0.68559355 0.31970742
0.75256652 0.68544716 0.3198441
0.75547779 0.68530065 0.31998077
0.758389 0.68515408 0.32011747
0.74092174 0.68603307 0.31929734
0.80927122 0.68959785 0.32058346
0.78002608 0.69106942 0.31921038
0.73319 0.69490772 0.31954131
0.73611438 0.69476044 0.31967863
0.72537798 0.7037999 0.31980443
0.72831583 0.70365202 0.31994236
0.81496143 0.70481461 0.31955755
0.82506788 0.7283687 0.31947252
0.78914398 0.67513466 0.32097754
0.79204184 0.67498881 0.32111359
0.79493988 0.67484295 0.32124963
0.78167856 0.68398231 0.32121095
0.74378908 0.68736351 0.32195041
0.73796666 0.68765646 0.32167706
0.74087793 0.68751001 0.32181373
0.76535964 0.69328904 0.32105172
0.76828414 0.69314176 0.32118905
0.73022139 0.69653869 0.32193184
0.81061882 0.69802225 0.32126507
0.78330463 0.67689645 0.32321027
0.78620249 0.6767506 0.32334632
0.80205721 0.68295681 0.32216775
0.80496836 0.68281019 0.3223044
0.77290124 0.6858986 0.3233172
0.74670023 0.68721712 0.32208711
0.7496115 0.68707055 0.32222375
0.75543386 0.68677771 0.32249713
0.75834507 0.68663108 0.32263383
0.76125634 0.68648458 0.32277051
0.76998997 0.68604517 0.32318053
0.73314589 0.69639146 0.32206917
0.73607039 0.6962443 0.32220647
0.7389949 0.69609702 0.32234377
0.72533375 0.70529014 0.32234377
0.72827148 0.70514238 0.32248169
0.81491703 0.70631182 0.32210836
0.8192414 0.71461332 0.3229759
0.82502294 0.729886 0.32205778
0.7977941 0.67616737 0.32389054
0.78910047 0.67660481 0.32348236
0.79199833 0.6764589 0.32361841
0.79489625 0.67631316 0.32375452
0.7513839 0.67997062 0.32421848
0.80201334 0.6844337 0.32468405
0.77581245 0.68575221 0.32345393
0.7787236 0.68560565 0.32359064
0.74083412 0.68898696 0.32433012
0.76531553 0.6947726 0.32357955
0.7301774 0.69802225 0.32445976
0.73310196 0.6978752 0.32459703
0.73602641 0.69772798 0.32473433
0.81057459 0.69951272 0.32380447
0.81487256 0.70780891 0.32465923
0.82061428 0.72307682 0.32372788
0.78036302 0.67851245 0.32557908
0.78326088 0.6783666 0.32571509
0.78615892 0.67822087 0.3258512
0.78905672 0.67807496 0.32598719
0.7919547 0.67792916 0.32612327
0.80492455 0.68428725 0.32482076
0.77285743 0.68737555 0.32583362
0.77576864 0.6872291 0.32597029
0.77867973 0.68708253 0.32610697
0.76121253 0.6879617 0.3252869
0.76703501 0.68766862 0.32556024
0.76994616 0.68752205 0.32569695
0.73895091 0.6975807 0.32487166
0.72528952 0.70678079 0.32488316
0.72822732 0.70663297 0.32502106
0.72625029 0.7152583 0.32560423
0.79485255 0.67778331 0.32625934
0.79775041 0.67763764 0.32639539
0.74554449 0.68173254 0.32645121
0.74844235 0.68158674 0.32658729
0.75134033 0.68144089 0.32672337
0.75423819 0.68129504 0.32685938
0.75713611 0.6811493 0.32699546
0.74264663 0.68187839 0.32631513
0.80488068 0.68576407 0.32733718
0.74079025 0.69046384 0.32684648
0.72818315 0.70812339 0.32756042
0.81482816 0.70930612 0.3272101
0.82056957 0.72458744 0.32630172
0.82354718 0.72443777 0.32644159
0.82792377 0.7327705 0.32736894
0.78031927 0.67998254 0.32808393
0.78321731 0.67983675 0.32821998
0.78611523 0.6796909 0.32835606
0.78901309 0.67954516 0.32849211
0.79191107 0.67939931 0.32862815
0.79480892 0.67925352 0.32876423
0.7977069 0.67910773 0.32890028
0.74260306 0.6833486 0.32882002
0.7455008 0.68320268 0.32895607
0.77572477 0.68870616 0.32848665
0.76407993 0.68929195 0.32793996
0.76699108 0.68914551 0.32807663
0.76990229 0.68899912 0.32821333
0.77281356 0.68885255 0.32835001
0.72910154 0.69252676 0.32881609
0.73201275 0.69238013 0.32895276
0.80913913 0.69404888 0.32816705
0.81618768 0.71777028 0.32796142
0.72123712 0.72555172 0.3286323
0.8006047 0.67896181 0.32903636
0.74839878 0.68305689 0.32909214
0.7512967 0.68291098 0.32922822
0.75419462 0.68276531 0.32936421
0.75709254 0.68261939 0.32950032
0.75999051 0.68247366 0.32963637
0.80483681 0.68724102 0.32985353
0.73492402 0.69223374 0.32908946
0.73783517 0.69208729 0.32922617
0.73008943 0.7009896 0.32951543
0.72520107 0.70976156 0.32996184
0.82350236 0.72594827 0.32901534
0.83086985 0.73413724 0.33009472
0.7773779 0.68159854 0.33045274
0.7802757 0.68145293 0.33058879
0.80056113 0.68043214 0.33154121
0.74835509 0.68452704 0.331597
0.75125313 0.68438125 0.33173305
0.73966146 0.68496454 0.33118883
0.74255931 0.68481869 0.33132491
0.74545717 0.68467289 0.33146095
0.76403612 0.69076896 0.33045632
0.76694733 0.69062239 0.33059299
0.731969 0.69385731 0.33146915
0.73488015 0.69371074 0.33160579
0.73779136 0.69356424 0.3317425
0.8090952 0.6955325 0.33069488
0.82643527 0.72730923 0.33172902
0.7936185 0.67476052 0.33283398
0.79650497 0.67461532 0.33296955
0.78207248 0.67534167 0.3322919
0.78495902 0.67519629 0.33242741
0.78784543 0.67505103 0.33256295
0.79073203 0.67490584 0.33269846
0.77733415 0.68306881 0.3329576
0.78023207 0.68292296 0.33309367
0.76864052 0.68350619 0.33254945
0.77153832 0.68336058 0.33268547
0.77443635 0.68321449 0.33282155
0.72712076 0.70262045 0.33190596
0.73004532 0.70247328 0.33204329
0.73881882 0.70203173 0.33245522
0.74174333 0.70188457 0.33259252
0.81769043 0.71215189 0.33245039
0.72021472 0.72004682 0.33297965
0.75316393 0.67825854 0.33343169
0.75605047 0.67811316 0.33356717
0.758937 0.67796803 0.33370271
0.80341542 0.68175638 0.33418211
0.74831146 0.68599725 0.33410189
0.73961782 0.68643475 0.33369371
0.74251568 0.68628889 0.33382979
0.74541354 0.68614304 0.33396584
0.73192507 0.69533426 0.33398554
0.7348364 0.69518769 0.33412218
0.72122777 0.70439845 0.3341592
0.82202733 0.72047979 0.33336449
0.82639039 0.72881985 0.33430287
0.82936817 0.72867006 0.33444268
0.79646152 0.67607963 0.33546451
0.79934812 0.67593443 0.33560002
0.78202903 0.67680585 0.33478689
0.78491551 0.67666078 0.33492243
0.78780204 0.67651552 0.33505794
0.79068857 0.67637014 0.33519349
0.79357511 0.67622495 0.33532903
0.75023401 0.67986804 0.33579117
0.75312048 0.67972279 0.33592665
0.76280111 0.6852681 0.33478221
0.81193167 0.69835263 0.33588791
0.82198274 0.72198373 0.33592683
0.76755303 0.67899668 0.33660433
0.77043945 0.67885131 0.33673984
0.77332604 0.67870617 0.33687532
0.77621257 0.67856085 0.33701086
0.77909911 0.67841548 0.33714637
0.78198558 0.6782704 0.33728194
0.75600702 0.67957753 0.33606219
0.75889355 0.67943221 0.33619773
0.7646665 0.67914176 0.33646876
0.74247211 0.6877591 0.33633459
0.74536991 0.68761325 0.33647066
0.74826783 0.68746734 0.33660668
0.72118378 0.70588213 0.33668706
0.71919268 0.71452844 0.33730406
0.71813887 0.73021251 0.33618021
0.79641801 0.677544 0.33795953
0.79930454 0.67739886 0.33809507
0.80219108 0.67725354 0.33823058
0.80507755 0.67710835 0.33836612
0.78487206 0.67812508 0.33741739
0.78775853 0.67797983 0.33755296
0.79064512 0.67783463 0.33768848
0.7935316 0.67768925 0.33782402
0.75019056 0.68133247 0.33828613
0.75307697 0.68118727 0.33842167
0.75596356 0.68104184 0.33855721
0.75885004 0.6808967 0.33869272
0.72504109 0.69010419 0.3380231
0.72793889 0.68995845 0.33815917
0.73083681 0.6898126 0.33829519
0.73373473 0.68966675 0.3384313
0.73663265 0.68952084 0.33856735
0.73953056 0.68937498 0.33870345
0.72214311 0.69025004 0.33788702
0.81481218 0.69968915 0.33855307
0.82490247 0.72333837 0.33862838
0.82786697 0.72318941 0.33876756
0.71809417 0.73171651 0.33874249
0.77328259 0.68017042 0.33937028
0.77616912 0.68002534 0.33950585
0.7790556 0.67988002 0.33964136
0.7848286 0.67958951 0.33991241
0.78771508 0.67944419 0.34004796
0.79060161 0.67929894 0.34018347
0.76173657 0.68075144 0.33882827
0.76462305 0.68060625 0.33896378
0.76750958 0.68046093 0.33909935
0.74242842 0.68922919 0.33883944
0.74532634 0.68908346 0.33897555
0.74822426 0.6889376 0.33911157
0.81048387 0.69285572 0.34019232
0.72113961 0.70736575 0.33921492
0.71914852 0.71601886 0.33984342
0.76916528 0.67333317 0.34103101
0.78065807 0.67275482 0.34157056
0.80214775 0.67871797 0.3407256
0.80503416 0.67857277 0.34086111
0.7934882 0.67915374 0.34031901
0.75014716 0.68279684 0.34078115
0.75303358 0.68265152 0.34091666
0.75592011 0.68250644 0.34105223
0.75880671 0.68236107 0.34118772
0.76169312 0.68221581 0.34132323
0.72499734 0.69157445 0.34052798
0.72789532 0.69142854 0.34066403
0.73079324 0.69128263 0.34080011
0.73369122 0.6911369 0.34093615
0.73658901 0.69099104 0.34107223
0.73948693 0.69084531 0.34120828
0.74238485 0.6906994 0.34134433
0.72209954 0.69172019 0.34039193
0.72306001 0.70020443 0.3411245
0.72597128 0.70005786 0.34126118
0.82782227 0.7246933 0.3413299
0.79789716 0.67188728 0.34237996
0.7950241 0.67203188 0.34224504
0.7790122 0.68134439 0.34213635
0.81335133 0.69418615 0.34284538
0.72109562 0.70884943 0.34174278
0.81907839 0.7095021 0.34199378
0.71910423 0.71750933 0.34238273
0.82341492 0.71784359 0.34293085
0.83221138 0.73305219 0.34230405
0.769122 0.67479092 0.34351444
0.77199513 0.6746462 0.34364936
0.77486843 0.67450166 0.34378427
0.78061467 0.67421252 0.34405404
0.78348798 0.6740678 0.34418896
0.78636116 0.67392331 0.34432384
0.76337552 0.67507994 0.34324467
0.76624864 0.67493546 0.34337956
0.80210418 0.68018246 0.34322053
0.80499071 0.68003702 0.3433561
0.74433059 0.68455178 0.34300509
0.74721712 0.68440652 0.34314066
0.75010359 0.68426114 0.34327614
0.75299007 0.68411601 0.34341168
0.75587666 0.68397075 0.3435472
0.75876313 0.68382543 0.34368271
0.72785157 0.69289869 0.34316888
0.73074955 0.6927529 0.34330496
0.72301614 0.70168138 0.34364086
0.72592741 0.70153487 0.34377757
0.72105163 0.71033317 0.34427065
0.71708596 0.72618401 0.34304452
0.79785401 0.67334497 0.34486347
0.78923428 0.67377865 0.34445873
0.79210758 0.67363399 0.34459367
0.79498076 0.67348957 0.34472856
0.76045913 0.67668211 0.3455933
0.76333225 0.67653763 0.34572822
0.74717361 0.68587083 0.34563565
0.75006026 0.68572563 0.34577119
0.73274118 0.68659717 0.34495804
0.73562759 0.68645209 0.34509358
0.73851407 0.6863066 0.34522906
0.74140066 0.68616128 0.3453646
0.74428707 0.6860162 0.34550011
0.80903673 0.68734545 0.34447369
0.727808 0.6943689 0.34567377
0.8263216 0.71919227 0.3456203
0.77195191 0.67610389 0.3461329
0.77482516 0.67595935 0.34626782
0.77769828 0.67581469 0.34640267
0.78057146 0.67567015 0.34653759
0.7834447 0.67552555 0.34667251
0.78631794 0.67538089 0.34680736
0.78919107 0.67523628 0.34694225
0.79206431 0.67509174 0.34707713
0.76620549 0.67639315 0.34586307
0.76907879 0.67624843 0.34599799
0.80494726 0.68150145 0.34585112
0.75294667 0.68558043 0.3459067
0.75583321 0.68543512 0.34604225
0.7587198 0.68528986 0.34617779
0.81189108 0.68866974 0.34711459
0.8089931 0.68881553 0.34697855
0.81760454 0.70399302 0.34627399
0.71808314 0.71196395 0.34666124
0.83069748 0.727552 0.34659377
0.80068392 0.67465818 0.34748185
0.79493755 0.67494714 0.34721205
0.79781073 0.67480266 0.34734693
0.76041585 0.67813987 0.34807679
0.76328903 0.67799532 0.34821168
0.76616228 0.6778506 0.34834656
0.76903546 0.67770612 0.34848148
0.74713022 0.68733531 0.34813067
0.75001669 0.68719 0.34826615
0.75290322 0.6870448 0.34840173
0.7557897 0.68689948 0.34853724
0.72981119 0.68820679 0.34731749
0.73269778 0.68806165 0.347453
0.7355842 0.68791616 0.34758857
0.73847067 0.68777114 0.34772408
0.74135721 0.68762583 0.34785959
0.74424374 0.68748039 0.34799513
0.72196859 0.69613075 0.3479065
0.72486651 0.6959849 0.34804255
0.72001731 0.70478165 0.34853694
0.82192785 0.71233517 0.34721041
0.71607798 0.72063816 0.34732357
0.71404606 0.7293269 0.34800765
0.80064064 0.67611557 0.34996536
0.77190864 0.67756152 0.34861639
0.77478182 0.67741686 0.34875128
0.75867623 0.68675429 0.34867278
0.76156276 0.68660903 0.34880829
0.72688127 0.68981647 0.349677
