# .PCD v0.7 - Point Cloud Data file format
VERSION 0.7
FIELDS x y z rgba
SIZE 4 4 4 4
TYPE F F F U
COUNT 1 1 1 1
WIDTH 1140
HEIGHT 1
VIEWPOINT 0 0 0 1 0 0 0
POINTS 1140
DATA ascii
0.085548647 0.40933374 0.034212768 9671840
0.087413654 0.41195682 0.034002483 9211807
0.089426994 0.41462573 0.033648252 9408924
0.089064047 0.41739929 0.035012662 8948885
0.090875007 0.41871965 0.034344316 8751510
0.092585795 0.42333871 0.033943534 8291479
0.094306558 0.42623627 0.033263862 6383997
0.096497975 0.42719701 0.033060372 5857127
0.09771581 0.43001461 0.033777416 4148311
0.20948595 0.61564076 0.023225963 3947356
0.21076289 0.61762452 0.022346079 4540269
0.21278158 0.61884826 0.02217418 2501451
0.21350634 0.62146389 0.02036798 2895953
0.21823198 0.62665528 0.021973431 3551542
0.21988007 0.62798685 0.021798372 1775391
0.078638099 0.40312365 0.032888532 9935008
0.079953961 0.40653044 0.033516586 9934752
0.081857465 0.40822637 0.034032464 9672096
0.082729615 0.41113383 0.034045517 9277342
0.084898837 0.4134509 0.033439159 9803166
0.086737856 0.41564703 0.033334672 9211548
0.087697044 0.41848233 0.033351004 9080217
0.089144856 0.42190778 0.032849789 8948630
0.090781383 0.42397022 0.032041252 8751249
0.092850693 0.42622578 0.032006383 7567230
0.093795553 0.4300361 0.032838941 4936033
0.095894389 0.43135005 0.033030987 4278876
0.21086958 0.62405545 0.021253228 4277096
0.21342894 0.62642324 0.020230651 2501186
0.21591678 0.62690365 0.020230353 1381687
0.075103715 0.40566942 0.033029139 8948895
0.077384599 0.40712452 0.032857478 9737632
0.080112986 0.41263837 0.032944858 9934493
0.081550591 0.41557041 0.032907546 9803162
0.083592728 0.41747391 0.032586157 9737370
0.084770069 0.41992149 0.031591952 10262681
0.087029658 0.42268181 0.031647384 9276823
0.087487698 0.42567539 0.0319947 7633545
0.089937299 0.42788571 0.031734049 6515063
0.092354067 0.42969999 0.032162726 5528429
0.073043466 0.40270332 0.031057537 10526111
0.073869437 0.40600333 0.031945109 9343134
0.0749887 0.40705553 0.031520605 10460319
0.076168872 0.41088399 0.03210783 10394526
0.078152917 0.41292235 0.032473683 9606301
0.085606225 0.42675829 0.030000985 9868179
0.087713346 0.4274826 0.03021419 9407881
0.088955984 0.43115386 0.030764699 6447204
0.21245727 0.63278699 0.01881361 1908535
0.069794849 0.40477252 0.030206859 9343129
0.071232617 0.40696669 0.030404031 10131612
0.08291892 0.42534378 0.029986799 10197400
0.065420181 0.40360823 0.02848959 9211025
0.067406729 0.40566489 0.029190361 9277588
0.063400626 0.40511537 0.027623236 8751504
0.065075427 0.40742245 0.028036416 9933970
0.059709102 0.40294233 0.026922941 9276564
0.061649695 0.40635589 0.027314484 9670799
0.25038585 0.42093474 0.10522759 7042732
0.2536678 0.42561826 0.10422915 2962778
0.25472966 0.42604163 0.10545212 6976942
0.2513963 0.42502531 0.10415334 6187680
0.2528272 0.42645395 0.10575724 4935791
0.25509718 0.43274578 0.10472298 4275523
0.24720132 0.42590317 0.10206735 6576149
0.2489389 0.42695901 0.1029011 6710899
0.25030613 0.43064073 0.10312766 4670522
0.25192553 0.43141389 0.10311788 4933944
0.24550398 0.42516014 0.10277033 5596322
0.21087974 0.47237229 0.071167886 6382179
0.20916578 0.47117352 0.070933044 6842211
0.23872344 0.52182871 0.066273153 5860235
0.20389065 0.47078425 0.06960547 5461602
0.20625618 0.47291797 0.068574846 6842453
0.20683703 0.47459349 0.069195092 6120306
0.20790976 0.47773862 0.068028986 5264482
0.23689166 0.52285743 0.066827655 6189474
0.23827603 0.52547836 0.065941751 5860481
0.20182201 0.47119233 0.068142891 5593436
0.20352167 0.47302806 0.06889379 6514792
0.23697698 0.52758449 0.066418171 5729159
0.1956939 0.46810225 0.066858113 3421996
0.19791639 0.47018525 0.066801667 4343357
0.20014597 0.47111851 0.067510128 5132876
0.20018587 0.4753764 0.066626549 7235149
0.20248225 0.47728524 0.066034257 6971480
0.20459116 0.48047799 0.067388415 4804717
0.23621772 0.53105664 0.063859344 5399930
0.23460121 0.5339126 0.063849032 5598083
0.19198783 0.4671019 0.065373123 2172457
0.19394237 0.46874145 0.0656268 3487272
0.19603816 0.47052357 0.065782011 4736558
0.19733423 0.47363687 0.066362798 7366477
0.23561886 0.53546959 0.06299454 5400186
0.2594066 0.57653838 0.057851672 527644
0.18823224 0.46504766 0.064371943 2699341
0.19041649 0.46737063 0.064675927 2829607
0.19184774 0.46959665 0.064520597 3749915
0.1943499 0.47249007 0.063872695 5128992
0.19478279 0.47396478 0.065512896 7235150
0.19663864 0.47827816 0.062440395 6250336
0.25433883 0.57238096 0.058319449 527642
0.25616571 0.57442778 0.057879806 527642
0.25678688 0.57779258 0.058093607 527643
0.25849527 0.5804252 0.05775708 527645
0.18460485 0.46418151 0.062991023 4607347
0.18598253 0.467455 0.063159287 3750728
0.18825734 0.46787345 0.063880682 3421752
0.18862335 0.47145215 0.062785745 4602390
0.1917038 0.47354126 0.062894225 4605247
0.19336195 0.47609699 0.063211799 6250335
0.1947099 0.4770053 0.062703907 6316128
0.24922709 0.56919897 0.056024253 1841705
0.25140885 0.57429284 0.05561626 1447988
0.25272113 0.5760628 0.055442095 1973546
0.1797643 0.46347848 0.062797248 5265276
0.18203031 0.46498242 0.061981022 5528445
0.18401498 0.46686104 0.062624395 4474970
0.18532914 0.47110873 0.061776698 4209986
0.18760651 0.47220707 0.061811268 3685198
0.24830003 0.57329184 0.055291474 1447476
0.24970762 0.57442814 0.054793 1053746
0.25106913 0.57765299 0.055456698 1185070
0.25189453 0.57996869 0.055547357 1447718
0.25392067 0.58300585 0.054424822 1842471
0.25608143 0.58503461 0.054132998 1579557
0.25726861 0.5875566 0.053836405 922402
0.25799298 0.59136122 0.054293931 1448229
0.26010564 0.5930351 0.053783059 1514026
0.17852101 0.46400842 0.060582757 6647448
0.18022108 0.46548423 0.061787903 6185599
0.18088828 0.46938995 0.060075402 5790858
0.18298772 0.47041017 0.060096979 5722724
0.24774447 0.57706386 0.05493176 1184560
0.24914286 0.57837695 0.053863764 1382205
0.25069612 0.5808109 0.053524435 1250873
0.25190586 0.58362108 0.053711891 1053999
0.25389212 0.58593035 0.053664267 1382447
0.25424773 0.58922511 0.053428292 1185324
0.25646394 0.5915451 0.052996397 1053999
0.25810677 0.59554923 0.053973556 1514287
0.25968707 0.59666985 0.053497076 1514287
0.26085335 0.59858263 0.054234326 1120309
0.17452982 0.46330887 0.060322583 6779295
0.17603955 0.46430844 0.059062004 7174051
0.17734092 0.46878186 0.058269203 7371173
0.17968407 0.4694154 0.059366405 6710655
0.24786973 0.58265954 0.053772569 1053754
0.25137228 0.58811563 0.053245187 1119797
0.25310275 0.59289259 0.052746058 1120050
0.25541502 0.59591556 0.051353395 1448504
0.25827199 0.59704411 0.051247656 1579832
0.25872493 0.6006524 0.051538825 1580089
0.26070172 0.60132307 0.051487207 1711162
0.26111698 0.60495943 0.05186671 1777209
0.16998348 0.46260816 0.058573723 6451362
0.17260949 0.46373412 0.057838261 6845861
0.17319846 0.46823186 0.05792737 7502502
0.17538948 0.46847934 0.057874918 8027552
0.17747346 0.46951103 0.058093786 8026257
0.254491 0.5997014 0.051398873 1448504
0.25626424 0.60071826 0.05115056 1579832
0.2586689 0.60512638 0.051338434 1711160
0.16833092 0.46321407 0.057791412 7043237
0.17032483 0.4640308 0.055775821 6977701
0.17175789 0.46771029 0.056506634 7962787
0.16599321 0.46350253 0.055837274 6977444
0.16819674 0.46691063 0.055540383 8290979
0.16238266 0.46304217 0.054721415 6977444
0.16504104 0.46357515 0.053899586 7240614
0.16535115 0.46713918 0.053955376 7700131
0.15997879 0.46367979 0.052543223 6451618
0.16181372 0.46654981 0.053222954 7765666
0.1637398 0.46698308 0.05260247 8487584
0.15689972 0.4631941 0.051010489 6714531
0.1594294 0.46685064 0.05099982 7503010
0.12250365 0.41296062 0.052742362 9409687
0.12413185 0.41495711 0.051724672 8883602
0.15406822 0.46320534 0.049859107 6582945
0.15523054 0.46656436 0.050248265 7634081
0.23467085 0.5985285 0.041982114 988476
0.11976759 0.41165262 0.052050829 9869723
0.12092587 0.4135119 0.050820291 10001567
0.15041052 0.46356922 0.04914993 6582688
0.15203173 0.46550488 0.049337566 7108256
0.11632431 0.41242394 0.049548447 9803931
0.11824323 0.41615316 0.050594628 9475485
0.12015117 0.41771674 0.050432086 9672348
0.12101319 0.4207935 0.050467849 8621215
0.12277869 0.42282051 0.049631 8095654
0.12434341 0.42535058 0.048397958 8029868
0.13544968 0.44342434 0.047792673 7503006
0.13677467 0.44556922 0.047485828 6253453
0.13818148 0.44694352 0.047534168 5793413
0.14783256 0.46434575 0.047693372 6779549
0.14962816 0.46619895 0.046962261 7305119
0.1150644 0.41484731 0.04886502 10001570
0.11592987 0.41671464 0.049375534 9804195
0.11675296 0.41944665 0.049876332 10921380
0.11877518 0.42163041 0.049136639 10395295
0.12077591 0.42429942 0.048459947 9212573
0.12244225 0.42659235 0.048874021 8358820
0.12406664 0.42986935 0.048174322 8490410
0.12470289 0.43231955 0.047609568 8621994
0.12690783 0.43398911 0.047478974 8293295
0.12794359 0.43670556 0.046999514 8293547
0.12944065 0.43991473 0.046910703 8358824
0.13160545 0.44175464 0.047263682 7700907
0.13303608 0.44419682 0.046633661 7700382
0.13570678 0.44952703 0.046000004 6779544
0.14362426 0.46366349 0.045440733 6319772
0.14580669 0.46422011 0.046229959 6385566
0.14673233 0.46712089 0.045361996 7240097
0.11144399 0.41486081 0.046584725 8422807
0.11344974 0.41794226 0.047968149 10132903
0.11423714 0.41940254 0.049046636 11118760
0.11839993 0.42700779 0.048060417 10329765
0.1199539 0.42808703 0.046623409 9935013
0.12175795 0.43065259 0.048103809 8753308
0.12249503 0.43353307 0.045954406 9475747
0.12502491 0.43510804 0.047058344 8753571
0.12591717 0.43826145 0.047341406 8556200
0.12740712 0.44133735 0.046119988 9015463
0.12868345 0.44380298 0.04644537 8752804
0.13099575 0.44589248 0.046801209 7766176
0.13284025 0.44799495 0.046116769 7371157
0.13449153 0.45077243 0.04599303 6056326
0.13630819 0.45334038 0.045345724 6121862
0.13742572 0.45618466 0.044501901 5990281
0.13776083 0.45869529 0.043846428 5727371
0.13987195 0.46150124 0.04413569 6319509
0.14123198 0.46405494 0.045317769 6056601
0.14369377 0.46662644 0.044755042 7436703
0.11194915 0.41790664 0.045831442 8490402
0.11328772 0.4220081 0.047701418 10264485
0.11989082 0.43135917 0.045839608 10001319
0.12012553 0.43486878 0.046182632 10395818
0.12186311 0.43625763 0.045914114 10330025
0.12406784 0.43907779 0.044936538 10198440
0.12509963 0.44270694 0.045580626 10132906
0.12684762 0.44352147 0.045612395 9935275
0.1276035 0.44922325 0.044800997 8751003
0.1296629 0.45088157 0.044470549 8290451
0.13068148 0.45364201 0.044818938 6056085
0.13202457 0.45576766 0.044374943 6056077
0.13439849 0.45731094 0.043846905 6056084
0.13599885 0.46014443 0.044306397 6122128
0.13836733 0.46270555 0.044584751 5925013
0.13900433 0.46630701 0.044673383 6780067
0.140834 0.46679533 0.043333888 7174048
0.20562568 0.57562554 0.035887837 5927310
0.10701239 0.41988671 0.044460893 8422808
0.12600729 0.44797704 0.04497093 9013921
0.130045 0.45360655 0.042974412 7895945
0.13118048 0.455116 0.042524695 7566722
0.13167828 0.45859492 0.042083561 6844303
0.13353863 0.46161717 0.041970968 6121886
0.13558638 0.46400166 0.041914225 6253729
0.13741192 0.46625218 0.042258561 7304861
0.10834805 0.4239749 0.04410702 9869990
0.12940837 0.45902678 0.042905569 6056346
0.13125253 0.46341094 0.03991884 7369096
0.13310003 0.46550152 0.04173857 7041690
0.20517106 0.58381766 0.034053028 5070989
0.20681992 0.58433408 0.033967495 4807311
0.20700745 0.58840293 0.033055902 4412037
0.10320257 0.4206931 0.040772378 6515847
0.10558163 0.42325637 0.041196108 10131090
0.10684329 0.42380023 0.041559875 8949662
0.12441738 0.45762405 0.041228354 7369094
0.12555277 0.45913365 0.040778697 7172224
0.12755001 0.46144661 0.039987266 7303556
0.12888911 0.46506599 0.040651858 7435151
0.13109796 0.46561724 0.040963411 7500944
0.20757574 0.59151411 0.032403111 3951225
0.20771994 0.59447217 0.031410992 3359078
0.10233811 0.42527479 0.04200542 8028315
0.10381554 0.42623997 0.039836228 5662071
0.10400151 0.42935711 0.040962577 7898010
0.20731685 0.59667367 0.030822873 3556199
0.20788595 0.59940869 0.030422091 2832210
0.20907193 0.60017776 0.028870523 1646389
0.084074177 0.40301549 0.040632248 7830932
0.086668916 0.40566844 0.038854659 7633299
0.088139482 0.40804437 0.038668454 7567762
0.0900767 0.41118851 0.038436532 7501968
0.091528557 0.41357851 0.038294375 7567503
0.10027999 0.42429513 0.039969504 6252674
0.1005002 0.42933694 0.038347363 9801875
0.10235156 0.42999053 0.0387007 8818078
0.20785335 0.60259593 0.029508293 2239554
0.20879683 0.60520291 0.028477252 1712695
0.20873073 0.60762709 0.028508961 1580851
0.21694551 0.61997718 0.028530717 1449015
0.084595099 0.4070099 0.039244533 7567761
0.086072788 0.40944257 0.039099872 7567763
0.087517463 0.41177586 0.038916171 7567500
0.08945471 0.41492009 0.038684249 7436174
0.090880588 0.41726735 0.038544655 6647173
0.092332393 0.41965738 0.038402557 5134451
0.093784191 0.42204738 0.03826046 3884903
0.095235988 0.42443737 0.038118362 3752799
0.097154446 0.42759559 0.037930608 4081249
0.099647313 0.43271196 0.037138343 5595767
0.20956634 0.61085486 0.026309907 2106174
0.20918866 0.61358094 0.026924551 1777471
0.21372332 0.6202178 0.025272012 1975349
0.21604109 0.61999708 0.025535524 1317428
0.082193732 0.40706891 0.036392748 9146261
0.08377286 0.41113067 0.036113143 8948885
0.08629971 0.4112637 0.036579549 8948885
0.09613055 0.431252 0.03576678 7038561
0.097131126 0.43331572 0.037347972 8881287
0.1004812 0.43640795 0.036884367 9870499
0.20796932 0.61371201 0.024552584 1973300
0.20996368 0.61550003 0.025738358 2304073
0.21083009 0.61765283 0.025479317 2435654
0.21232519 0.61923635 0.026008189 2238275
0.076310769 0.40412468 0.036128223 8291219
0.07934726 0.40734196 0.035548151 9146006
0.082192771 0.41034183 0.036257863 8883349
0.082710825 0.41513148 0.035408735 8948630
0.085751787 0.4159216 0.0354321 8883093
0.08692532 0.42151093 0.034041524 8882840
0.089970283 0.42643359 0.033658862 6909835
0.09316197 0.42891058 0.035021782 4871279
0.094397016 0.43236077 0.034733534 5463405
0.096195869 0.43473297 0.033895552 5397866
0.097046159 0.43707475 0.035664201 6450044
0.2063165 0.6162768 0.025185585 1578800
0.2074112 0.6186111 0.024399817 2172220
0.20959949 0.62015265 0.023425341 3618656
0.074039698 0.40472707 0.033895075 9014678
0.076808117 0.40743938 0.034889936 9080470
0.078924716 0.41086227 0.035268426 9080215
0.078740627 0.41344559 0.034142554 8751514
0.080724962 0.41504884 0.034420431 8751512
0.082538515 0.41803181 0.033168077 8619675
0.084204696 0.42048788 0.033700109 8751512
0.087086529 0.42706627 0.032570779 7304591
0.090006068 0.43144381 0.033168554 5068397
0.091974311 0.43355459 0.033342481 5199204
0.093480997 0.43624663 0.033980608 5265249
0.2078595 0.62333554 0.023711562 2631239
0.20814221 0.62724066 0.021345198 4145252
0.20972422 0.62837338 0.021091878 4408427
0.21162638 0.62976336 0.02055341 3751005
0.073156305 0.40851086 0.033335626 8948887
0.076129198 0.41165566 0.033185542 9211803
0.075502172 0.41474342 0.034050822 9014681
0.078891695 0.41586113 0.03230685 10262939
0.079902761 0.41965404 0.033031583 9146008
0.081854582 0.42177027 0.031915367 9409176
0.083724625 0.42445618 0.032649696 8554390
0.084803842 0.42734799 0.032378316 7172997
0.086463138 0.42957455 0.032527387 5528952
0.087341227 0.43294966 0.032648981 5068650
0.08932326 0.4349463 0.032621562 5592927
0.091833182 0.43701941 0.03369081 4936036
0.20894252 0.63247371 0.02098459 4145255
0.21178839 0.63433611 0.020301163 2632522
0.21271139 0.63710237 0.020097613 1908540
0.067594469 0.40321568 0.031294167 8685972
0.070618331 0.40566695 0.032480657 8817302
0.070406705 0.40922937 0.032107532 8028049
0.072765082 0.41097316 0.032329977 9540248
0.073194087 0.41210261 0.031077802 9211804
0.075324446 0.41661999 0.031284153 9934491
0.076626748 0.41847289 0.031419039 9540250
0.077617511 0.42145008 0.03151691 8685722
0.079595402 0.42322761 0.030717671 9671320
0.081489578 0.42629707 0.031415761 7962506
0.082804024 0.42923212 0.031155229 7501444
0.084251314 0.43103868 0.031007886 6514547
0.08560963 0.43317351 0.031529963 5593700
0.086361974 0.4367092 0.031688511 6446688
0.065069631 0.40408468 0.030623376 7699598
0.067223772 0.40698725 0.030843556 7896462
0.067584813 0.41003025 0.030539453 7896465
0.069873333 0.41148034 0.030429184 9014165
0.070138931 0.41480967 0.030616224 8750993
0.072806776 0.41639781 0.030397058 9934748
0.07450293 0.41892773 0.031163633 8751256
0.075940639 0.42252448 0.02949965 10262681
0.078619689 0.42747906 0.029857039 9079949
0.080608159 0.43009812 0.030512035 7041149
0.082172036 0.4330005 0.029952824 7039341
0.062035277 0.40602589 0.030300796 7830925
0.064100251 0.40816817 0.029630125 8225422
0.065412834 0.4108279 0.029056251 8488077
0.06727618 0.41325915 0.029476166 7764875
0.068795174 0.4162409 0.029136837 9671572
0.070143163 0.41812855 0.029336691 8554133
0.071356654 0.42140865 0.028923512 10262681
0.07286185 0.42307499 0.028977513 9868439
0.075003982 0.42555359 0.029497206 9343130
0.076542959 0.42831403 0.02859509 9736850
0.078768566 0.4322761 0.029301465 7828599
0.059907481 0.40656826 0.027864516 9014419
0.06159015 0.40948701 0.027743161 8685457
0.063222066 0.41156304 0.027837873 8948111
0.064604938 0.41515011 0.028078496 9079693
0.06663622 0.41707531 0.028009892 8619662
0.068793178 0.42229754 0.028192163 9079691
0.073606566 0.42721105 0.028319299 10131097
0.076022193 0.43236369 0.028331876 7959920
0.054935262 0.40334252 0.027046561 9737629
0.057067379 0.40536296 0.026850879 9540250
0.057684436 0.40787479 0.027126431 9671834
0.058726519 0.41076845 0.027329326 9146007
0.060453519 0.41371557 0.026561081 8225428
0.062245697 0.41602936 0.026644528 8750734
0.064200819 0.41685379 0.026987731 8027789
0.065718263 0.42156866 0.027210176 8948104
0.066245049 0.42347214 0.02716893 6975356
0.068702132 0.42649511 0.027253211 9933197
0.053087294 0.40402803 0.026789904 10000290
0.054329678 0.40745521 0.02668196 9671840
0.056986421 0.40985557 0.026709437 8685979
0.058452338 0.41514838 0.026273429 9736852
0.062767699 0.42216215 0.025766492 8553098
0.060056001 0.42110261 0.025232852 8487826
0.2520974 0.4255507 0.10675293 7107495
0.25382495 0.42713475 0.107696 4672099
0.24772725 0.42154789 0.10610968 6119788
0.24899225 0.42277181 0.10710794 6975099
0.25007057 0.42669514 0.10677248 5921921
0.25335273 0.43228737 0.10480601 4011560
0.24522731 0.42228493 0.1057744 4540203
0.24523161 0.42592624 0.10597759 5855824
0.2475197 0.42689314 0.10554904 6054016
0.24932678 0.43003827 0.10531801 3947079
0.25170618 0.43194753 0.10591203 2893107
0.24236935 0.42411077 0.10383683 5068139
0.24415442 0.42636725 0.10436022 5790056
0.24558082 0.42924604 0.10350841 5195577
0.24745074 0.4307256 0.10362214 4867129
0.2426303 0.42766702 0.1037516 5392957
0.23737897 0.52454638 0.068687022 6057889
0.20091201 0.47295001 0.069688082 6647678
0.2012684 0.47431055 0.070596159 5792635
0.20321529 0.47688365 0.068738163 6186887
0.23506735 0.53072935 0.066304624 5729430
0.19680268 0.47135395 0.069036186 6318188
0.1985051 0.4727211 0.069620192 6844280
0.20088306 0.47665927 0.068723261 4471856
0.19078438 0.46777105 0.068271697 4607301
0.19350761 0.46969289 0.067828476 5264720
0.19415297 0.47171706 0.068563581 6909806
0.19662432 0.47485805 0.067823887 6380608
0.19858491 0.47638232 0.068173409 4735035
0.23438317 0.53840393 0.064253628 5598081
0.18779154 0.46529141 0.067418754 3423033
0.18987773 0.46798632 0.06657213 4277295
0.19028872 0.47060144 0.0674631 6448989
0.19249469 0.47376141 0.066302657 7432796
0.19412434 0.47493964 0.067300737 6972496
0.18132639 0.46377948 0.066083431 2832192
0.18386276 0.4646484 0.065725565 3094337
0.1853615 0.46807027 0.065190554 4146226
0.18770233 0.46868744 0.06599009 4803639
0.18815291 0.47260892 0.065614641 7432784
0.18957642 0.47406349 0.065210521 6645095
0.19180392 0.47711921 0.064488649 6514031
0.25232437 0.57616264 0.058977962 527387
0.25415441 0.57894576 0.058475554 461851
0.25466722 0.58248645 0.058568418 527643
0.25744453 0.58451337 0.057652533 527644
0.25964195 0.58595657 0.058071911 593181
0.25903851 0.5895083 0.058441281 593436
0.17758097 0.46246344 0.064795315 3883098
0.17915393 0.46385106 0.064796865 3422290
0.18122602 0.46528402 0.06409055 3883343
0.18334404 0.46773472 0.064552248 3883316
0.18351072 0.47169033 0.063818753 5592132
0.18604977 0.472249 0.06434375 5855827
0.24852559 0.57508051 0.057139933 1775658
0.24979329 0.57698768 0.056846559 1842228
0.25117832 0.58047444 0.058705091 527644
0.25530672 0.58682126 0.057877719 593180
0.25685447 0.58800656 0.058159411 527900
0.26050743 0.59646195 0.058384418 659231
0.17510504 0.46339822 0.063105285 4738417
0.177039 0.4648737 0.06334573 4803680
0.18020493 0.47016144 0.062785327 4408390
0.18214914 0.4708969 0.063491762 4803398
0.24830693 0.57989722 0.057101071 1645105
0.24894828 0.58304906 0.055579484 1908015
0.25034297 0.58498538 0.055104434 1908266
0.25482368 0.59282762 0.054461122 2039592
0.25665608 0.59529763 0.054625332 1053986
0.25913548 0.59745961 0.054577589 1054249
0.26102513 0.60279292 0.054554284 1119787
0.17161715 0.46249673 0.061568558 5989782
0.17333238 0.46315515 0.062579513 5988741
0.17646967 0.46909079 0.06146127 5329514
0.17730317 0.46977076 0.062694192 5393206
0.2471948 0.58416373 0.054441631 987435
0.24855931 0.58651453 0.05422765 1185077
0.25000682 0.5884586 0.05442363 1513771
0.25195426 0.59127414 0.054187238 1448237
0.25476703 0.59544176 0.053511798 988461
0.25554746 0.59912336 0.054047346 1185579
0.25789234 0.60162926 0.054044425 1317166
0.26016524 0.60343552 0.052965283 2171178
0.25987077 0.60704243 0.05380708 1185842
0.16987416 0.46287337 0.060933888 6713244
0.17275164 0.46804878 0.060135424 6645647
0.17530629 0.46895301 0.06006664 6775412
0.24668995 0.5878529 0.053205192 922680
0.2476016 0.59025133 0.053925157 1119798
0.24960977 0.59226811 0.053355157 1119797
0.2509985 0.59497428 0.053453743 922930
0.25234765 0.59810388 0.053372562 1645359
0.25464043 0.6018641 0.053832054 1054518
0.25661066 0.60535711 0.052908838 1776944
0.25891873 0.60858977 0.052042246 2039858
0.26075464 0.61027014 0.05210036 1777205
0.16587093 0.46196571 0.058953345 6319778
0.16707021 0.46255541 0.060106397 6976930
0.16874114 0.46680129 0.05992049 7435421
0.17121911 0.46753359 0.059458613 8091535
0.24728137 0.59469879 0.053205669 1447996
0.24899235 0.59620464 0.052662253 1382710
0.25044587 0.59762752 0.052035749 1448244
0.25054571 0.60268903 0.0514884 1513783
0.25344029 0.60378939 0.051294267 1514296
0.25553429 0.6088385 0.051202953 1711160
0.25707829 0.61278087 0.05151242 1842747
0.25903061 0.61325526 0.051852405 2105650
0.26105666 0.61957151 0.050706625 1843006
0.16333356 0.4622412 0.05835259 6845858
0.16466954 0.46616763 0.058239043 8750238
0.16690102 0.46673703 0.058101475 8093600
0.16891295 0.467527 0.057460725 7437478
0.24182881 0.59027421 0.051160395 1054264
0.2525951 0.60787529 0.051277876 1711160
0.15903848 0.46211666 0.057697475 6845857
0.16105473 0.46261337 0.05709517 6845858
0.16307797 0.46595237 0.056583166 8290977
0.16458985 0.46685022 0.057082415 7437477
0.15504707 0.46031535 0.056572139 7240099
0.15735549 0.46158391 0.055679023 6977186
0.15932246 0.46465957 0.056406081 7371425
0.15992159 0.46616322 0.054975331 7634339
0.15314581 0.46157005 0.054307878 6780065
0.1553873 0.46293044 0.054111838 6188447
0.15639597 0.46558881 0.053629935 7765409
0.15006575 0.46063191 0.054352701 7108769
0.15099373 0.46229899 0.052462578 6582687
0.15230426 0.46487403 0.052512944 7108257
0.14749634 0.46049023 0.053304732 7042976
0.14855289 0.46345502 0.051566362 6714017
0.15020031 0.46532473 0.051899254 8290460
0.14230928 0.46047759 0.051328778 6976925
0.14572674 0.46214452 0.049912691 6648478
0.14670943 0.4648869 0.051232934 8158875
0.14905119 0.46667391 0.049056888 7042980
0.11485817 0.41778949 0.049936712 9803930
0.1174193 0.41983384 0.050715983 9541022
0.11844318 0.42187271 0.050805449 9146781
0.11936595 0.42650208 0.049424589 9015964
0.12087127 0.42898965 0.049500704 9279153
0.14128213 0.46181911 0.0476349 6911389
0.14313832 0.46397868 0.049719453 7041946
0.14434005 0.46635172 0.047721446 7502239
0.14648706 0.4669005 0.048346996 6977444
0.11466575 0.42084667 0.050128698 9803931
0.1155356 0.42376316 0.049939632 9541021
0.11716588 0.42582238 0.049406826 9147040
0.11926669 0.42849889 0.049483657 8490151
0.12124558 0.43099219 0.048910201 8819113
0.12287802 0.4335115 0.048520803 8359086
0.12362411 0.43667278 0.048229635 8687792
0.12489317 0.43973893 0.047738254 9082034
0.12673382 0.44227934 0.047204256 8818610
0.12813063 0.44587046 0.046996653 7832224
0.13712569 0.46066451 0.047818959 6779801
0.13914326 0.46232021 0.047018707 6451097
0.14149392 0.46465668 0.047275901 7041946
0.1415249 0.46703577 0.047212303 6780067
0.11194082 0.42258269 0.048530996 9475485
0.11349259 0.42462146 0.048429787 10329763
0.11555441 0.42858857 0.04951781 8226202
0.11655299 0.43056718 0.048662663 8226202
0.11804881 0.43257287 0.047925472 8949413
0.11940853 0.43521079 0.048222065 8358055
0.12123954 0.43759352 0.047233999 9015717
0.12324086 0.44045475 0.047166467 8884391
0.12478057 0.44277817 0.047460258 7109291
0.12591451 0.44542447 0.046903312 7174816
0.12763149 0.44927663 0.045984745 6385042
0.12830916 0.45057923 0.045915604 6253458
0.13022038 0.45253292 0.045428276 5924488
0.13485664 0.4616107 0.04547739 6319509
0.13695291 0.46306753 0.04607594 6056598
0.13867155 0.46626905 0.046544194 7108256
0.20866257 0.58342195 0.038437963 5399964
0.10900781 0.42102385 0.046533406 9672348
0.11046467 0.42574093 0.048144698 9541277
0.11372953 0.42979527 0.047225773 9671832
0.11421898 0.43106976 0.0480479 7240080
0.11523451 0.43474057 0.047256529 8554648
0.11742196 0.43676573 0.046524227 10000805
0.11798982 0.44069052 0.046744943 8488863
0.11968442 0.44195497 0.046573222 8686243
0.12187445 0.44459876 0.046419144 8160163
0.12345131 0.44719428 0.046085656 7174043
0.12465457 0.44981974 0.045395017 6910876
0.12776858 0.45217803 0.044951022 6385054
0.12886041 0.45793092 0.044492662 5596044
0.13108364 0.46015599 0.044533014 6056336
0.13332541 0.46203554 0.044860899 5859219
0.13445109 0.46609348 0.043823421 6648483
0.13655065 0.46626383 0.044492602 7305373
0.10845765 0.42582905 0.044885218 9212576
0.10886127 0.42609137 0.045539677 11184294
0.11085282 0.43059254 0.046352565 8423062
0.11179104 0.43566993 0.04543972 8619146
0.1158787 0.44015351 0.046357274 8159897
0.11801494 0.44296831 0.046559989 6648219
0.11931293 0.44462484 0.046302557 7042973
0.12213492 0.45023322 0.045324028 6582175
0.12423939 0.45307302 0.044637263 5464197
0.12576431 0.45654115 0.043866515 5661322
0.12759382 0.45822442 0.043709695 6121870
0.12781268 0.46105653 0.04497844 5727633
0.13018864 0.46382561 0.042919934 6319265
0.13233986 0.46588299 0.043671668 7435929
0.20637612 0.58980739 0.035775483 4939158
0.20750195 0.59188789 0.036951721 5136795
0.22287136 0.61602044 0.034347057 1317683
0.10435845 0.42628258 0.04412967 9343900
0.10628995 0.42789626 0.045683801 9212572
0.10752977 0.43057126 0.044228733 9606558
0.1099786 0.43368942 0.044845402 8225679
0.1129896 0.4403072 0.04504174 7370895
0.11814082 0.45021498 0.044112086 6910100
0.11951947 0.45224428 0.04323262 7304081
0.12231998 0.45450404 0.04367727 6384269
0.12307811 0.45612931 0.041813135 7566474
0.1261968 0.46196142 0.042701304 5990552
0.12872756 0.46474856 0.043514729 7041690
0.20652419 0.59230781 0.034024596 4741773
0.20643583 0.59586734 0.033874691 4412551
0.20749104 0.59739619 0.032931805 4148593
0.10309888 0.42970234 0.041487873 10723487
0.10733429 0.43393543 0.043642402 8686228
0.10765187 0.43745339 0.04299897 8618631
0.10978298 0.44132131 0.043129027 7173513
0.12269014 0.46156618 0.04127872 6186114
0.12448698 0.46424741 0.041021049 7369610
0.12645298 0.46499491 0.041166782 7566737
0.20644012 0.59950846 0.034077883 4412036
0.20727566 0.6009264 0.032963574 4016498
0.10290445 0.43389395 0.041035295 9211798
0.10525201 0.43734956 0.042350829 8815239
0.10561542 0.43975544 0.042193651 6844293
0.10697265 0.44188559 0.041640937 7173253
0.11642893 0.45790234 0.041138649 7040132
0.11884755 0.45963624 0.040823817 6711681
0.12206326 0.46411169 0.041561723 6974597
0.20718294 0.60413289 0.030772746 3226971
0.20700771 0.60634089 0.031638145 3490148
0.081041142 0.40277791 0.04111594 7765140
0.082492955 0.40516791 0.040973842 7765142
0.08391884 0.4075152 0.040834308 7502227
0.08534468 0.40986252 0.040694773 7370898
0.086822413 0.41229522 0.040550113 7370129
0.1018278 0.43794864 0.039118767 8817810
0.10289992 0.44025564 0.040596485 6909829
0.20780686 0.60976863 0.029473245 1845055
0.20778725 0.61234689 0.0292871 2238787
0.21393359 0.62286627 0.02763325 1843516
0.078341447 0.4038935 0.040179193 7699089
0.079455175 0.40653613 0.040831983 7896466
0.080881029 0.40888348 0.040692389 7699091
0.08282543 0.41208437 0.040502071 7567504
0.084314771 0.41444626 0.04027164 7239303
0.086130269 0.41689545 0.039586067 6384257
0.087894619 0.41872096 0.03839767 5792641
0.089320511 0.42106831 0.038258135 4346987
0.091283686 0.4242551 0.038023651 4147557
0.092397347 0.42689776 0.038676441 4278365
0.093823269 0.42924508 0.038536906 4212828
0.09561944 0.43175638 0.03837055 5265518
0.097012348 0.43432719 0.039353669 8225944
0.09875226 0.43606749 0.038125336 7895939
0.10081484 0.43987492 0.039490879 7764098
0.20774126 0.61663294 0.02799952 1711935
0.2088981 0.61831248 0.027674675 1777465
0.21093246 0.62058985 0.027646363 1908545
0.21102799 0.62446636 0.027813554 1645634
0.076146133 0.40574917 0.039108396 7370635
0.085879691 0.42168286 0.038071036 4936554
0.086812973 0.42321932 0.037979662 4477789
0.088290691 0.42565194 0.037835062 4214110
0.089716583 0.42799923 0.037695467 4279395
0.096219786 0.43884671 0.036334574 6646900
0.097415693 0.44042304 0.037134826 7041142
0.098384179 0.44264671 0.037632525 6975354
0.20566034 0.61792701 0.026533186 2236722
0.20724264 0.61939144 0.025948226 1710891
0.2112565 0.62907982 0.026953936 1710906
0.21309233 0.6299395 0.026668966 1448762
0.08284191 0.42305112 0.037929118 4082024
0.083827093 0.42467287 0.037832677 4476782
0.085745536 0.42783105 0.037644923 4739681
0.086730652 0.42945284 0.037548482 4607840
0.091301128 0.43473834 0.035208523 5792127
0.092385925 0.43682253 0.036026537 5988984
0.093298718 0.43961689 0.035866261 5133666
0.095234491 0.44181499 0.036783636 5791336
0.20672819 0.62513566 0.024696171 1645878
0.20770369 0.62832654 0.023304403 2895948
0.21128435 0.63619947 0.024815977 1382968
0.083473429 0.42875132 0.035819829 4805474
0.088914461 0.43561375 0.034745336 5593966
0.090264201 0.43877554 0.034389973 5527136
0.092173673 0.43939942 0.034834087 6119271
0.093268439 0.44189036 0.035696864 7236197
0.20662415 0.63021207 0.024283946 1251893
0.2076479 0.6331321 0.022772253 3159126
0.20948914 0.63611418 0.022116899 3882590
0.21045102 0.63776582 0.022944629 4144994
0.21244872 0.64057624 0.021655679 2303548
0.076174065 0.41977689 0.032963216 8882841
0.079538524 0.42429361 0.032958806 8159639
0.083883524 0.43187195 0.032398224 6055278
0.085034847 0.43497884 0.033032715 5594227
0.085384861 0.43744013 0.033342838 5265263
0.087935641 0.4384203 0.0338521 5527658
0.089059532 0.44196445 0.034335911 6249565
0.21118808 0.64495999 0.021424472 2106170
0.2124653 0.64727533 0.020212829 1513014
0.072221771 0.41549435 0.032869697 8883096
0.073570386 0.41968784 0.032450199 8619673
0.074472636 0.42425793 0.031834245 8751257
0.077038676 0.42437518 0.032435656 8422552
0.077679381 0.42828628 0.031200826 6317951
0.080171555 0.43032992 0.031592488 6515069
0.08098729 0.43376967 0.031770825 5594490
0.082753539 0.43595406 0.031774998 6185580
0.083851039 0.43833685 0.032424212 6841448
0.059782639 0.40391237 0.032165587 7700120
0.061260372 0.40634501 0.032020986 7568534
0.062738121 0.40877768 0.031876326 7370898
0.064189896 0.41116765 0.031734228 7370378
0.066098392 0.41326374 0.031313717 7764879
0.0687235 0.41647813 0.031408608 8619926
0.07032761 0.42041066 0.03118068 8159382
0.072382599 0.42487413 0.031353176 7961740
0.074084565 0.4264133 0.031606853 7106953
0.075069472 0.42934752 0.030923247 6186120
0.076950088 0.43308249 0.030196488 5660530
0.079534411 0.43476415 0.031025469 6317167
0.080006748 0.43688685 0.031815946 6579574
0.080464736 0.4388971 0.031881392 5791603
0.057431668 0.40551198 0.031109989 8423066
0.058663353 0.40843874 0.031835854 7699866
0.060141101 0.41087139 0.031691253 7502235
0.063760415 0.41332811 0.030185461 8356755
0.065484941 0.41810867 0.030343115 6515329
0.066412076 0.42069003 0.030030251 6055034
0.06863828 0.42318451 0.03003335 5923183
0.070422202 0.42461422 0.029941499 7896462
0.072338998 0.42956087 0.030260205 6909587
0.073306233 0.43111226 0.02879715 6777463
0.074426591 0.43324816 0.02986294 4936813
0.076932803 0.43535098 0.029751122 6448234
0.077355012 0.43794605 0.030747592 6053997
0.054262877 0.40354133 0.030614913 9080983
0.054483876 0.4076007 0.03021121 8949398
0.056850776 0.40887266 0.029153109 9014680
0.058456942 0.41106781 0.029610395 8620180
0.060143724 0.41319871 0.029480755 8488596
0.061793745 0.41634575 0.029974878 8028050
0.062691063 0.41972989 0.029394209 6186885
0.063887015 0.42058164 0.027367771 8356492
0.066346318 0.42541593 0.029368222 5989760
0.069396406 0.42962009 0.028121591 8027270
0.071440756 0.43241143 0.028632343 6843008
0.07211861 0.43524653 0.028396904 5593444
0.07362251 0.43725592 0.028954685 5527906
0.05127117 0.40496123 0.027871966 10198441
0.053056777 0.40771785 0.027453423 9541030
0.053821355 0.41135269 0.027434826 9212326
0.055674702 0.41295052 0.027922809 9343386
0.057935059 0.41576838 0.028460443 8883099
0.059213176 0.41776597 0.026840687 9080217
0.061882004 0.42001575 0.026921153 8685715
0.0619874 0.42265493 0.028051972 7830934
0.063770577 0.42605034 0.027023613 6515053
0.065533727 0.42791548 0.026982605 5857895
0.066813797 0.43029988 0.027618468 8289670
0.068245992 0.43433657 0.027386129 6120056
0.070955053 0.43526947 0.02740413 6315360
0.048198164 0.40375397 0.027401507 10329510
0.049454048 0.406551 0.027178764 10001320
0.049761593 0.40949455 0.027119339 10001062
0.052927539 0.41139135 0.026834667 10000802
0.055342332 0.41347784 0.026500463 8686242
0.055635482 0.41745499 0.026436687 8949153
0.057325706 0.41912064 0.026399791 8817565
0.058023557 0.42173344 0.026243508 8882839
0.059673533 0.42461026 0.025804579 7764871
0.062077284 0.42666358 0.025457323 6711919
0.062747285 0.42986917 0.026119888 6316634
0.06428811 0.43263811 0.026559472 6120042
0.066076756 0.43476191 0.026169717 7499131
0.046181679 0.40604666 0.027626634 10921385
0.047511965 0.40779635 0.027296603 10001064
0.050255567 0.41305104 0.02679354 9409447
0.05161877 0.415941 0.025945246 9540516
0.053096741 0.41810507 0.025225699 9606048
0.055104509 0.42088354 0.024819136 8948637
0.056044757 0.42400509 0.024528801 8948122
0.057826638 0.42492518 0.024711311 8356242
0.059732899 0.42825705 0.025350094 5528419
0.060345918 0.43139374 0.025255501 4280663
0.061658889 0.43365949 0.02554673 6776148
0.052179858 0.42288086 0.024261236 10131614
0.052980825 0.42516488 0.024555266 8225698
0.054962844 0.42762643 0.024465024 6778758
0.057276219 0.42906579 0.024689615 5199973
0.25311777 0.42858425 0.11007231 131117
0.2530629 0.43027356 0.11132371 268
0.25051859 0.42771223 0.10924393 1051711
0.25153601 0.42945826 0.10959727 197658
0.24460916 0.42686069 0.10745376 5196873
0.24682723 0.42837542 0.1077379 2500163
0.24851902 0.43054318 0.10726708 1381941
0.24985069 0.4331125 0.10720569 1315118
0.23898631 0.42369395 0.10708755 5593693
0.24311081 0.4268932 0.10648531 4803933
0.24425022 0.4304049 0.10526878 4538431
0.24610934 0.43221733 0.10647017 2300974
0.23944464 0.42342141 0.10521787 3818301
0.24021156 0.42526838 0.10569298 5067865
0.2402896 0.42846996 0.10502404 5986390
0.24232347 0.43048337 0.10562122 4341318
0.23805951 0.42747203 0.10402054 6775894
0.23773085 0.42927805 0.10443896 6316128
0.19525766 0.47148752 0.072050273 7173536
0.19687329 0.4740383 0.071360648 5661581
0.18898316 0.46805206 0.070360005 6056052
0.19129583 0.46942949 0.070849299 6713474
0.19382787 0.47223055 0.070922852 6844815
0.19603041 0.47601932 0.06946665 6249047
0.18408628 0.46510085 0.069215059 4870991
0.18691766 0.46601939 0.070240736 5660260
0.18900587 0.47168094 0.069555938 8094098
0.19085419 0.47444224 0.069860756 6120063
0.19245538 0.47704706 0.067958951 6972014
0.18050492 0.46443379 0.06869626 4673365
0.18224768 0.46487996 0.068389952 4673101
0.18479061 0.46875849 0.066993415 6185810
0.185507 0.47030872 0.06820184 7370362
0.18613213 0.4722397 0.066344321 8090977
0.18856496 0.47621161 0.067362189 6117715
0.19031289 0.47702613 0.067393899 6446672
0.17635703 0.46351549 0.06801635 4738376
0.1781844 0.46343362 0.067574203 4015169
0.17985997 0.46741876 0.066991985 5856847
0.18235473 0.46901891 0.067176521 6448990
0.18278819 0.47149205 0.066895664 7697521
0.18573076 0.47352058 0.066709995 6975097
0.24997079 0.5821588 0.059920549 593180
0.25178093 0.58461815 0.059682369 527643
0.25659466 0.59249526 0.058094084 593437
0.25854665 0.5947718 0.058200777 593437
0.26045483 0.60096049 0.058630526 659487
0.17416659 0.46237922 0.066426754 4343638
0.17630124 0.46562004 0.066389561 5330247
0.17902535 0.47036356 0.065955698 6580076
0.2486386 0.58450794 0.057248592 1842736
0.25250268 0.58808231 0.058322251 527644
0.25384521 0.58960158 0.058183968 527644
0.25361007 0.59231842 0.058126152 527644
0.25468868 0.5959962 0.058095396 658974
0.25693458 0.59815574 0.058251083 659230
0.2591249 0.59954232 0.058628857 659232
0.17062019 0.46199417 0.065097153 5132910
0.17307028 0.46340373 0.065068603 5263968
0.17516568 0.46901098 0.064857066 5724759
0.17743593 0.46983364 0.065108359 6775617
0.25104353 0.59153813 0.05818826 593693
0.25335884 0.59490967 0.057761848 593438
0.25557137 0.60270655 0.057809889 659230
0.25778636 0.60539067 0.05661577 790818
0.25958639 0.60683179 0.057866871 725023
0.26075041 0.60856819 0.05758363 725024
0.16826427 0.46191749 0.06338346 5856901
0.17023963 0.46692485 0.062858582 5659518
0.17208189 0.46796367 0.063289404 5920859
0.17355481 0.46858516 0.063571155 5592402
0.2448044 0.58970797 0.054304421 1054266
0.24677563 0.59196901 0.055330038 2235952
0.24752522 0.59351999 0.054589868 1579568
0.24947242 0.59608221 0.055509508 2170922
0.25025994 0.59875792 0.054371357 1579821
0.25278163 0.60147756 0.053956807 1054516
0.25385046 0.60299921 0.054342985 1448230
0.25583476 0.60515058 0.054314554 1120046
0.25699466 0.60931247 0.054390848 1185838
0.25872421 0.61047256 0.054135025 1251375
0.26069796 0.61385375 0.053994298 1251629
0.16481179 0.46131125 0.062741697 6383758
0.16633797 0.46566898 0.06295687 6251406
0.16817415 0.46675465 0.061883152 6775672
0.24450701 0.59236515 0.054578841 1185592
0.24533156 0.5947271 0.054943144 1382708
0.24764261 0.59691536 0.054768324 1317170
0.24856587 0.60132754 0.053683102 988721
0.25076059 0.60193121 0.053745508 1579822
0.25175232 0.60508037 0.053789139 1054517
0.2529825 0.60832644 0.053960025 1185581
0.25498119 0.609501 0.053738654 1514027
0.25692394 0.61187381 0.052414358 2302506
0.25753754 0.61569601 0.053017378 1580081
0.25991789 0.61791468 0.053239763 2039850
0.26128763 0.62017202 0.052821875 1383221
0.16085629 0.46068096 0.061644375 6910618
0.16357175 0.4613418 0.060438156 6450847
0.16432109 0.46583936 0.060487926 7434900
0.24466065 0.59857041 0.053124726 1316412
0.24602792 0.60135138 0.053275347 1185332
0.24862036 0.60340703 0.05276233 1251124
0.24962527 0.60649878 0.052301347 1842226
0.25096348 0.60863417 0.053286374 1711406
0.25244287 0.6105932 0.05208528 1842738
0.25403959 0.61405534 0.052249074 1776948
0.25531489 0.61593938 0.052136064 2040114
0.25745511 0.61881793 0.051480472 1580345
0.25866741 0.62161463 0.052777231 2105904
0.26003557 0.62405843 0.050714314 1908796
0.15744171 0.46036392 0.060179472 7371425
0.15844966 0.46118096 0.060575008 6253466
0.16006146 0.46411109 0.059819758 7633051
0.16139787 0.46533415 0.06005615 7305125
0.24671426 0.60494167 0.052199662 1513782
0.24917096 0.60976678 0.05205071 1514550
0.251515 0.61467606 0.05216676 1711415
0.25396815 0.61914521 0.05190295 1317688
0.25508446 0.62181544 0.051076174 1843002
0.25710094 0.62313348 0.050495982 1843005
0.25984022 0.62873363 0.050503969 2040379
0.262088 0.63386065 0.050339997 2171964
0.15328667 0.45873332 0.059269965 7240097
0.15546557 0.46052223 0.05940181 6845599
0.15690285 0.46361247 0.060049951 8552856
0.157566 0.46464545 0.057927907 7699875
0.21967134 0.56648868 0.051333487 5663635
0.15096202 0.4585734 0.058445275 7174304
0.15262821 0.46235025 0.057217598 7370653
0.15442771 0.46415207 0.056646109 7765409
0.14588955 0.4588204 0.056095898 7042719
0.14801097 0.45965821 0.056392252 7174304
0.1497858 0.46282116 0.055802166 6976670
0.14445755 0.45922109 0.054113865 6976926
0.14567411 0.46219409 0.054478943 7173530
0.14734769 0.46356067 0.055152833 7633824
0.14069018 0.4590382 0.053928196 6911131
0.14293972 0.4625425 0.053091824 7107481
0.14527616 0.46509716 0.05293411 6911652
0.13821214 0.45929766 0.052678406 6911130
0.13952987 0.46160635 0.051769197 6713496
0.14167359 0.46262503 0.05139482 6187930
0.14294894 0.46590748 0.050667584 6911396
0.13571939 0.45878053 0.052008867 6845337
0.13627592 0.4614144 0.051748097 5990806
0.13739838 0.46348891 0.048848867 6975894
0.13967407 0.46549881 0.049744129 7239328
0.11403853 0.42765462 0.049849212 8357017
0.13249902 0.46002042 0.048829675 6714007
0.13407871 0.46168184 0.048577249 6253718
0.13514918 0.46485409 0.049156547 7042206
0.20754302 0.58480895 0.042446077 5992862
0.11059212 0.42872369 0.048383057 8619930
0.13017988 0.4610548 0.047457755 6253716
0.13257769 0.46295312 0.046742082 5925268
0.13412964 0.46581328 0.046662986 6582435
0.20681521 0.59065866 0.040786684 6189744
0.11302278 0.43432906 0.047295749 7503002
0.11457276 0.43897909 0.046760023 6450576
0.1170419 0.44078457 0.047179878 6713497
0.11680599 0.44481552 0.045571864 7634334
0.12521613 0.45970395 0.045945525 6385040
0.1272831 0.46148333 0.046746075 6253719
0.12975886 0.4647558 0.046291053 6910622
0.13164566 0.46536505 0.04625833 7895445
0.2067973 0.59347731 0.038750947 5663409
0.10632796 0.43082178 0.04601562 8619926
0.10877394 0.43523407 0.045710206 7173528
0.11092348 0.43744549 0.04575187 6318726
0.11225466 0.43985686 0.045721471 7107995
0.11295758 0.44103524 0.045136392 8553099
0.11749228 0.44996235 0.044567525 6581918
0.12075517 0.45498374 0.044133008 5924248
0.12271485 0.45846996 0.043971658 5201021
0.12375937 0.46031526 0.044791937 5661579
0.12542589 0.46313047 0.044964552 6319007
0.12664053 0.46515995 0.044873893 7698324
0.10462675 0.43563443 0.04455483 7107221
0.10917899 0.44076496 0.044350982 7435405
0.11112747 0.44547489 0.043965816 6910619
0.11325757 0.44572622 0.04433918 7305114
0.11396757 0.44885871 0.04375869 6778512
0.11559063 0.4515352 0.043711603 5332615
0.11775324 0.45442349 0.043939888 5661068
0.11894026 0.45750865 0.043622792 5134977
0.11981834 0.4595961 0.044155538 5266564
0.12146371 0.46153501 0.043824017 5529745
0.12341662 0.46439034 0.044313252 7632272
0.20520799 0.59820896 0.035099089 4873628
0.20518565 0.60196722 0.035027266 4676250
0.10717032 0.44148719 0.0428707 8026238
0.10859456 0.44617096 0.042931378 6975110
0.11032806 0.4476366 0.042599022 7238277
0.11044884 0.45067477 0.043043435 5858188
0.11359969 0.4538143 0.043310285 5792397
0.11478639 0.45619461 0.043417037 5200515
0.1164739 0.45780954 0.043980062 5134466
0.11890002 0.46340883 0.04225111 6711169
0.20601925 0.60304123 0.034021437 4544135
0.20624001 0.60676891 0.033949494 4345986
0.20718524 0.6092217 0.033628643 3950711
0.1039135 0.44242811 0.041186273 7960189
0.10563326 0.44678763 0.041437924 6514816
0.10772171 0.44900742 0.040998042 5726336
0.10867348 0.45347723 0.041171074 5989245
0.11096796 0.45459846 0.042092562 5331837
0.11268386 0.45680013 0.041481078 6514304
0.11378851 0.46112642 0.0408023 6382459
0.11574198 0.4619385 0.040922225 6382461
0.20719643 0.61243159 0.032556534 3753835
0.077793725 0.40541965 0.042518139 5265000
0.078778915 0.40704146 0.042421699 5791344
0.08020477 0.40938878 0.042282164 6515070
0.08214917 0.41258967 0.042091846 6382977
0.083600953 0.41497964 0.041949749 4674152
0.08453425 0.41651607 0.041858375 4279395
0.097038031 0.43748307 0.039493799 7962509
0.10008945 0.44343412 0.04071182 6186894
0.10214461 0.44549572 0.040553391 5989254
0.10295566 0.44726276 0.039808273 6448759
0.10637798 0.45091903 0.041687012 6055310
0.10659187 0.45328671 0.040346086 6054779
0.10829854 0.45574135 0.039952219 6120060
0.1114781 0.4610799 0.040060759 6579324
0.20709649 0.61656326 0.030747831 2831699
0.20757297 0.62003517 0.030299842 2305348
0.20887539 0.62255293 0.028808177 1251384
0.089002758 0.4285326 0.039373577 4410461
0.090518072 0.43093723 0.039140642 4475484
0.092079632 0.43436211 0.039791882 4278621
0.096910119 0.44072676 0.039540589 6712713
0.098604143 0.44373554 0.039474666 6711422
0.10002078 0.44650519 0.03846103 5660019
0.10262813 0.45219588 0.039629519 5857663
0.10422534 0.45435315 0.039028823 5791350
0.10678466 0.45647144 0.038736522 7171198
0.10662464 0.46044314 0.038878024 6513271
0.10898887 0.46091881 0.039506018 6513531
0.20843531 0.62395799 0.030212402 1778490
0.20932817 0.62616122 0.029099405 1185330
0.20979109 0.62870711 0.028373897 1185075
0.21237382 0.63207859 0.027721465 1448248
0.21444044 0.63576001 0.02799654 1250872
0.074093536 0.40873915 0.038870037 5462379
0.087972917 0.43311632 0.038950503 4344931
0.088958114 0.43473813 0.038854063 4344931
0.093431294 0.44022578 0.037936985 6186882
0.094149031 0.44419995 0.037564099 5133932
0.096451625 0.44503587 0.03738153 5593449
0.097949512 0.44811457 0.038455427 6119797
0.099367313 0.45097166 0.038433433 5265520
0.101864 0.45299855 0.038426638 5068403
0.10122931 0.45647234 0.037165701 6907507
0.10390499 0.46041384 0.038183391 6381685
0.21034712 0.63166648 0.027669728 1447734
0.2101855 0.63562584 0.02758795 1381427
0.21158722 0.63696337 0.026966512 1381945
0.084185496 0.43163207 0.037358344 4739683
0.085663259 0.43406466 0.037213743 4476512
0.089118823 0.43964258 0.035627544 5660015
0.090013579 0.44201526 0.036565423 5462638
0.091717005 0.44440827 0.036976635 5133676
0.093687266 0.44677854 0.037463367 5725034
0.095777288 0.4492006 0.037157953 5396073
0.098148823 0.45652097 0.036066413 6775922
0.20650372 0.63121122 0.026066303 922671
0.20757873 0.63404328 0.025566876 1777715
0.20821071 0.63760799 0.024985731 2829641
0.072568715 0.41725871 0.036532581 4937065
0.07355389 0.41888046 0.036436141 5988972
0.076546878 0.42371774 0.036058605 5001834
0.077480212 0.42525417 0.035967171 3621470
0.078465343 0.42687598 0.03587079 3687263
0.080435693 0.43011945 0.035677969 4805227
0.081530556 0.43277627 0.036374867 5068389
0.085935339 0.43821242 0.03487891 6054512
0.087138027 0.44066441 0.035205543 5396846
0.088047966 0.44340461 0.035910428 5462383
0.090081945 0.44617251 0.035754442 6447206
0.091425106 0.44785595 0.036413372 6315621
0.092957199 0.44924724 0.036056757 6381156
0.094316721 0.4545089 0.035981655 6578796
0.096386239 0.45526135 0.036283135 6710127
0.20881671 0.64096439 0.024572968 3881563
0.21031137 0.6425494 0.024138808 2632775
0.078074157 0.43098241 0.033946216 4081761
0.079368293 0.43473127 0.03534317 4607580
0.082856074 0.43945348 0.033355772 5725812
0.084522486 0.44166338 0.034572124 6185330
0.086542457 0.44370714 0.034975827 6710121
0.20920406 0.6463573 0.022683918 3618905
0.21085368 0.65016794 0.020872295 2499646
0.077149108 0.43608379 0.031478465 5726076
0.079621494 0.43862242 0.032440245 6054778
0.080207333 0.44099405 0.032992423 6251383
0.082134739 0.44268742 0.033877909 6316916
0.054501504 0.40329587 0.033851445 7963557
0.05647184 0.4065395 0.033658624 7963044
0.057949558 0.40897214 0.033513963 7831202
0.059427306 0.41140479 0.033369362 7699615
0.068771929 0.42669833 0.032370031 4739939
0.070249721 0.42913097 0.03222543 4674151
0.071727425 0.43156371 0.03208077 4542314
0.073205233 0.43399635 0.031936169 4279127
0.074850649 0.43700323 0.031340718 4672867
0.076427355 0.44049808 0.031353474 6120312
0.078291669 0.44190791 0.032075763 6842483
0.080204442 0.4427225 0.032479525 6515064
0.051866904 0.40541777 0.033754766 8160682
0.053382218 0.40782237 0.033521771 8095139
0.054859906 0.41025507 0.033377171 8226213
0.061977237 0.42026323 0.031072319 3755103
0.063454926 0.42269593 0.030927658 2897989
0.064932674 0.42512861 0.030783057 4082007
