# .PCD v0.7 - Point Cloud Data file format
VERSION 0.7
FIELDS x y z rgba
SIZE 4 4 4 4
TYPE F F F U
COUNT 1 1 1 1
WIDTH 1173
HEIGHT 1
VIEWPOINT 0 0 0 1 0 0 0
POINTS 1173
DATA ascii
1.3457074 0.18960786 0.034732461 2237490
1.3462783 0.1918608 0.035108507 2698296
1.3484111 0.19421011 0.035325468 3027006
1.3495994 0.19668812 0.035156667 2040101
1.3516458 0.19955093 0.035541832 3882574
1.3527496 0.20222759 0.035188675 4213615
1.3543828 0.20488971 0.034825027 3884125
1.3561206 0.20709729 0.03511256 4607594
1.3574027 0.20965922 0.035111547 5068136
1.3589933 0.21250242 0.034980178 5001566
1.3609666 0.21502078 0.034801781 5066836
1.3624334 0.21744972 0.03448385 3618626
1.3641109 0.2199564 0.034669459 2106432
1.3657402 0.22294378 0.034073412 791348
1.3667022 0.22495115 0.034807026 462136
1.3682643 0.22727352 0.033668935 330040
1.3694327 0.23049176 0.032735527 198729
1.3705673 0.23297447 0.032881856 462393
1.3438978 0.19076675 0.033764243 1975084
1.344054 0.19283122 0.033627391 2106664
1.3465178 0.19549632 0.034167945 2434854
1.3475569 0.19823289 0.033834517 2698019
1.3490832 0.20123589 0.033853889 2304044
1.3505492 0.20334554 0.03387481 2961724
1.3521396 0.20629501 0.034130514 4146775
1.3535297 0.2082243 0.033851266 4737878
1.355221 0.21090919 0.033901215 4474186
1.3565636 0.21371323 0.033344507 3947844
1.3588359 0.21629745 0.033661425 4014149
1.3599617 0.21865904 0.033185065 3225164
1.3616598 0.22128761 0.033001602 2041418
1.3629258 0.22355109 0.033758879 2962781
1.3638799 0.22755539 0.032363594 3159927
1.3662899 0.22867942 0.032637775 1317218
1.3676733 0.23105878 0.033165514 857433
1.3691732 0.2330122 0.033069372 922944
1.3323631 0.17901748 0.032592237 1646895
1.3342419 0.18163633 0.033106208 2041145
1.336292 0.18429047 0.033142149 2107450
1.3374711 0.1873439 0.033194184 2896716
1.3392712 0.18958437 0.032945693 2830668
1.3404436 0.19187987 0.032960176 3817035
1.3425556 0.1945014 0.033110201 3883075
1.3439283 0.19731539 0.033030152 3488315
1.3448734 0.19952953 0.033148944 3685442
1.3466132 0.20233101 0.03285706 4013375
1.3481805 0.20506454 0.03306812 4210757
1.3494005 0.2072472 0.032983899 4012607
1.351382 0.21036249 0.032587588 3815486
1.353168 0.21244037 0.031922579 3487819
1.3544167 0.21432835 0.032429099 3488074
1.3561685 0.21734685 0.031659424 2962514
1.3575835 0.21980762 0.031883538 2568012
1.3586714 0.22222215 0.032635748 1580860
1.36163 0.22578007 0.030914009 923455
1.3617479 0.22715932 0.031771243 1186117
1.3297936 0.17854416 0.031876087 4277592
1.3303595 0.18059266 0.032371461 4935267
1.3315188 0.18322748 0.032701373 3948116
1.3334036 0.18562198 0.03283608 3422284
1.3351098 0.18811828 0.032934189 3685195
1.3359553 0.19112146 0.032277048 3618884
1.3377539 0.1934557 0.031983018 4079691
1.3394744 0.19630218 0.031845987 4276809
1.3415151 0.19807178 0.032447934 3948619
1.3429193 0.20099145 0.031626523 3816003
1.3439047 0.20379138 0.03073132 3553094
1.345569 0.20617759 0.031218588 3684163
1.3475745 0.2085278 0.030645251 3356498
1.3490094 0.21146661 0.030529201 3225173
1.3508321 0.21356893 0.030541897 3027795
1.3523594 0.2165364 0.030729592 2896213
1.3534613 0.21863413 0.03121084 2830674
1.3551123 0.22075242 0.031324744 2502478
1.3566521 0.22440082 0.029076457 1186879
1.3585125 0.22643399 0.030263245 791603
1.3266579 0.18003684 0.031100988 2961210
1.3279216 0.181171 0.031641364 3552058
1.3296061 0.18380976 0.030835867 3356233
1.3312411 0.18648219 0.030421674 2830674
1.3325078 0.18969506 0.029910982 2633296
1.3341994 0.19224256 0.030434012 2830146
1.3360304 0.19426471 0.030607879 3093049
1.3378378 0.19740832 0.031340003 3683384
1.3393834 0.19997853 0.029765248 3422027
1.3407127 0.20220721 0.030584633 3553093
1.3418678 0.20485854 0.029836953 3422546
1.3432716 0.20736122 0.029129207 3093330
1.3451972 0.20999986 0.029637933 3028307
1.346525 0.21221769 0.029931664 3028053
1.3478692 0.21481764 0.029592276 2764887
1.3493986 0.21763176 0.030150414 2764373
1.3519281 0.22102481 0.027675867 1252162
1.3530346 0.22268099 0.0284127 1317695
1.3541281 0.22546881 0.029135287 1317700
1.3552599 0.22773081 0.029679 989245
1.3240668 0.18030822 0.029937506 3092532
1.3258109 0.18303156 0.029768467 2764360
1.3270735 0.18535137 0.029574394 2698830
1.3287129 0.18815887 0.030052364 2436174
1.3303528 0.19077373 0.029811978 2304594
1.3318689 0.19354028 0.029435933 4080495
1.333631 0.19589609 0.028932869 4211566
1.3350018 0.19864684 0.02877748 3356771
1.3370245 0.20118672 0.028943896 3290964
1.3380411 0.20355189 0.028369725 3093332
1.3397448 0.20639068 0.028744221 3093330
1.3417546 0.20871764 0.028562188 2896211
1.3429589 0.21134961 0.028483272 2764884
1.344955 0.21430236 0.029082596 2830677
1.3464048 0.21660256 0.027411461 1712205
1.3478203 0.21903068 0.027043521 1382982
1.3491335 0.22143543 0.027375638 1251909
1.3500843 0.22374135 0.028122842 1317695
1.3523674 0.22616071 0.028891027 1317955
1.3210282 0.17970043 0.027780056 3946809
1.3216678 0.18170786 0.028664649 3290175
1.3233 0.18419576 0.028322458 2303812
1.3250262 0.18719304 0.02912581 2370125
1.3264487 0.19043183 0.029165804 1909834
1.3280108 0.19239515 0.027904153 1317958
1.3296916 0.1946094 0.027734101 2698589
1.3306073 0.19679064 0.02806437 5527172
1.3330808 0.19960201 0.027515233 4803707
1.3344268 0.20225394 0.027740359 2698838
1.3360095 0.20474631 0.027210891 2764371
1.3372054 0.20753825 0.027568161 2830164
1.3388158 0.21013987 0.027879119 2764879
1.3400071 0.21209866 0.026687682 2041163
1.3417586 0.21484894 0.025618792 1251909
1.3439584 0.21725005 0.026278138 1317449
1.3451673 0.22032553 0.026645243 1317704
1.3463398 0.22280908 0.027194321 1317702
1.3183932 0.18136221 0.027229369 3288885
1.3195415 0.18303543 0.027299106 3422279
1.3211166 0.18559998 0.027194202 1909314
1.3220233 0.18795842 0.028069496 2041410
1.3259877 0.19327617 0.025989771 1054275
1.3272157 0.19593596 0.026327252 856640
1.3289516 0.19849098 0.02634418 2566739
1.3306129 0.20133537 0.026527882 3684964
1.3325274 0.2039659 0.027279794 2501458
1.3337933 0.20668364 0.025822222 2040651
1.3352008 0.20839721 0.024687469 1251908
1.3365116 0.21130401 0.024406075 1317445
1.3384393 0.21382266 0.02488786 1251910
1.3395433 0.21636254 0.025191724 1317443
1.3412238 0.21922505 0.025692284 1252167
1.3430575 0.22100019 0.026288033 1448519
1.315999 0.18217522 0.025901496 1775653
1.3173611 0.18423253 0.02564764 2567227
1.3183948 0.18679571 0.02584517 1711676
1.3194451 0.18955308 0.026579201 1514553
1.3229424 0.19226754 0.024713159 1054004
1.3232937 0.1945262 0.024812639 922927
1.3246329 0.19699979 0.025320709 791087
1.3265659 0.20024133 0.024908781 725293
1.3286757 0.20290709 0.023977697 659505
1.329731 0.20497841 0.023617268 856634
1.3316591 0.20735848 0.023839355 1251394
1.3329898 0.21018088 0.024217844 1317955
1.3339244 0.21321261 0.024459541 1317961
1.3362304 0.21480095 0.024686515 1252422
1.3376194 0.21767157 0.025089502 1317959
1.3136961 0.18361706 0.024650455 1446944
1.31486 0.18556017 0.024360657 2369850
1.3162692 0.18802464 0.02458173 1711668
1.3174441 0.19044387 0.025388181 1185328
1.3209465 0.19399512 0.02303201 725282
1.3214179 0.19578487 0.022974908 593699
1.323118 0.19867462 0.023430645 462370
1.3244629 0.20162249 0.023303509 462371
1.32582 0.20408905 0.023217618 659501
1.327327 0.20626241 0.023281157 988470
1.3289635 0.20876563 0.023513556 1383751
1.3303072 0.2108826 0.02388227 1384265
1.3316805 0.21297175 0.024283528 1384268
1.3339847 0.21592283 0.024552107 1318219
1.3116683 0.18513715 0.023259401 1052965
1.3128111 0.18677056 0.023135722 1580604
1.3139207 0.18967617 0.023635328 2831173
1.3156605 0.191208 0.024613142 1778741
1.317011 0.19543225 0.020787895 1252669
1.319646 0.1971488 0.021408439 725295
1.3209741 0.19995874 0.021808565 923184
1.3220336 0.20293659 0.022294044 1186362
1.3229355 0.20542216 0.022736907 1318467
1.3253236 0.20745766 0.022916973 1252419
1.3267654 0.2092194 0.023272276 1384266
1.3091574 0.18642533 0.021571636 1645361
1.3107467 0.18855578 0.022018671 1119796
1.3114042 0.19041377 0.022941887 3291200
1.3135953 0.19433743 0.020022571 1975623
1.3149129 0.19609082 0.020610631 1647175
1.3170036 0.19848871 0.020888925 1449799
1.3182241 0.20121706 0.021446526 1581386
1.3200719 0.20342654 0.021983325 1450059
1.3066561 0.18655759 0.02031368 2566726
1.3083155 0.18936342 0.020678699 3488071
1.3100009 0.1936819 0.018249154 395036
1.3111587 0.19523591 0.019762099 1646900
1.3125128 0.19718301 0.020695627 1712963
1.3145986 0.19948775 0.021001339 1713229
1.3041605 0.18822819 0.019234419 2829642
1.3054935 0.19139659 0.019277394 1709877
1.3079693 0.19397134 0.017632663 3291719
1.3083282 0.19571334 0.018719733 658724
1.3017077 0.18965912 0.017585278 1975373
1.3033155 0.19213009 0.017936587 1316157
1.3054874 0.19526547 0.016505361 3356226
1.3055398 0.19669652 0.017069042 1514286
1.2995192 0.19090521 0.015692115 2173290
1.3009412 0.19357139 0.016770482 2699085
1.3034176 0.19684875 0.015829206 1711419
1.3039632 0.19754452 0.016604364 3225932
1.2991676 0.1950773 0.014782608 1713250
1.3008776 0.19781387 0.014801919 527166
1.2974213 0.19657469 0.014243245 2701703
1.2986233 0.19924605 0.013889194 3619943
1.2875882 0.20957631 0.005361855 14850218
1.2877934 0.21022171 0.0064894557 14063780
1.290002 0.21275014 0.0045872331 11040661
1.2822713 0.20507485 0.0053800941 13475757
1.2833103 0.20729166 0.0050042868 13609149
1.285645 0.2090649 0.0051506758 14068157
1.2887797 0.21442115 0.0044419765 7433375
1.2802219 0.20629799 0.0030440092 12039659
1.2820939 0.20803279 0.0032661557 12235746
1.2833481 0.21088344 0.0027464628 11843311
1.2854313 0.21312267 0.0027735829 12237814
1.2865335 0.21539098 0.0033858418 9936342
1.2779752 0.20719224 0.0030118227 11910131
1.27996 0.2093479 0.0030577779 11975923
1.2815832 0.21157193 0.0031921864 12041974
1.2831984 0.21471834 0.0029925108 11779058
1.2847228 0.21692032 0.0030542016 9804752
1.4208679 0.24518508 0.052661479 7439057
1.418283 0.24524403 0.052364111 9873662
1.4201989 0.2477321 0.051227808 12042476
1.4139887 0.24415165 0.049724162 6849722
1.4155918 0.24604601 0.051332593 10663931
1.4164402 0.24876481 0.050885737 11256063
1.4181061 0.25032198 0.050250292 10531289
1.4117368 0.24440616 0.049223125 3626097
1.4131594 0.24705124 0.050119817 10006490
1.413938 0.25014377 0.049496353 5994396
1.4156158 0.25234491 0.0493325 4018518
1.405545 0.2408123 0.047193825 1515875
1.4075351 0.2433362 0.047577739 2042977
1.4092991 0.24597073 0.048170149 2570595
1.410776 0.24891883 0.048608601 2043731
1.4121081 0.25155306 0.048100173 1514552
1.4137146 0.25371522 0.048367977 2369855
1.4038122 0.24241704 0.046625972 1384806
1.4055587 0.24464077 0.046699882 1384535
1.4063647 0.24756503 0.047302186 1910100
1.4083288 0.24997306 0.047174871 2633545
1.4098647 0.25274205 0.047033548 2963266
1.4111694 0.25509042 0.046935081 4081779
1.4125236 0.25643152 0.046216786 4147585
1.4011846 0.24345112 0.045547605 2504303
1.4028227 0.24601251 0.04575783 2962778
1.4044195 0.24832118 0.045511007 5197415
1.4059836 0.25120395 0.045528769 4871277
1.407449 0.25353467 0.046139538 5464189
1.4093971 0.25631177 0.044970334 4676755
1.4091048 0.26001161 0.045889139 8490727
1.3878632 0.22746533 0.044028103 2765942
1.3893985 0.22986114 0.044440448 3160147
1.3904142 0.23221868 0.044621408 2370893
1.392285 0.2343083 0.04430002 2963550
1.3936379 0.23709011 0.044217825 3294835
1.3956156 0.24006647 0.043546855 3164538
1.3978308 0.24246895 0.044518173 3952774
1.3988442 0.24476445 0.044955552 3424093
1.4006777 0.24717832 0.044546723 2829117
1.4020877 0.25000066 0.044242203 3092816
1.4036477 0.25241572 0.044551432 3425377
1.4049463 0.25547183 0.044091284 5799094
1.4067695 0.25766766 0.044870794 9873902
1.3840642 0.22659403 0.043104053 2043218
1.3861498 0.22850132 0.04375118 3818085
1.3872498 0.2312662 0.04430002 3883609
1.388819 0.23334438 0.044298351 3358295
1.3901684 0.23583674 0.044178188 3687525
1.3918675 0.2385602 0.043563724 9739475
1.3935902 0.2412504 0.043422401 7175352
1.3950815 0.24372721 0.043644309 3688563
1.396687 0.24640882 0.042941153 5264730
1.3982663 0.24859834 0.043189228 3026496
1.3997294 0.25118881 0.043163717 2501197
1.4004145 0.25372392 0.043134332 2833248
1.4023335 0.25556898 0.043854713 2642545
1.3757644 0.21700567 0.042594433 3752026
1.3774683 0.2196517 0.042859912 3358305
1.3787171 0.22155517 0.042808712 5528186
1.3802007 0.22444576 0.042472541 7567778
1.3819935 0.22703576 0.042951047 1713486
1.3834695 0.22976184 0.043014407 2830415
1.3849906 0.23204792 0.042647302 4343378
1.3861015 0.23448569 0.042428672 3093317
1.3882626 0.23701954 0.042497277 4935263
1.3897951 0.23973322 0.042373955 10987189
1.3908683 0.24218071 0.042033195 12829135
1.3926215 0.24502993 0.041757226 6911640
1.3942084 0.24782878 0.041500211 4672343
1.3959295 0.25038832 0.04194361 3092552
1.3975122 0.25248593 0.04200542 2040904
1.3982844 0.2554425 0.042398989 2635341
1.3720343 0.21576393 0.041825593 2897498
1.3733538 0.21834356 0.042272747 4015709
1.3748034 0.22063762 0.04263252 3883859
1.376289 0.22331548 0.042433619 6646407
1.3779778 0.22616065 0.042106211 10133448
1.3796459 0.22827351 0.041505158 6975645
1.3811787 0.23078293 0.041384399 1974585
1.3824767 0.23333514 0.041745603 3752013
1.3840189 0.23635381 0.041605651 3225670
1.3855097 0.23829162 0.04115212 3291727
1.3875051 0.24095893 0.040719032 6250605
1.3888392 0.24378723 0.041081131 8486783
1.3905187 0.24641806 0.040764034 7435908
1.3918587 0.24894351 0.040838301 4606561
1.3935928 0.25139642 0.040695548 2961230
1.3953069 0.25410128 0.040483236 1514832
1.3961996 0.25621212 0.041267574 1778759
1.3689862 0.21476018 0.04043299 1515864
1.3696461 0.21706611 0.040968239 2634317
1.3716487 0.21978784 0.040618479 4475974
1.3726163 0.22190154 0.040984154 4014918
1.3743373 0.22428745 0.040708065 4343880
1.376135 0.22701663 0.040300012 8418689
1.3771763 0.22967839 0.040185988 7172229
1.3789251 0.23220742 0.040170133 2172476
1.3804679 0.23482388 0.040510654 2566716
1.381613 0.23744744 0.040250897 1910595
1.3834248 0.23998719 0.040220797 1844552
1.3848472 0.24256539 0.040016055 1843780
1.3866214 0.24462128 0.039518774 2699346
1.3877736 0.24727035 0.039761424 3422794
1.390048 0.25043017 0.039647639 3752290
1.3913438 0.25310296 0.038869441 2699874
1.3926679 0.25528806 0.039889157 1449303
1.3660755 0.21605009 0.039615035 1647707
1.3671726 0.21858096 0.039296269 2107197
1.3689567 0.22046626 0.039354086 2764598
1.3702221 0.22305143 0.039147377 2765635
1.371981 0.22588271 0.039272368 2304571
1.3732084 0.22828376 0.039300561 1777200
1.3748598 0.23105317 0.03922981 1646125
1.3766074 0.23406869 0.039108634 1646650
1.3780078 0.23613811 0.038958788 1054000
1.3797135 0.2383455 0.038669527 791091
1.3809066 0.24124247 0.038501441 593466
1.3819432 0.24338263 0.038450956 528185
1.3844754 0.24648464 0.038664758 1581136
1.3856789 0.24894744 0.038195789 2503259
1.3878622 0.25129789 0.03776598 3227750
1.3884475 0.25423217 0.038448453 3555951
1.3497783 0.19334096 0.038617671 2833772
1.3624418 0.21508431 0.037149847 3755391
1.3633149 0.21695524 0.038523197 2436961
1.3649856 0.21961623 0.037772775 2370367
1.3662901 0.22211295 0.038194478 1974839
1.367866 0.22453529 0.038357437 1382706
1.3697348 0.2273888 0.038524687 1514542
1.371038 0.22948509 0.038116157 1712699
1.3725114 0.23243213 0.037711978 2239052
1.3744673 0.2348029 0.037615061 2699855
1.3758993 0.23798287 0.037605822 2108255
1.3769634 0.24064213 0.038034081 2172520
1.3785658 0.24226284 0.038313746 1054027
1.3802119 0.24522781 0.036033571 2623
1.3821504 0.24733269 0.038038433 1713247
1.3835734 0.25080884 0.036821663 1781098
1.385612 0.25317138 0.037617266 3161714
1.3476864 0.19487387 0.037608683 2307936
1.3489039 0.19686973 0.037803471 4015999
1.3497674 0.19932967 0.036766171 2241132
1.3564826 0.21022367 0.03638643 3885691
1.3579053 0.21316552 0.036554575 3754105
1.3596628 0.21553099 0.036958039 3950701
1.3611779 0.21827757 0.036565959 4212557
1.3625457 0.22086555 0.036746204 3224388
1.3640907 0.22294563 0.036899984 4342620
1.3655403 0.22601211 0.036417842 2764388
1.3670195 0.22907937 0.036347151 1647192
1.3687255 0.23080635 0.03632021 1516374
1.3703437 0.23340553 0.036272883 2372714
1.3722181 0.23572922 0.036973178 2833763
1.3736846 0.2377947 0.037431121 3755129
1.3743092 0.24212563 0.035867393 2503796
1.3755533 0.2443881 0.03605479 2108023
1.3782719 0.24649024 0.035967588 1384799
1.3797156 0.24804801 0.036360204 1186909
1.380949 0.25044465 0.036726952 1389170
1.3456572 0.19633228 0.03648001 1386295
1.3470374 0.19856191 0.036358476 1319491
1.3482268 0.20050067 0.035795152 1056078
1.3497049 0.20408618 0.035340905 1451101
1.3506436 0.20664901 0.035491705 3622268
1.3530149 0.20895529 0.035586238 4214395
1.3540269 0.21176231 0.035563052 4344941
1.3554651 0.21444315 0.035546541 4738919
1.3571916 0.21705985 0.035454929 4803924
1.3587172 0.21947813 0.035754085 4474691
1.3600106 0.22180134 0.035720289 2764348
1.3620981 0.22461975 0.035195649 3422561
1.3633397 0.22662205 0.035449684 3619694
1.3651823 0.22983229 0.035364091 1910370
1.366622 0.23223674 0.034683764 1319005
1.368148 0.23516816 0.033731401 1384798
1.3693306 0.2381146 0.034288585 6124480
1.3703179 0.24059564 0.035033226 3229321
1.3443276 0.19762826 0.03533268 1254212
1.3442287 0.20053393 0.034423709 2504280
1.3459284 0.20290303 0.034657836 2372699
1.347419 0.20579171 0.034760535 3754090
1.3488793 0.20836139 0.034680724 4542062
1.350409 0.21035618 0.03508544 4542578
1.351424 0.21284264 0.034843147 4869982
1.3531232 0.21556693 0.034957409 4803669
1.3549408 0.21845567 0.034410954 4869714
1.3565315 0.22079003 0.034397125 3948873
1.3579597 0.22364748 0.03414911 1646141
1.3594589 0.22588801 0.03468889 1514302
1.3614051 0.22886044 0.033349156 1317706
1.3627028 0.23115033 0.034169674 1646923
1.3643224 0.23345071 0.03423506 1581143
1.3655293 0.23670214 0.034252763 2109805
1.3673619 0.23939502 0.034233034 7770038
1.3685021 0.24077553 0.034618974 7439777
1.3303443 0.18390608 0.03408581 4409947
1.3320621 0.18622941 0.034228981 3818068
1.3332138 0.18882537 0.033827782 3488584
1.334882 0.19023573 0.033211589 4014681
1.3402071 0.1994943 0.032896221 4147551
1.3415687 0.2016499 0.033123374 4081766
1.3432859 0.20396858 0.033794343 4212581
1.3445158 0.20649022 0.034019411 4278627
1.3462062 0.2091794 0.033723235 4671831
1.3480098 0.21185058 0.033876479 4803156
1.3493959 0.2145533 0.033648849 4606549
1.3510286 0.21722931 0.033467293 4277068
1.3526689 0.21981138 0.033061326 4080211
1.3539193 0.2223103 0.032790482 3093577
1.3556101 0.22460228 0.033100963 1646140
1.3571877 0.22844034 0.031424642 659760
1.3581474 0.22964895 0.032748044 791595
1.3599775 0.23120606 0.033864617 1383740
1.3622266 0.23470289 0.033879697 1777999
1.327123 0.18272305 0.033167183 4211020
1.3285631 0.18523359 0.033837199 3882051
1.3303211 0.18724757 0.03389132 3487298
1.3316274 0.19045579 0.033656836 4539990
1.3334709 0.19342083 0.032957733 5658744
1.3349576 0.19543582 0.032119334 4080732
1.3362181 0.19774467 0.032072663 4079700
1.3377711 0.20070851 0.03236866 4146262
1.3390902 0.20315832 0.032580078 4080478
1.3407366 0.20489728 0.032627046 4211283
1.3421714 0.20774204 0.032469034 4079169
1.3442227 0.21090728 0.032753229 4342603
1.3455613 0.21294254 0.032273114 3750212
1.3471959 0.21521115 0.032144785 3619147
1.3489498 0.21848238 0.032119691 3422024
1.3501894 0.22080028 0.031508386 3028053
1.3517821 0.2238465 0.031981885 2962767
1.3532825 0.2264958 0.032381773 1514813
1.3555129 0.22916847 0.030829847 593975
1.3561414 0.23113924 0.031971097 725551
1.3240855 0.18224043 0.031783104 3091770
1.324906 0.18401849 0.033027589 4078917
1.3257946 0.18647903 0.032850027 3684161
1.3275629 0.18904996 0.032088637 3027009
1.3292505 0.19027734 0.033520222 4274764
1.3308814 0.19393557 0.03240025 7302283
1.3323836 0.19682807 0.03186506 6842509
1.3340242 0.19953072 0.031684995 3553364
1.335523 0.20229006 0.031969547 4080473
1.3370693 0.20461559 0.032062352 4013131
1.3386177 0.20690084 0.031966269 4012864
1.3400642 0.20935965 0.031450868 3684418
1.3420753 0.21156502 0.030963957 3553610
1.3433551 0.21498913 0.030363321 3225428
1.3447804 0.21733189 0.030470312 3028306
1.3464915 0.21930379 0.030447304 2830930
1.3478189 0.2221173 0.030916393 2896468
1.3497876 0.22517043 0.030214429 2173257
1.351338 0.22697413 0.029100418 1383236
1.3530602 0.22991198 0.029767334 923197
1.3537232 0.23242128 0.030799091 659504
1.3214767 0.18315274 0.030326784 2762804
1.3221624 0.18507743 0.031278312 3224125
1.3240356 0.18761849 0.031286716 3225161
1.3259666 0.1905669 0.031767309 2895940
1.3275784 0.19309217 0.029951811 3159641
1.3290484 0.19590145 0.029495478 6645381
1.3301905 0.19849408 0.03091228 5986919
1.3312526 0.20067436 0.030614316 3618890
1.3333093 0.20335293 0.029883027 3421254
1.3351305 0.20543367 0.029788733 3487822
1.3364998 0.20821142 0.029205263 3291219
1.3378112 0.21109021 0.028998971 3093841
1.3393989 0.21326184 0.029696465 3159636
1.3410811 0.21556193 0.029572487 3093332
1.3424228 0.21863127 0.029714942 2830928
1.3434942 0.22101951 0.030090868 2830929
1.3454598 0.22382343 0.028365791 1712201
1.3471155 0.22578895 0.028292418 1317957
1.3488736 0.22879052 0.028558493 1317961
1.3505833 0.23161674 0.029030442 1121087
1.3511199 0.23376119 0.029199779 791351
1.3189833 0.1841253 0.029232085 3355702
1.319842 0.18643159 0.029910207 2698299
1.3216438 0.18883049 0.029204607 2633288
1.3233621 0.19113612 0.029182613 2173254
1.3246981 0.1940214 0.029488027 1778498
1.3269582 0.19670808 0.028604686 2435913
1.3280504 0.19967496 0.028579175 2632518
1.3293617 0.20209891 0.027574003 2501961
1.3312774 0.20488638 0.028017998 3028303
1.3323156 0.20708263 0.028274834 3159634
1.3337986 0.2093789 0.028350353 3093843
1.3354139 0.21229529 0.027898252 2896722
1.3369586 0.21501154 0.028575063 2830930
1.3390975 0.21729952 0.029006779 2895699
1.3407563 0.21936774 0.029507816 2830671
1.3418702 0.22285008 0.02655375 1383237
1.3432269 0.22487527 0.027465761 1383241
1.3444088 0.22789198 0.028125644 1317962
1.3469172 0.23043722 0.028383613 1318219
1.348289 0.23218954 0.028523505 1252684
1.3162315 0.18533552 0.028225362 4014403
1.3179439 0.18787384 0.02890867 2106419
1.3197092 0.19050378 0.027861178 1514550
1.3207253 0.19292867 0.028054953 1383469
1.3224709 0.19553369 0.027607083 1251886
1.3239098 0.19766742 0.027880669 1383729
1.3252276 0.19995797 0.027554631 1515069
1.3269931 0.20299637 0.02733475 2436425
1.3289444 0.20604461 0.027602077 3028304
1.3303344 0.20836473 0.027342737 2896722
1.3313495 0.21086431 0.027492166 2830677
1.3331299 0.21292001 0.027709424 2962261
1.3350068 0.21618861 0.026657403 2107216
1.3364236 0.21928978 0.025311947 1383497
1.3383043 0.22070152 0.025708616 1317962
1.339166 0.22376192 0.026367128 1317702
1.3408732 0.22555757 0.027420342 1317705
1.3129792 0.18507904 0.026156664 2104107
1.3139352 0.18669724 0.027451694 4342604
1.3154851 0.1887666 0.027077556 2830395
1.3171195 0.19174218 0.026830316 2370107
1.3188593 0.19434768 0.026496351 2041395
1.3198203 0.19713259 0.026854515 2633534
1.3217382 0.19952446 0.026253402 2239035
1.3233435 0.20235342 0.02652216 2436169
1.324735 0.20474309 0.026746988 2831187
1.3261762 0.20696509 0.026625335 2831187
1.327534 0.20931464 0.02681458 2830678
1.3295776 0.21271819 0.02414906 1384524
1.3309416 0.21508288 0.024656832 1384523
1.3326551 0.21712971 0.02496165 1384270
1.3342414 0.21982521 0.025157094 1384268
1.3355441 0.22270626 0.025708854 1449800
1.3371009 0.22468245 0.026376903 1384003
1.3105714 0.18639082 0.024602234 1118232
1.3116651 0.18786216 0.025736332 2960705
1.3134108 0.19071931 0.025328696 3225679
1.3149511 0.19313407 0.025128603 2830925
1.3160621 0.19532353 0.025423348 3028048
1.3174857 0.19826657 0.025033057 2896975
1.3191638 0.20076203 0.025529206 2896981
1.3207473 0.20354277 0.025913298 2831190
1.322351 0.20683056 0.02271992 1581134
1.3243213 0.20864546 0.024113417 1910351
1.3259766 0.21099848 0.023458302 1515852
1.3269838 0.21347022 0.024089813 1516112
1.3283758 0.21581686 0.024577618 1581395
1.3306234 0.21897328 0.025096655 1581652
1.3325329 0.22140181 0.025023639 1516109
1.3330458 0.22286648 0.025342524 1450314
1.308327 0.18763673 0.023610175 1250330
1.3094264 0.18940002 0.024302304 2172217
1.3110294 0.19162726 0.024415791 3357005
1.3122425 0.19429964 0.024610937 3028056
1.3146021 0.19709182 0.024745882 3224923
1.3173589 0.20279056 0.021993756 1647441
1.3186879 0.2049371 0.022414625 1646928
1.3200231 0.20729548 0.022846222 1515852
1.3219355 0.20958543 0.023101866 1384268
1.3232071 0.21207672 0.023545206 1450312
1.324684 0.21394145 0.024282753 1581647
1.305948 0.18849617 0.022136271 1119024
1.3071848 0.19053108 0.023003757 1185069
1.3083152 0.19288844 0.023148358 2764869
1.3114282 0.1990577 0.02128011 1318978
1.3130893 0.20117104 0.022069871 1515599
1.3155142 0.20303941 0.022307396 1450319
1.316439 0.20572931 0.023272574 1253195
1.3038485 0.18996549 0.021455467 1711155
1.3047693 0.19201666 0.021520734 1446965
1.3057885 0.19345957 0.021226704 1317427
1.3081263 0.19748753 0.020544589 1647416
1.3090421 0.19924963 0.021638453 1252675
1.3021557 0.19115818 0.019790232 2434878
1.3025941 0.19336402 0.019989669 1513273
1.3045135 0.19568527 0.019523978 2174002
1.3053039 0.19806778 0.01972574 1119791
1.2998476 0.19462895 0.018852532 2171203
1.3016249 0.19784069 0.017893314 3226712
1.302712 0.199251 0.018586755 592935
1.2973711 0.19561911 0.017501652 2172767
1.299974 0.19859743 0.016875029 1776695
1.3001767 0.20031852 0.017678559 395551
1.2956593 0.19730628 0.015444815 4082311
1.2975268 0.20045078 0.015597284 1052737
1.2935336 0.19832426 0.014788449 3688853
1.2948507 0.20096725 0.014570057 2500715
1.2962989 0.20254397 0.015491605 395059
1.2917308 0.200243 0.014845908 4275343
1.2925766 0.20206583 0.014739513 3417722
1.2856992 0.20745379 0.0094788074 14135740
1.2872057 0.20798409 0.0091584921 13275536
1.2874736 0.21094179 0.0087664723 7755360
1.2851666 0.21014023 0.0070510507 13284819
1.2859564 0.2125482 0.007148087 8091037
1.2869564 0.21601278 0.006670475 2764918
1.2789704 0.2063632 0.0061328411 13553118
1.2811632 0.20893145 0.0061172843 13684446
1.2825569 0.21128267 0.0063025355 13027036
1.2838382 0.2141965 0.006827116 8224417
1.2861446 0.21714604 0.0052855611 4607116
1.2766852 0.20783687 0.0039565563 12699891
1.2787921 0.21013957 0.0052625537 13291500
1.2801474 0.21259046 0.0031918287 12108285
1.2819847 0.21575809 0.0028249621 10858982
1.283769 0.21812236 0.0036735535 6976683
1.2838655 0.21942478 0.0048938394 4476546
1.2764066 0.21119684 0.0031098127 12306430
1.2776015 0.21394289 0.0030471087 12174847
1.2795514 0.21661419 0.0027067065 11319805
1.2809097 0.21941638 0.0029840469 8426202
1.2811582 0.22097486 0.00330621 7439038
1.2738756 0.21261287 0.0030360818 12964863
1.2757215 0.21552169 0.0028401613 12635647
1.2773089 0.2177341 0.0027366281 12306431
1.2785617 0.22028714 0.0026468635 11845371
1.4168718 0.24743664 0.053642869 8232181
1.4156979 0.24923736 0.052231491 9875967
1.4134514 0.25084794 0.051443279 4944560
1.4114583 0.25284261 0.049848258 792656
1.4121332 0.25436509 0.050330698 2371165
1.4067148 0.25056809 0.048515618 1319006
1.4086301 0.25342321 0.049441934 1845853
1.4098976 0.25516123 0.049610436 6581128
1.40149 0.24784493 0.047196448 4477840
1.4033225 0.24976867 0.047704101 4147579
1.404732 0.25269419 0.048254669 5200757
1.4064482 0.25469637 0.048494041 8358300
1.4079031 0.25643259 0.048289359 12500974
1.3973975 0.24638861 0.045918643 1714017
1.399496 0.24863946 0.046591103 2304083
1.4015863 0.25113809 0.047413588 4344676
1.4025042 0.25370973 0.046732485 4542289
1.4041958 0.25560755 0.046978414 9870001
1.4057729 0.25876927 0.046519876 11976444
1.406728 0.26041418 0.046108782 7966425
1.3858566 0.23179948 0.045193732 3621222
1.3873146 0.23390847 0.045313358 2700373
1.3887691 0.23599309 0.044986427 5262154
1.391951 0.2421729 0.044488907 4481978
1.3942257 0.24603599 0.045021176 3688313
1.3955443 0.24711341 0.045579195 2371686
1.397052 0.24972701 0.045616388 2106696
1.398632 0.2523669 0.045889676 3619397
1.4003967 0.25493389 0.045523524 4411729
1.4019241 0.25743711 0.045477152 7963794
1.4031187 0.25997549 0.045448959 9938393
1.404264 0.26176649 0.045649946 10400241
1.3810278 0.22939104 0.044018447 1647187
1.3825754 0.2308172 0.044902742 3292525
1.3842617 0.23324555 0.04467833 4541792
1.385283 0.23536122 0.045051634 3555416
1.3871049 0.23775023 0.04453516 5396839
1.3884795 0.24090064 0.044435441 10399973
1.3902627 0.24298167 0.044457138 5270206
1.3919283 0.24617285 0.0445382 3163521
1.393698 0.24890369 0.044790864 3160667
1.3949344 0.25130403 0.044308603 2961476
1.3966123 0.25363809 0.044223845 3158600
1.397615 0.25612295 0.044374764 3817547
1.3993371 0.258479 0.044259369 3424856
1.4012551 0.2611376 0.04452461 4481163
1.4022059 0.26356673 0.045051455 3560327
1.3720847 0.21943796 0.043377817 3162227
1.373824 0.22160256 0.043693841 2833522
1.3771 0.22760421 0.042802334 8096732
1.3788182 0.22940981 0.043440521 924019
1.3801703 0.23206663 0.044003427 2634073
1.3817712 0.23433304 0.043656945 4213586
1.3831201 0.23671865 0.044402182 3753050
1.384742 0.2397939 0.043688238 4607580
1.3864349 0.24199033 0.043753207 7699858
1.3877375 0.24428368 0.043837249 6319515
1.3896209 0.24705344 0.043515325 4016490
1.3911195 0.25000387 0.043425381 4739422
1.3930781 0.25250924 0.042860389 3751498
1.3938435 0.25495392 0.043145955 2501191
1.3954592 0.25744349 0.043026984 1909312
1.3971655 0.2599684 0.042813778 1318212
1.3982564 0.26254028 0.043263733 858164
1.3997344 0.26404262 0.04356581 1121846
1.3685689 0.21863967 0.042305946 2701653
1.3701231 0.22011971 0.043175936 2965351
1.3716356 0.22230577 0.043671668 2109797
1.3731525 0.22533119 0.042072058 3819109
1.3748075 0.2278313 0.042117298 7701431
1.3763605 0.23056787 0.042305946 2305120
1.3779989 0.23333561 0.042721629 1712449
1.3794647 0.23569548 0.043048024 2633797
1.3806095 0.23830634 0.042733312 2107457
1.3822778 0.24102801 0.043105543 1975873
1.3838006 0.24387211 0.043001115 2501700
1.3858722 0.24599808 0.042286575 3028299
1.3874265 0.24871534 0.041800976 4606547
1.3888028 0.25103569 0.04174161 5856607
1.3904295 0.25353277 0.041685343 4343645
1.391767 0.25625163 0.041682601 3685732
1.3932474 0.2583943 0.041107297 1844571
1.3942088 0.26099962 0.042333543 1646678
1.3666449 0.21921504 0.041191399 2043466
1.3677455 0.22126311 0.041563332 2174541
1.3694398 0.22394514 0.041774571 1844550
1.3709455 0.22680956 0.041714668 1713208
1.3724403 0.22928971 0.041770518 2043211
1.3735422 0.23204631 0.041978002 1713228
1.3756456 0.23460102 0.041846871 2502215
1.3770024 0.23703116 0.041734636 2370625
1.3785394 0.23970962 0.041208625 2040902
1.3808329 0.24261016 0.040911436 1646394
1.3822819 0.24511778 0.040976584 1975871
1.3834093 0.24751425 0.040818334 2896199
1.3844811 0.24976611 0.040288985 4014683
1.3864143 0.25224447 0.040355861 5067364
1.3877559 0.25474769 0.040957868 4211543
1.3896921 0.25748008 0.039455235 2831981
1.3906945 0.25945055 0.040802658 4937361
1.3641052 0.22004849 0.040100932 1450579
1.3653256 0.22318614 0.040644884 2041677
1.3667645 0.22566289 0.040843844 1975620
1.3682369 0.22811115 0.040656626 1909824
1.3701509 0.23054361 0.040229559 1975866
1.3713905 0.23327035 0.040115476 3225676
1.3731849 0.23588461 0.039888024 3160905
1.3747262 0.23854071 0.040127933 4606814
1.3763638 0.24076897 0.040606976 3685216
1.3780304 0.24376887 0.039701939 2436186
1.3794777 0.24637538 0.039953411 2832226
1.3808014 0.24870646 0.039480984 4016497
1.3821887 0.25134999 0.039004505 4739451
1.3837035 0.25379997 0.039637506 4344164
1.3856487 0.25595373 0.038288295 3161193
1.3870316 0.25868469 0.039431453 1581394
1.3603284 0.21911174 0.038631678 2174820
1.3616347 0.22197783 0.039320469 2239059
1.3628635 0.22403336 0.039330781 4408933
1.364391 0.22696239 0.039355278 4540505
1.3658029 0.22986114 0.039430797 3422532
1.3680984 0.23183692 0.038774312 4409702
1.3690755 0.23466551 0.038942099 8224421
1.3706348 0.23702586 0.038857877 3226217
1.3727232 0.23996449 0.038483799 2568546
1.3743721 0.2422024 0.038785279 2962789
1.3749012 0.24470228 0.037961006 2107742
1.3772602 0.24726939 0.038242757 1582431
1.3784754 0.24949658 0.037872553 3097470
1.3798512 0.25251269 0.037436903 5992894
1.3816817 0.2543115 0.037658751 5597350
1.3829441 0.2574299 0.037978292 3029616
1.3560549 0.2177155 0.03733325 3885166
1.3575648 0.22027665 0.037953913 3160919
1.35938 0.22316176 0.038167596 2500411
1.3606544 0.22559243 0.038382471 3289665
1.362233 0.22784817 0.037759542 2896467
1.3638581 0.23037291 0.03762567 2174292
1.3657289 0.23301709 0.037762105 4674944
1.3670453 0.23570764 0.037353694 8029622
1.3684834 0.23820394 0.037805974 2962804
1.3694384 0.24068147 0.037349284 528713
1.3716649 0.24334806 0.035976827 857927
1.373142 0.24585426 0.036903203 1714008
1.3749914 0.24844652 0.03739965 1779563
1.376884 0.25181562 0.037958741 5860781
1.3778088 0.25317734 0.037466466 6783928
1.3796757 0.256033 0.037579358 6189470
1.380384 0.25774294 0.037450254 2107005
1.3817108 0.26225746 0.036296725 1581692
1.3495815 0.21228212 0.035966873 3885696
1.3506949 0.21448886 0.035852313 4081774
1.3522558 0.21680814 0.036164165 4081513
1.3538439 0.21923029 0.036771774 4016231
1.3552699 0.22190928 0.036848903 3883337
1.3569565 0.22435725 0.037037551 2566194
1.358387 0.2268784 0.036700726 2369598
1.3598728 0.2293759 0.03649652 2304587
1.3610704 0.23211503 0.036673069 1976656
1.3633255 0.23434734 0.036667943 2109786
1.3647325 0.23719847 0.036926389 8096439
1.3659296 0.23977715 0.035880029 6583225
1.367772 0.24260479 0.034934521 3226760
1.3688524 0.24474108 0.035930455 790855
1.3710661 0.24716645 0.03628242 1581653
1.372316 0.24935651 0.036627591 1911132
1.3800135 0.26222897 0.036206543 2041723
1.343853 0.20762128 0.03501159 3951488
1.3450662 0.21033597 0.035525322 4082561
1.3468639 0.21288431 0.035327137 4477046
1.3482454 0.21527869 0.035476387 4213101
1.3497746 0.21800601 0.035692215 4541803
1.3511831 0.22068501 0.03621906 4673126
1.3535029 0.22307885 0.03535825 4738379
1.3542912 0.22570646 0.035828531 3027004
1.356342 0.22789586 0.035206079 1646396
1.3575592 0.23127151 0.035679698 1910080
1.3597777 0.23313659 0.034241617 1449792
1.3613827 0.23584634 0.034147978 1515343
1.3625889 0.23835611 0.034004927 1187158
1.3637627 0.24098885 0.034120202 5137556
1.3650429 0.24370229 0.034708202 5331865
1.3668094 0.24608028 0.035609543 987219
1.3692131 0.24873132 0.035789371 1580375
1.3268629 0.18648916 0.035067499 4737880
1.3292063 0.18827909 0.034929216 4014159
1.3401256 0.20670772 0.034372985 4148354
1.3415742 0.20928216 0.034847856 4476792
1.3427949 0.21177405 0.034685135 4541806
1.3442268 0.21418703 0.034693062 4804970
1.3459783 0.21680319 0.034308672 4803928
1.3475486 0.21927607 0.03473109 4869466
1.3495142 0.22163975 0.034468234 5131858
1.3507951 0.22449797 0.034391344 4672333
1.3524482 0.22740555 0.033511639 2171968
1.3539659 0.22952837 0.034161747 1514553
1.3556638 0.23232371 0.033712387 1186354
1.357253 0.23432302 0.033259571 1055026
1.3585123 0.23773235 0.033091784 1121082
1.3598119 0.239838 0.033182919 1120574
1.361559 0.24242145 0.03323698 1252688
1.3634109 0.2454561 0.033739626 2106973
1.3633701 0.24792051 0.033391893 922945
1.3648329 0.25088894 0.033240318 726054
1.3252305 0.18717307 0.03432554 5001304
1.3263495 0.18971401 0.034209013 4343631
1.3286926 0.19192642 0.034275949 6776434
1.3303723 0.19544822 0.033429563 10526665
1.3341491 0.20341873 0.032672524 4214142
1.3362106 0.20514542 0.033189237 4279161
1.3372653 0.20775443 0.033738077 4344688
1.3389453 0.21023476 0.03382653 4672866
1.3408855 0.21326137 0.033541739 4935518
1.3417931 0.21531391 0.033742547 4671825
1.3435991 0.21798325 0.033789575 4672081
1.3447535 0.22070783 0.033774495 4868947
1.3469322 0.22260737 0.033464074 5001310
1.3486983 0.22562164 0.032761395 4080985
1.350287 0.22861463 0.03235507 2107207
1.35167 0.23107964 0.032578945 1120053
1.3533832 0.23374623 0.032718837 923180
1.3543245 0.2356779 0.031944573 660265
1.3561115 0.23885489 0.031883597 660006
1.3579358 0.24117827 0.031958878 660010
1.3594323 0.24334848 0.032519042 726062
1.360298 0.24629658 0.032227516 660265
1.3622173 0.24862748 0.03284651 791598
1.3226703 0.18604112 0.032973588 4672332
1.3228468 0.1886372 0.032874525 4211274
1.324028 0.19108981 0.0332371 3554126
1.3259747 0.19319367 0.033011436 3816261
1.3277569 0.19608593 0.03286916 5525843
1.3292695 0.1996184 0.032201111 5593946
1.3311868 0.20211107 0.03213948 4277845
1.3323867 0.20416075 0.032160401 4277856
1.3336769 0.2067768 0.032674074 4146269
1.335386 0.20905727 0.0325104 4277071
1.3365378 0.21160382 0.032774091 4144709
1.338357 0.21453685 0.032612801 4144969
1.3399572 0.21703237 0.031985998 3948624
1.3419149 0.21935302 0.032232165 3948624
1.3429716 0.22204036 0.031412303 3685979
1.344884 0.22419691 0.031297684 3225175
1.3460536 0.22690129 0.031517982 3159383
1.3479539 0.22925806 0.031463921 2633553
1.3486092 0.23232287 0.031410158 1713219
1.3503842 0.23529947 0.031302154 1252151
1.3522906 0.23680413 0.029777944 528162
1.3535762 0.23956031 0.0303545 462631
1.3555323 0.2424674 0.031055152 594469
1.3566122 0.24506229 0.031218052 791856
1.3577639 0.24710751 0.031406939 989753
1.3199134 0.18801552 0.031116664 2763572
1.3208613 0.1897195 0.031695366 2829105
1.3215859 0.19276285 0.03182888 2237995
1.3243889 0.19509864 0.031769216 2106152
1.3252859 0.19777745 0.03166914 2106662
1.3263994 0.20055336 0.031804025 3225661
1.328483 0.20293832 0.031069279 4013897
1.3297944 0.2052418 0.031878114 4146009
1.3311106 0.20751745 0.031813264 4013381
1.3326675 0.21047014 0.032027721 4013126
1.334887 0.21298504 0.030466616 3488080
1.3364246 0.21566528 0.030370653 3357013
1.3376764 0.21848387 0.030139387 3159637
1.3391489 0.22058964 0.030088842 3028051
1.3407664 0.2230953 0.030238152 2962003
1.3420317 0.2260142 0.030752182 2962004
1.3437423 0.22848803 0.030653238 2764883
1.3454171 0.23093522 0.03030467 2305105
1.3474214 0.23358083 0.02893889 1449545
1.3485136 0.23640531 0.028818846 1186371
1.3497277 0.23824316 0.029277682 1055033
1.3515346 0.24106562 0.029686928 1054775
1.3530524 0.24384707 0.030105174 1120829
1.3548913 0.24610603 0.030531764 1252421
1.3178544 0.18915415 0.030218661 2436148
1.3188503 0.19088179 0.030602574 2632491
1.3197144 0.19377744 0.030819774 3225142
1.3212185 0.19645327 0.030842006 3487802
1.323065 0.19922316 0.030989647 3817026
1.3244275 0.20163089 0.030962408 4013895
1.3258187 0.20434272 0.030590355 3815745
1.3274498 0.207178 0.030411243 3684422
1.3289886 0.20941633 0.029590011 3487823
1.3309659 0.21184516 0.028904438 3225685
1.332093 0.21470356 0.029380918 3159893
1.3339412 0.21692055 0.029066205 3028053
1.3356323 0.21947277 0.02959168 3028307
1.3367357 0.22192192 0.029420197 2830677
1.3380576 0.22475338 0.029071212 2436177
1.3400199 0.22744393 0.028099477 1712200
1.3424656 0.22972101 0.02800101 1383751
1.343353 0.23220247 0.028231263 1383749
1.3444064 0.23541468 0.028518915 1318213
1.3461968 0.23726571 0.028812885 1318215
1.3480837 0.24005985 0.029406726 1317702
1.3496418 0.24198306 0.029722512 1317956
1.3124697 0.18806165 0.02776593 4407361
1.3144941 0.18990272 0.028462172 4343627
1.3161228 0.19257522 0.029177845 4145485
1.3174753 0.19559073 0.02972877 4145486
1.3191447 0.19796455 0.030005157 3947849
1.3202311 0.20011276 0.029663205 4013646
1.3219805 0.20245045 0.029502511 3684681
1.3235029 0.20476913 0.028190315 3357010
1.3253132 0.20772111 0.028157949 3291479
1.3264678 0.21108574 0.02846843 3094620
1.3285937 0.21261817 0.028177977 3094105
1.3299989 0.21586442 0.02816838 2896986
1.3311695 0.21838897 0.028401792 2831451
1.3329978 0.22049862 0.028769374 2699858
1.3351552 0.22370529 0.028162122 2239313
1.3360302 0.22620541 0.026607394 1318216
1.3371941 0.22875488 0.02751869 1383497
1.3392711 0.23120672 0.02790606 1318212
1.341054 0.23388135 0.028380394 1318210
1.3106418 0.18931669 0.027240515 4473926
1.3119819 0.19131267 0.028198302 4672081
1.3136176 0.19396615 0.028698504 4342874
1.3150674 0.19684881 0.028040349 3553362
1.3169782 0.19885576 0.027460456 3225942
1.3179686 0.20218277 0.027065933 2765915
1.3198923 0.20448154 0.027383626 2831705
1.321522 0.20651478 0.027166426 2897240
1.3229231 0.20901847 0.027268529 2765657
1.3245116 0.21162331 0.027210653 2436951
1.3264349 0.2137785 0.027607977 2699866
1.3276832 0.21697885 0.026404679 2042197
1.3283331 0.21924376 0.025621533 1515850
1.330928 0.22221899 0.025326788 1318731
1.3321514 0.22478479 0.026005328 1121595
1.3338107 0.22705376 0.026737213 1121097
1.3084668 0.19026721 0.026720822 3356221
1.309638 0.19263273 0.026948333 3883595
1.3110749 0.1955905 0.025855124 2633815
1.3127953 0.1976735 0.026250482 2437211
1.3143315 0.19990844 0.026474476 2305881
1.3157732 0.20283902 0.02631402 2174293
1.3177044 0.20499641 0.026761115 1845074
1.3195419 0.20781428 0.026986837 1911369
1.3213398 0.21088278 0.027342319 2107724
1.322387 0.21383172 0.024586022 1253446
1.323916 0.21610582 0.025532603 1384274
1.3253847 0.21831441 0.0261724 1121105
1.3277786 0.22105396 0.025772631 1055817
1.328819 0.2231701 0.026014447 924235
1.329861 0.22535092 0.026708066 661064
1.3042867 0.19040841 0.025011063 1183773
1.306062 0.19147825 0.02542609 2368819
1.3072641 0.1942271 0.025354981 2831175
1.3086789 0.19644302 0.026005387 2765402
1.3103051 0.19868863 0.026750863 2305376
1.3119593 0.20336068 0.023705006 1844575
1.3135527 0.20425671 0.023531854 1187417
1.315026 0.20720774 0.024375558 1253721
1.3171988 0.20920998 0.024385929 1187670
1.3186067 0.21193737 0.024644494 1384542
1.320171 0.21377832 0.025086999 2173801
1.3212148 0.21579671 0.02595377 2898025
1.3024936 0.19145113 0.024228275 1578786
1.3044491 0.19341344 0.02401185 1316406
1.3048548 0.19498307 0.024206221 2304319
1.3080915 0.20119917 0.023109138 1646672
1.3100189 0.20265263 0.023783922 2436449
1.3123944 0.20518684 0.024385273 1779044
1.3128171 0.20691198 0.025205612 1516642
1.3006942 0.19260901 0.023349583 1973546
1.301275 0.19452566 0.022388935 1316407
1.3022847 0.19568378 0.023194432 2238531
1.3053375 0.19978595 0.021382928 1383476
1.3055396 0.2016452 0.022752523 856370
1.2994962 0.19628477 0.020571709 921398
1.2998043 0.19714314 0.021546066 1909570
1.3023778 0.20092875 0.020085394 1711934
1.3027015 0.20249534 0.021627307 1054262
1.2968822 0.19745344 0.019663334 1710654
1.2981825 0.19810534 0.01968503 5067119
1.2997177 0.20245612 0.019385397 1317171
1.2931559 0.19562584 0.018089652 3686533
1.2941688 0.19803482 0.018800735 2171215
1.2954841 0.20040345 0.019108891 8093851
1.2971796 0.20271736 0.018207669 592677
1.2917112 0.19915193 0.017969608 7425889
1.2941794 0.20193344 0.016406953 3617111
1.2949989 0.20401561 0.017326653 591912
1.2901113 0.20077574 0.015799284 10579592
1.2912629 0.20349675 0.015333831 7030890
1.2923322 0.20486277 0.016916871 460073
1.2877989 0.20196182 0.014619768 13928616
1.2886847 0.20491707 0.014765739 11168378
1.2901258 0.20647293 0.014560699 15968658
1.2861564 0.20402664 0.013649821 13534346
1.2862371 0.20592666 0.013589621 7619658
1.2876927 0.20872748 0.013828218 14529974
1.2820415 0.20468605 0.012256086 15390676
1.2850479 0.20725274 0.011756718 11375518
1.2856212 0.20966887 0.011361122 8417159
1.2801921 0.20591545 0.010097265 14801371
1.2823809 0.20814139 0.0098019242 14800598
1.2836829 0.21089327 0.01007551 10525861
1.2847636 0.21307808 0.010180354 3619180
1.2856151 0.21515352 0.0080714226 4211055
1.2777522 0.20743895 0.0092167854 15197669
1.2796741 0.21004438 0.0092250109 14211288
1.2813599 0.21271843 0.0083713531 9672870
1.282896 0.21487677 0.008644402 5856641
1.2840235 0.21656841 0.0082184076 4145517
1.2762563 0.20844966 0.0065985322 14212063
1.2774031 0.21096826 0.006293416 14080741
1.2790092 0.21347106 0.0066680312 11844818
1.2806354 0.21599191 0.0070453286 7765923
1.2825763 0.21889424 0.007429719 3028323
1.2827531 0.22023159 0.0051267147 4674424
1.2749004 0.21235538 0.0063602328 14409443
1.276553 0.21497148 0.0063502789 13949155
1.278455 0.21777683 0.0066261888 9804731
1.2809439 0.22188169 0.0048704743 4871045
1.272331 0.21407557 0.002989769 13491455
1.2744101 0.21550328 0.0039111376 13424378
1.2754766 0.21865314 0.0027597547 12371967
1.2774081 0.22132367 0.0027777553 11187702
1.2786298 0.22336495 0.0038769841 6515886
1.2703161 0.21474177 0.0029683709 14018047
1.2721201 0.2176441 0.002728343 12767998
1.2741094 0.21997255 0.0026079416 11780862
1.2754232 0.22306269 0.0029770732 10399470
1.2762328 0.22467732 0.0034310818 7766979
1.2681811 0.21658212 0.0027489662 14018558
1.2697614 0.21868455 0.0026963353 13031934
1.2717097 0.22175136 0.0025879741 12965375
1.2734156 0.22370642 0.0026544333 12044027
1.4072092 0.25553143 0.051658452 5595276
1.4081622 0.25574726 0.052221775 6779822
1.4053544 0.25585669 0.05065918 9017038
1.4061959 0.25784647 0.050359428 14146805
1.3995545 0.25192487 0.048756182 3162738
1.4014454 0.25436646 0.049633682 4940955
1.4030263 0.2570098 0.048814952 12698831
1.4040523 0.25960124 0.049237132 14013928
1.3964761 0.25073147 0.047807217 1844828
1.3968365 0.252891 0.048566818 3096168
1.3988689 0.2554149 0.04843092 4084580
1.4006045 0.2580049 0.047459006 7435886
1.4017563 0.26104933 0.048162639 6974840
1.4015536 0.26310623 0.048373699 8099735
1.3936603 0.2516219 0.046492457 1581918
1.3949763 0.25446713 0.047038436 2699858
1.3966216 0.25684506 0.046369433 3159611
1.3983042 0.25922501 0.046451211 3423300
1.3999116 0.26177281 0.046606541 2634310
1.4005084 0.26462501 0.046163201 1978190
1.3902259 0.25080431 0.044946134 3030125
1.391102 0.25327486 0.045399666 2041951
1.3931744 0.25569075 0.045680344 2961489
1.3944145 0.2579059 0.044816017 2764609
1.3962667 0.26052731 0.045236766 1777723
1.3977262 0.26320928 0.04568243 1253442
1.3991165 0.2657814 0.04482621 1780060
1.3773786 0.23638189 0.043527663 1713748
1.3794527 0.23979622 0.043324649 1253449
1.3814715 0.24233085 0.043528676 1252930
1.3828912 0.24440873 0.043717444 1186893
1.3844573 0.24697155 0.043710589 2569833
1.3864828 0.24915034 0.043908 3886452
1.3874991 0.25194955 0.04390347 4477041
1.3887925 0.25450891 0.044333637 3488600
1.3906544 0.25696081 0.043601215 5394535
1.3922815 0.25925314 0.044501543 5527157
1.3937668 0.26198518 0.044323206 3555436
1.3956234 0.26472872 0.043155849 1122899
1.3967602 0.26755524 0.044014871 2241132
1.3983655 0.26887286 0.043825984 1387117
1.3711979 0.23106629 0.042701304 2962753
1.3742621 0.2353757 0.042710423 1385043
1.3757571 0.23821783 0.042865694 2239575
1.3772168 0.24008566 0.043086648 2501968
1.3789719 0.24290228 0.043212831 2173253
1.3802226 0.24615169 0.043141663 2765662
1.3818954 0.24811673 0.043100357 2964327
1.383652 0.25096691 0.043239713 4477043
1.385102 0.25301707 0.042816222 4936287
1.3864807 0.25586772 0.042585015 4935503
1.3881737 0.25827777 0.042971551 3355463
1.3896481 0.26067436 0.042626619 3620201
1.3914346 0.26348323 0.042628646 3361154
1.3933903 0.26584172 0.043163717 6124714
1.3947068 0.26758653 0.043924034 8162747
1.3650728 0.22652382 0.041652918 1252957
1.3668636 0.2295382 0.041682959 2896982
1.3688489 0.23207951 0.041983962 5989257
1.3703992 0.23446208 0.041905046 2963822
1.3720303 0.23679161 0.042191565 2371411
1.3735328 0.23926532 0.042550862 4541549
1.3748462 0.24174571 0.042406142 3882847
1.3763683 0.24414897 0.042327523 3160662
1.3779161 0.24680787 0.042528927 4081773
1.3795263 0.24962765 0.041948259 8817071
1.3811743 0.25221574 0.041722953 7107738
1.382822 0.25463527 0.041613817 5200232
1.3842741 0.25684291 0.041594625 4409168
1.3858566 0.25969583 0.041082263 1645883
1.3871226 0.2622422 0.04157573 1909833
1.3885231 0.26388907 0.042695343 2241626
1.3619038 0.22548831 0.041119277 3751263
1.3633628 0.22769052 0.042083204 3028566
1.3649573 0.23061389 0.04198581 3292512
1.3665991 0.23286802 0.041785896 7503006
1.3680446 0.23565996 0.041442573 7831991
1.3699727 0.23825186 0.041349292 1778243
1.371223 0.24035859 0.041218996 3290177
1.372888 0.24301338 0.04153502 3357263
1.3746257 0.24659216 0.040658712 2439013
1.3758376 0.24870801 0.040811121 6186892
1.3778685 0.25041014 0.04112643 9869757
1.3789723 0.25310218 0.040340304 10133188
1.3804665 0.25587267 0.040165126 4673390
1.3820298 0.25816268 0.040960729 3883095
1.3837242 0.2608754 0.039528608 1646408
1.3845072 0.26271439 0.041020751 1580863
1.3564162 0.22214299 0.039136589 1450326
1.3577812 0.22442538 0.040237248 2107217
1.3595961 0.22659439 0.040694356 3750990
1.3612578 0.22870034 0.039942145 4869968
