# .PCD v0.7 - Point Cloud Data file format
VERSION 0.7
FIELDS x y z rgba
SIZE 4 4 4 4
TYPE F F F U
COUNT 1 1 1 1
WIDTH 1147
HEIGHT 1
VIEWPOINT 0 0 0 1 0 0 0
POINTS 1147
DATA ascii
0.73755193 0.23529091 0.037963271 4014681
0.73909855 0.23699188 0.037930667 5594230
0.73273528 0.23259547 0.036029994 1187115
0.73399961 0.23404199 0.036595702 1514544
0.73518002 0.23636281 0.037014186 2106427
0.73636961 0.23860821 0.035702527 2040383
0.7301923 0.23292866 0.034570634 1779259
0.73128748 0.23537984 0.035227358 1712693
0.7323339 0.23774874 0.035127103 1974582
0.73373532 0.24011379 0.034767687 1644853
0.7210443 0.22452781 0.033111811 3620722
0.72573555 0.23224193 0.032787502 2568016
0.7275058 0.23439214 0.033434808 2699340
0.72885513 0.236716 0.034007311 2896204
0.7305181 0.23921973 0.033931196 2961741
0.7050994 0.20254204 0.033430636 4606837
0.70679033 0.20451126 0.033580601 2568282
0.70805097 0.20704859 0.033174574 2764629
0.70892316 0.20973825 0.032939672 1185348
0.71546853 0.22079885 0.032920063 1184819
0.71713948 0.22262773 0.033356786 1580099
0.71896112 0.22486416 0.033567727 2305117
0.7205987 0.22740671 0.033338606 1976153
0.72204232 0.23020419 0.032950163 1844552
0.7234031 0.2329402 0.032822311 2370634
0.72510618 0.23529828 0.032981396 2765134
0.72668374 0.2375946 0.033106089 2962257
0.70209187 0.20128644 0.032324016 2895945
0.70287812 0.20360854 0.032505453 3028824
0.70448709 0.20564613 0.032749712 3094365
0.7057718 0.2082051 0.032457113 2896733
0.70735329 0.210769 0.032267749 1778249
0.70880568 0.21364495 0.031931102 1713215
0.71009946 0.21645096 0.031468213 2831438
0.71181285 0.21910331 0.032102346 2172221
0.71363103 0.22102976 0.032594979 1316405
0.71479702 0.22346076 0.032731473 1251388
0.71726638 0.22638822 0.033687413 2174591
0.71840912 0.2290501 0.032987773 660821
0.71980166 0.23151451 0.032834589 1252411
0.72149217 0.23361921 0.032960176 1844293
0.72296613 0.23599476 0.032803833 1647426
0.72427392 0.23871425 0.032297552 2436172
0.68432271 0.17993164 0.032006025 3094354
0.68598354 0.18201983 0.031878948 3225680
0.68717164 0.18362081 0.031535804 3093837
0.69244444 0.19246328 0.032069385 1381942
0.69389117 0.19457057 0.032479107 1909826
0.69544613 0.19690648 0.032384694 3817575
0.69697452 0.19962144 0.031921864 2566998
0.69859815 0.20225981 0.031517565 1184817
0.70018095 0.20428398 0.031660616 987178
0.70163232 0.20730188 0.031594098 2040127
0.70362926 0.2097463 0.031534493 3488097
0.70508158 0.21231997 0.031098902 2765143
0.70653915 0.21493211 0.031010747 2896722
0.70812023 0.21759242 0.03121984 2962251
0.70948744 0.21985623 0.031461775 2238021
0.71127516 0.22226197 0.031648517 1316669
0.67983484 0.17597628 0.030957937 3226440
0.68085998 0.17807835 0.031269312 2896972
0.68236172 0.18057546 0.031363487 3226202
0.68375468 0.18286163 0.031147063 3226977
0.6853264 0.18513405 0.030969799 3489375
0.68680954 0.18787158 0.030610859 2831439
0.68853569 0.19077262 0.031074941 1711424
0.69020706 0.19290623 0.031529486 1119543
0.69183648 0.19538465 0.031854331 1712706
0.69398457 0.19834989 0.031960011 1515598
0.69514495 0.20101315 0.031876028 1909325
0.69634861 0.203345 0.031423211 1119029
0.698017 0.20611802 0.031009734 1053489
0.69928646 0.20851094 0.030837119 1382716
0.70084924 0.21122819 0.030473888 2435402
0.70237827 0.21387619 0.03054446 2830674
0.70396215 0.21626654 0.030607998 3028308
0.70584321 0.21854943 0.03070426 3093845
0.70719063 0.22086376 0.030931056 2172235
0.67773497 0.17665902 0.03040117 2502207
0.6787166 0.17916602 0.030719519 2436425
0.68000424 0.18179989 0.030681729 3029594
0.68162453 0.18426716 0.030725777 5858183
0.68314373 0.18689525 0.030500591 5265031
0.68480903 0.18951967 0.030275404 2567764
0.6864863 0.19184548 0.030532181 1448254
0.68790162 0.19423062 0.030840337 1382463
0.69440824 0.20588705 0.030706942 724793
0.69571334 0.20768309 0.030408204 1185083
0.69764328 0.210085 0.030258179 1712194
0.69871259 0.21261543 0.029996812 2502220
0.70058554 0.21493077 0.030023336 3291729
0.70181513 0.21671775 0.030415118 3225945
0.66595834 0.16343793 0.029040575 5525618
0.66694635 0.16557547 0.028781474 9736130
0.66844869 0.16833451 0.028860569 5790085
0.66973972 0.17053832 0.029297948 1053245
0.67138314 0.17289771 0.02931267 2567250
0.6730727 0.17559914 0.028874338 1777740
0.67461795 0.1779117 0.029164195 1185073
0.67608786 0.18031156 0.029398382 1316915
0.67755508 0.18295352 0.029778242 2304840
0.67924845 0.18568693 0.030051947 4410234
0.68082643 0.18824141 0.03020674 4411008
0.68288803 0.19091566 0.030112326 1910617
0.68429214 0.1933075 0.030062616 921917
0.68554884 0.19512562 0.030132473 1119031
0.65508318 0.15218751 0.028216958 1645367
0.65663373 0.15388677 0.028548717 2830149
0.65781903 0.15611902 0.028697193 3093580
0.65941906 0.1589832 0.027863562 2172232
0.66246378 0.16198845 0.028071404 1119272
0.6631282 0.16377638 0.027887642 1449274
0.66454518 0.16655299 0.028241873 4803697
0.66636211 0.16904302 0.028737962 3092824
0.66767228 0.17155913 0.028972626 987699
0.66930318 0.17399776 0.029139578 2238287
0.67096126 0.17658687 0.029140532 2172503
0.67253852 0.17921731 0.029152274 1448508
0.67426562 0.18189836 0.029101789 1053235
0.67543364 0.18458968 0.028793693 856106
0.67694175 0.18714435 0.028756499 658981
0.64481515 0.13987382 0.02753669 3948882
0.64643085 0.14247689 0.027396619 2765394
0.65147483 0.15075833 0.02774018 1315891
0.65277088 0.1527078 0.02790463 1974330
0.65438867 0.15501517 0.028162062 2567493
0.65600008 0.15742646 0.028331757 2962254
0.6577338 0.1600288 0.028234065 2501709
0.65924931 0.16258626 0.027837038 1909312
0.6605258 0.16512355 0.0274055 1514811
0.66226113 0.16762236 0.0273422 1316916
0.66386211 0.17027639 0.02797401 1184816
0.66570818 0.17194082 0.028609216 921391
0.67513442 0.18804535 0.028292656 724526
0.64159864 0.13874193 0.026867867 2830923
0.64300585 0.1407923 0.027076006 4409444
0.64443147 0.14334042 0.026751101 5331328
0.64607304 0.14586036 0.026571572 4474991
0.64778042 0.14896488 0.026587784 2171708
0.64927864 0.15118538 0.027034521 1250097
0.65070671 0.15360945 0.027170241 1645882
0.65230411 0.15610453 0.027754009 2568259
0.65397316 0.15853612 0.028085768 2304844
0.65552807 0.16092941 0.027741134 1581129
0.65695029 0.1635334 0.027284384 857147
0.65860283 0.16682668 0.027255952 1515074
0.66003579 0.16900226 0.027230322 1383228
0.66158205 0.17054382 0.026996195 987708
0.63364834 0.13188134 0.025327027 659239
0.63749099 0.13802269 0.0253492 1251120
0.63930535 0.13923223 0.026000798 1712440
0.64079314 0.14224344 0.026029944 3028562
0.64196432 0.14480086 0.026102543 5265281
0.64368975 0.14718445 0.025932908 4870782
0.64511406 0.14994095 0.025852084 1909840
0.64688909 0.15243116 0.025867105 921910
0.64830208 0.15490772 0.025705755 987440
0.64883363 0.15720513 0.026756585 1317174
0.65552676 0.16589716 0.026878655 1120833
0.62175852 0.1164766 0.025052607 3618888
0.62265718 0.11794014 0.025351822 3487818
0.62424183 0.12046814 0.025526226 3159113
0.62596714 0.12299743 0.025343835 2961992
0.6273154 0.12534963 0.025150895 2764609
0.62881905 0.12819514 0.024826646 2039350
0.63043237 0.13079137 0.025041401 1184047
0.63183939 0.13344936 0.025499642 2501185
0.6335299 0.13592014 0.025266647 2435658
0.63513583 0.13844167 0.025108516 1579833
0.63672173 0.14108001 0.024929881 1053231
0.63821113 0.14361106 0.024980724 1580083
0.63960934 0.14632781 0.025101364 2501707
0.64134395 0.14858069 0.025132656 2173520
0.64291453 0.15123986 0.025349081 1581391
0.64467227 0.15368329 0.025289357 1713241
0.6462301 0.15623429 0.025229037 658734
0.64711362 0.15886082 0.025536478 592928
0.61756623 0.11520579 0.023899734 2369069
0.61929405 0.11670405 0.024554789 3224902
0.6205861 0.11925572 0.024714708 2830153
0.6219129 0.12171702 0.025019467 2764872
0.62366456 0.12431467 0.024839878 2764871
0.62520498 0.12697607 0.02452451 2369855
0.62668663 0.1295328 0.024606168 1381683
0.62823892 0.13201983 0.02480334 1316662
0.62975943 0.13433717 0.02482295 2501960
0.63121021 0.13704728 0.024703383 1383498
0.63293207 0.13975728 0.024858952 1054009
0.63459337 0.14225812 0.024944365 1251376
0.63600093 0.14482065 0.024521232 1185077
0.63744456 0.14712492 0.024270594 1185073
0.63903141 0.14968032 0.024725378 922161
0.61173475 0.11130759 0.023224354 2565691
0.6130383 0.11331244 0.023300052 3158611
0.61483824 0.11558813 0.023060381 1974077
0.6165539 0.1179778 0.023305058 1711412
0.61820161 0.12049484 0.02387327 1842738
0.61947089 0.12315533 0.024158955 2172223
0.62106669 0.12569259 0.024121821 2501699
0.62260687 0.12838121 0.024092138 1842743
0.62416929 0.13076125 0.02412492 921393
0.625826 0.13283086 0.024431288 1185077
0.60786343 0.10969715 0.022465348 2105138
0.60965842 0.11149898 0.023070037 2303033
0.61130333 0.11390798 0.023388982 2698314
0.61295581 0.1166735 0.023036599 1842750
0.61434698 0.1193949 0.022988439 1447731
0.61585701 0.12204188 0.022966564 1382448
0.61706012 0.12451933 0.022784889 1250604
0.6188699 0.12698618 0.022986889 1514549
0.6202119 0.1295208 0.023060501 1580095
0.62155652 0.13198525 0.023075521 1250361
0.60261452 0.10689242 0.020974636 1841971
0.60393286 0.10830061 0.021580875 1776174
0.60573226 0.11002941 0.02200824 1776432
0.60742569 0.11281459 0.02237618 2106684
0.60911334 0.1154336 0.021567762 2173531
0.6103887 0.11809511 0.021714687 659775
0.6115135 0.12050861 0.022187114 659504
0.61357796 0.12285927 0.022714436 921898
0.61596656 0.12640338 0.022490799 987438
0.61723495 0.1281507 0.022474885 724516
0.59886551 0.10533082 0.019461095 3223865
0.60037923 0.10675792 0.020474851 2039343
0.60182869 0.1088039 0.020938635 1381933
0.60346287 0.11063434 0.021640718 1514029
0.59525526 0.10367168 0.018216968 2367783
0.59652114 0.10548332 0.019255221 2565938
0.59822458 0.10753578 0.020018756 1513773
0.59923577 0.10915196 0.020517647 1513010
0.59118092 0.10246612 0.017234981 2169895
0.59247851 0.10425805 0.018110931 2433834
0.59423476 0.10575007 0.01890552 2434352
0.59590119 0.10783111 0.019405842 1645100
0.58623058 0.10127018 0.017151177 1971746
0.58879948 0.10305239 0.017137349 2104101
0.59016395 0.10483369 0.017496049 2105387
0.58205777 0.10048111 0.01641953 2696763
0.5849086 0.10214198 0.016336858 2235690
0.58640862 0.10384467 0.0155707 2104100
0.58298159 0.10266982 0.014984548 2301480
0.57792532 0.10495557 0.011031687 3816024
0.57213104 0.10207175 0.0087476373 4474538
0.57411492 0.1041075 0.0093973279 3619746
0.57614255 0.10567349 0.0098187327 3683698
0.56862181 0.10123953 0.0086516738 4804030
0.57071435 0.10282032 0.0086914897 4014253
0.57262278 0.10402168 0.0091295838 2633868
0.56595349 0.10192235 0.0074883103 3948678
0.56902629 0.10373399 0.0069552064 4868512
0.56468546 0.10209794 0.0060250163 2896452
0.56491184 0.10783665 0.0063353777 1841184
0.56756544 0.10767646 0.0051373243 1906740
0.56109136 0.10559733 0.0045161843 1839639
0.56306678 0.10764885 0.0050157905 1972511
0.56498861 0.10922769 0.0035859346 1840931
0.55767161 0.1042591 0.0022414327 3682860
0.55945981 0.10597229 0.0026404262 2892841
0.56110287 0.10817091 0.0025969744 2432294
0.56122637 0.11028871 0.003025949 1906466
0.54762942 0.092269734 0.0014409423 10059607
0.54929781 0.094653949 0.0014430881 9928273
0.55071169 0.097160488 0.0013956428 9796951
0.55236185 0.099428922 0.0014827251 8153158
0.55400836 0.10200298 0.0015566945 5588786
0.55564141 0.10454704 0.0020434856 4537136
0.55715638 0.10714394 0.002401948 3353384
0.55877435 0.10933004 0.0026385784 2432549
0.55962777 0.11099057 0.0034248829 2104353
0.54549706 0.09298411 0.0011937022 10059866
0.54719603 0.09542118 0.0012286305 9863002
0.54858947 0.098151356 0.0014026761 9337176
0.5500899 0.10081342 0.0015228391 6838339
0.55162442 0.10320149 0.0017078519 5326135
0.55331695 0.10537288 0.0020992756 4537398
0.5553419 0.10782571 0.0024662018 3156778
0.55683303 0.11003792 0.0021992326 2367268
0.55821002 0.11281568 0.0019020438 2630182
0.54305053 0.094479799 0.0011684299 10257764
0.54482245 0.096756995 0.0012059808 10060901
0.54632556 0.099342585 0.0011668801 8877151
0.54761678 0.10151693 0.00117594 6707015
0.54919362 0.10326278 0.0013295412 6049596
0.73590672 0.23588622 0.03905046 1447708
0.73886979 0.23752773 0.03978914 5398428
0.73440045 0.23744118 0.037990987 1909049
0.73579156 0.23825163 0.038249612 5991271
0.73184109 0.23891222 0.036585748 1514799
0.7296108 0.23928699 0.035536766 2172731
0.71604711 0.22395897 0.035214663 2040643
0.71739447 0.22617456 0.035549939 3159643
0.7188592 0.22855735 0.035060346 2699102
0.7200042 0.23115328 0.034413099 2501721
0.72252154 0.23482183 0.034148037 2633804
0.72397667 0.23674664 0.034098566 2765383
0.72579241 0.23859105 0.034532487 2567496
0.71076477 0.2205874 0.033897936 922160
0.71228981 0.2221747 0.034738541 1250870
0.7140696 0.22441527 0.035242498 1909573
0.71538502 0.22694805 0.035374701 2699608
0.71726298 0.2295872 0.035003722 2041432
0.71900046 0.23215726 0.034723818 2041165
0.72039109 0.23485801 0.034228325 1844292
0.72182578 0.23723805 0.034181297 1975617
0.69296753 0.19603008 0.033453643 4736860
0.69366074 0.19761842 0.033753157 5067641
0.69538206 0.20018944 0.033498347 6908068
0.6966489 0.20209029 0.033093333 2697558
0.70675284 0.21957785 0.032908499 987438
0.70858371 0.2210249 0.033733487 1053489
0.71007037 0.22337231 0.034042656 1645627
0.71165001 0.22503898 0.034399331 1909567
0.71561491 0.23125717 0.034664273 1449309
0.71657282 0.23389399 0.034120381 1318993
0.71837437 0.23576647 0.033612192 1120835
0.71965915 0.23791492 0.034268439 1317956
0.68815958 0.19247288 0.032878757 988209
0.68937171 0.19426197 0.033270538 2896972
0.69062179 0.19677687 0.033624351 4080488
0.69229162 0.19918227 0.033504009 4343915
0.69378912 0.20165688 0.033281326 4409201
0.69498563 0.20410287 0.032651901 3948646
0.69595051 0.20636782 0.031889498 2633039
0.70128155 0.21475592 0.031377852 3553871
0.70292962 0.21751401 0.03154999 2699082
0.70464611 0.21982124 0.032379866 1382200
0.70613265 0.22216678 0.032515347 1382204
0.7076118 0.22437465 0.032952249 1185586
0.68399251 0.19140443 0.031445801 1578294
0.68548894 0.19316339 0.031875551 1382196
0.68669522 0.19539019 0.032700956 3488338
0.68822694 0.19771782 0.032971025 5001591
0.68982697 0.20032334 0.033017516 5659780
0.69148332 0.20295429 0.032865942 2567768
0.69282812 0.20569745 0.032141805 2106953
0.69435906 0.20834973 0.031512678 2435662
0.69602418 0.21054098 0.030745447 2435915
0.69757211 0.21335849 0.03059715 3159631
0.69925129 0.2158933 0.030975759 3291220
0.70075071 0.21848416 0.031518519 2369864
0.70245528 0.22053984 0.031810343 1646408
0.70430017 0.2229892 0.032224476 2173012
0.67625749 0.18189777 0.030950785 1581109
0.67676538 0.18410981 0.030780733 3685461
0.67833757 0.18684834 0.030880451 6382736
0.67976475 0.18924028 0.030812502 3489131
0.68136281 0.19160052 0.030755579 1647190
0.68287414 0.19436377 0.031175315 1053491
0.68419135 0.19673951 0.031582534 1185323
0.68584192 0.19898671 0.031067908 725035
0.68714285 0.2018978 0.031537116 1844043
0.69079936 0.20728874 0.031698525 2238282
0.69218624 0.20973243 0.031038046 2106953
0.69362962 0.21230739 0.030681312 2699083
0.69519269 0.21467637 0.030659556 3159890
0.6968863 0.21705735 0.030871451 3291476
0.69846129 0.21884181 0.031219542 2502225
0.66505158 0.17079866 0.030278146 1118515
0.66651553 0.1729103 0.030682564 2238271
0.66791195 0.17506501 0.030904353 2896455
0.66956848 0.17752187 0.030793369 2896206
0.67094284 0.17992109 0.030367553 2304072
0.6727643 0.18267837 0.029753089 1448504
0.67425716 0.18530913 0.029793143 1054000
0.67576706 0.18779938 0.030616224 2303814
0.67748213 0.19048053 0.030654967 1251386
0.67916864 0.19295293 0.030821025 1646934
0.68067706 0.19529398 0.030902088 2107222
0.68238735 0.19801974 0.030415356 790324
0.68375582 0.20053372 0.030287325 789797
0.68456078 0.20374444 0.03041476 658465
0.69057059 0.21104412 0.030945361 2436186
0.69175369 0.21339311 0.030520856 2699343
0.6932385 0.21575321 0.030017376 3225433
0.69420201 0.21736291 0.030481637 3423323
0.65296876 0.15582603 0.029387951 3093835
0.65481144 0.15861431 0.029757321 2830926
0.65624797 0.16113815 0.029575586 2896974
0.6572268 0.16310589 0.028828681 2830930
0.66119468 0.16941446 0.029002011 1251116
0.66259575 0.17143098 0.029562831 1447731
0.6643216 0.17360003 0.030096173 2041151
0.66597581 0.17607769 0.030314326 2436424
0.66744608 0.17866464 0.030106604 2238799
0.66905981 0.18116775 0.02986306 1778248
0.67041439 0.18382844 0.029803097 1777985
0.6718536 0.18661648 0.029615819 1514555
0.67357224 0.18886971 0.029573917 987956
0.67537975 0.1905853 0.029378593 855850
0.68232489 0.20222512 0.029901266 724016
0.68321371 0.20455422 0.029878795 592666
0.64775044 0.15244265 0.028526664 2237495
0.64983535 0.1546284 0.02900815 3028289
0.65115607 0.15712807 0.029126048 2699593
0.65260446 0.15974739 0.029037535 3489628
0.6543507 0.16209926 0.028924644 3620966
0.65568143 0.16491809 0.028786898 3028824
0.6570915 0.16728987 0.028273761 2304847
0.6588769 0.17005529 0.028359592 1119285
0.6603955 0.17224063 0.028744996 1250866
0.66184461 0.17477551 0.029260218 1843260
0.66317445 0.17720997 0.029932737 2831174
0.66699368 0.18218186 0.029750586 1318208
0.66850638 0.18494973 0.029363334 923202
0.66986525 0.18768984 0.029561043 659770
0.67148578 0.18962182 0.029353201 2107718
0.64105159 0.14693664 0.027087569 4145258
0.64579582 0.15312526 0.027640045 1184811
0.64732599 0.15579382 0.02807945 2238525
0.6488291 0.15845053 0.028186619 2173254
0.65028232 0.16069104 0.028485358 3358820
0.65178609 0.16344178 0.028349459 5857927
0.65331662 0.16613571 0.02822423 5002116
0.65512478 0.16881423 0.028013289 1779022
0.65645504 0.17129152 0.028006673 1778254
0.65794468 0.17355008 0.027918458 856372
0.65881354 0.17588769 0.028294206 658720
0.63084608 0.13495538 0.026724577 3159108
0.63218808 0.1372899 0.026496768 2961991
0.63363987 0.13967991 0.026354671 2369338
0.63785166 0.1452105 0.026444972 1448494
0.63879693 0.14726599 0.026929677 2763595
0.64019203 0.14984612 0.02698338 1053487
0.64163965 0.15226974 0.026939273 2370131
0.64313793 0.15476863 0.026941419 1974859
0.64449304 0.15742822 0.026880264 1053232
0.64647627 0.15978146 0.02698499 1185582
0.64785409 0.16218948 0.026957929 1777982
0.64945757 0.16495027 0.02727294 3292266
0.65112543 0.16692348 0.027636707 5266054
0.65299147 0.17017308 0.027573645 1779279
0.65445107 0.17174941 0.027618051 923720
0.62514597 0.13101226 0.025647461 1645362
0.62698716 0.13293901 0.026158035 2961985
0.62862653 0.13543387 0.026413262 2896199
0.63011587 0.13796452 0.026701152 2961997
0.63165635 0.14043704 0.026367366 2699338
0.63333154 0.14280017 0.025844395 2370115
0.63453972 0.14582105 0.025589943 1580089
0.63629907 0.14830071 0.025987864 1316406
0.63787681 0.15067373 0.026373863 1053236
0.6397661 0.15309133 0.026433885 2041176
0.64097542 0.15603399 0.026607335 724792
0.64290571 0.15847854 0.026854336 855853
0.64451575 0.16094233 0.026449442 724271
0.64574528 0.16372633 0.026000738 658466
0.64719081 0.16584516 0.026131451 658985
0.62032378 0.12750803 0.024502575 2039863
0.62206602 0.12966886 0.024953067 1183789
0.62343538 0.13186429 0.025240302 1777206
0.62487334 0.13399442 0.025646329 2567487
0.6262663 0.13661905 0.025966167 2568008
0.6279943 0.13938484 0.02582413 2634319
0.62943244 0.14207566 0.025854051 2634065
0.6313467 0.14447701 0.02543956 2173256
0.63264918 0.1469942 0.02542752 1778241
0.63434494 0.14913599 0.025633454 1317179
0.63540214 0.15077651 0.026068151 1185083
0.60726392 0.11081363 0.024083793 2499640
0.60829937 0.11265422 0.024597883 2960960
0.60994112 0.11505991 0.024659097 2895683
0.61131048 0.11770463 0.024346888 2632515
0.61258692 0.12020798 0.024020731 2435391
0.61412877 0.12224481 0.023427069 1908534
0.6168111 0.12558644 0.023619175 1777977
0.61780822 0.12824625 0.023657918 1909825
0.61945754 0.13048598 0.024031997 1316412
0.62086457 0.13301003 0.02455616 1514034
0.62255019 0.13551165 0.024541497 1514290
0.62389088 0.1375024 0.02524519 1910084
0.62580359 0.14018957 0.025803149 2965082
0.62763774 0.14344096 0.025663137 5068159
0.62893581 0.14566959 0.024989307 1845061
0.6302495 0.14764413 0.025173962 1976399
0.60288346 0.10986654 0.023637474 2565688
0.60467124 0.11138855 0.024077594 2763582
0.60616678 0.11380579 0.024311006 2829891
0.60772061 0.11625569 0.024466038 2698821
0.60934281 0.11888985 0.024576485 2566981
0.61076945 0.12162413 0.024116337 2304065
0.61249352 0.12404008 0.023554921 1909049
0.61392134 0.12657799 0.023482919 1382193
0.61553943 0.12899679 0.023651779 1448247
0.61725998 0.13149375 0.023820221 1712201
0.61875528 0.13403136 0.023811281 1645890
0.62029445 0.13668102 0.023640811 1118764
0.62143582 0.13922961 0.023752153 1053477
0.59956264 0.10817727 0.022350371 2170928
0.60070419 0.1100816 0.022998035 2236981
0.60223538 0.112417 0.023381233 2500926
0.60399616 0.11483254 0.023479521 2370115
0.60585278 0.11757837 0.023607254 2173251
0.60731316 0.11999276 0.023086786 1712707
0.6082617 0.1229547 0.022715509 1383743
0.6100949 0.1252953 0.022813618 1054266
0.61150718 0.12766895 0.023092985 592937
0.61348712 0.13057888 0.023052752 1845076
0.61513013 0.13235861 0.023468971 726612
0.5954684 0.10708088 0.020592391 1513259
0.59690565 0.10888706 0.021759033 1776431
0.59833735 0.11097597 0.022312284 1842481
0.59979427 0.11309908 0.023152113 2304316
0.60686392 0.12337565 0.022411764 1581887
0.59136301 0.10567148 0.020023704 2236977
0.59304881 0.10773346 0.020596087 1579572
0.59443557 0.10962529 0.021287322 1448244
0.59603435 0.11244828 0.02157563 1052965
0.58735538 0.10420191 0.019166052 2631473
0.58926225 0.10595778 0.019762993 1974064
0.59072137 0.10831048 0.0200454 1054264
0.58181083 0.10080332 0.017344296 1907502
0.5837037 0.10299349 0.018224657 2368043
0.58557987 0.10441326 0.018575251 2434351
0.58683825 0.10643022 0.019505918 987186
0.57802564 0.10015093 0.016960621 2236748
0.58000684 0.10157074 0.017285168 2104617
0.58133179 0.10294513 0.017525434 2301990
0.57617414 0.10074253 0.016664326 2038582
0.57783455 0.10201833 0.01653105 2104098
0.5724104 0.10164773 0.014322758 2763616
0.57138133 0.10164754 0.013658643 2697565
0.57331628 0.10330425 0.012030303 3421820
0.55567753 0.10787316 0.0032449365 2498085
0.54895008 0.10263006 0.0019932389 6246964
0.5505051 0.10445558 0.0023888946 5128765
0.5522595 0.10678634 0.0025892854 3551021
0.55380523 0.10902099 0.0029739738 2498344
0.55613697 0.1102242 0.0031459928 2367010
0.5418359 0.095653713 0.0013826489 10520676
0.54344428 0.097905263 0.00144732 10126699
0.54521888 0.1001887 0.0016283393 7956817
0.54687047 0.1028617 0.001952827 6444352
0.54838389 0.10536598 0.0023223758 5392193
0.54979527 0.10797648 0.0025563836 2893862
0.5516814 0.10941999 0.0028838515 2432302
0.54127908 0.099026442 0.0014155507 9995368
0.54284799 0.10153581 0.0016095042 8219992
0.5442574 0.10420918 0.0020254254 7167819
0.54615939 0.10664859 0.0021519065 5326908
0.54785991 0.10876305 0.0021842718 2893353
0.71136791 0.22357821 0.036506176 2107202
0.71252573 0.22576359 0.036902785 2370630
0.71411777 0.22830126 0.036977708 2436167
0.71561754 0.23070604 0.036957085 2501448
0.71727681 0.23335853 0.036655188 2632781
0.7188251 0.23570016 0.036053479 2238023
0.70726949 0.22267416 0.035257757 1382704
0.70910645 0.22433454 0.036165297 2238529
0.71041018 0.22689554 0.036321342 2699083
0.71213281 0.22931433 0.03667587 2501965
0.71389663 0.23183289 0.036555231 2173261
0.7152307 0.23409036 0.0363096 2042193
0.71694648 0.23596659 0.034866035 1384787
0.70346427 0.22131893 0.034013331 462130
0.70506537 0.22330868 0.034821451 1185577
0.70659494 0.22540981 0.035097778 1909042
0.7079097 0.2280831 0.035169542 1777723
0.70921677 0.22977418 0.035980642 2173257
0.68762231 0.19873533 0.033867776 6579604
0.68870628 0.20102449 0.033722043 2436440
0.69013441 0.20372875 0.033500135 2962007
0.69808638 0.21781464 0.032443225 2170678
0.69937718 0.21984708 0.033182919 1316669
0.7010082 0.22190471 0.033699453 2107478
0.70274889 0.22406197 0.033920825 2238807
0.70438409 0.22653075 0.03421551 1251381
0.70575738 0.22900626 0.034445882 1053737
0.68415952 0.19786729 0.032821655 3751769
0.68523908 0.19974793 0.033117115 3949159
0.68630111 0.20247447 0.033010542 3291746
0.68842793 0.20468511 0.032855749 3422817
0.6896944 0.20700565 0.032325327 3028054
0.69072729 0.2101596 0.031463027 2764110
0.69409031 0.21581168 0.031493247 3948627
0.69570327 0.21821992 0.03241992 1842744
0.69749236 0.22014347 0.032893181 1119288
0.69886005 0.22207247 0.033932567 2305109
0.66686428 0.17671208 0.032000244 3093326
0.66780555 0.17831141 0.032062113 2764875
0.67486656 0.18928161 0.031899571 1315890
0.6760031 0.19134194 0.032439411 1448503
0.67746437 0.1937888 0.032219887 3291734
0.67925364 0.19637367 0.031907737 1843786
0.68120921 0.19853713 0.031806648 856111
0.68260753 0.2012857 0.032161832 1185582
0.68418634 0.20421672 0.032170117 2698568
0.68600041 0.20596954 0.031833589 2961747
0.68730348 0.208739 0.031551182 4146285
0.68904489 0.21130675 0.031018794 3027540
0.69044179 0.21406305 0.030924916 3225168
0.69201046 0.21682276 0.03132236 2896202
0.69355649 0.21898243 0.031883538 1579839
0.66223341 0.17309159 0.031181157 3225411
0.66325945 0.17487127 0.03194356 3028041
0.66458803 0.17709832 0.031988621 2830414
0.66622615 0.17955209 0.031799793 2699086
0.66770947 0.18197656 0.031283438 2765392
0.66887999 0.18456192 0.030783117 2633291
0.67075157 0.18786165 0.030758321 1645886
0.67246789 0.19004677 0.031558454 1250613
0.67390358 0.19228429 0.031617582 1382715
0.67567825 0.1948828 0.031970203 2831448
0.67725354 0.19759513 0.03177458 3224675
0.67893386 0.19992952 0.031742334 2040388
0.68001139 0.20268394 0.031420767 1185075
0.68156475 0.20527589 0.030965984 1052979
0.68350315 0.20777939 0.030802429 2303300
0.68479466 0.21052773 0.030637741 2698833
0.68634617 0.21305293 0.030595601 3093591
0.68798536 0.21540596 0.030686021 3094099
0.68947685 0.21788727 0.030871511 2764620
0.69096005 0.21939364 0.031514227 1249595
0.65765691 0.17204009 0.02979511 922152
0.65964788 0.17340142 0.030775428 2304057
0.66106474 0.17563532 0.031121016 2568006
0.66241336 0.17852791 0.031154573 2502477
0.66397095 0.18089846 0.031142652 3028827
0.66538709 0.18347305 0.030802011 3226212
0.66714978 0.18607986 0.030406594 2502224
0.66859019 0.18868537 0.030599833 1646143
0.67030632 0.19097526 0.030707061 1250877
0.67127967 0.19321501 0.031520188 1449020
0.67516375 0.19842866 0.031798303 660021
0.67698938 0.20150498 0.031257331 593209
0.67835468 0.20435344 0.031045973 592686
0.67952776 0.20703781 0.030710638 1382972
0.68136084 0.20933053 0.030199289 1975369
0.68260968 0.21203788 0.030036032 2962767
0.68424976 0.21428809 0.030042052 3028305
0.68550944 0.21645816 0.029902279 3094103
0.68729669 0.21840218 0.03061074 2633294
0.64790756 0.16058001 0.029064119 4213065
0.64979237 0.16160883 0.02950114 8290712
0.65083355 0.16496289 0.029227078 7369128
0.65250915 0.16728292 0.029208004 3028312
0.653579 0.169907 0.029100776 2173009
0.65564358 0.17231052 0.029291451 1185603
0.65717691 0.17463848 0.029764056 1053738
0.65856338 0.1771868 0.029941201 1316912
0.65997458 0.17956232 0.030236542 1646142
0.66137356 0.18267289 0.030442119 3160414
0.66308963 0.18526199 0.030410588 5068160
0.66488397 0.18774742 0.03004688 4146292
0.66611028 0.19000866 0.029541492 2567253
0.6673106 0.19218524 0.029808164 1184575
0.63931692 0.15179886 0.028087795 2106171
0.64088285 0.15378533 0.028235734 3948134
0.6456244 0.16034055 0.028310597 1646905
0.64726627 0.16322464 0.028300762 5593723
0.64845705 0.16587643 0.028764546 5264250
0.65007138 0.16834395 0.028666437 2106439
0.65158838 0.17065483 0.028941512 1251647
0.65351743 0.17315635 0.029086173 1975377
0.65481544 0.1758444 0.028984964 1645894
0.65627575 0.17823985 0.029013753 921394
0.65721983 0.18102194 0.029103756 790056
0.65884417 0.18353957 0.029226601 987948
0.66207653 0.18693404 0.029884875 5924752
0.66335166 0.18988492 0.029489398 3489928
0.66417575 0.19055063 0.029401839 2436990
0.6352011 0.14945693 0.027873933 1447475
0.63684624 0.15195845 0.028118312 2566466
0.6383633 0.15423086 0.028307676 3159372
0.63982141 0.15678166 0.02831471 2633035
0.64137828 0.15926994 0.027912199 1974847
0.64289659 0.16176674 0.027385652 1185075
0.64452672 0.16445434 0.02738899 1645627
0.64620376 0.16696201 0.027674019 1974847
0.64778936 0.16941364 0.028033316 921650
0.6495564 0.17171715 0.028546751 1185078
0.65082502 0.17399943 0.028417528 2436462
0.65196991 0.17590794 0.028864026 330563
0.65679169 0.18351455 0.028723776 921388
0.62350148 0.13544394 0.026898384 2699331
0.62511331 0.13766952 0.026939511 3225419
0.62693644 0.13984518 0.027151763 4212069
0.6283825 0.14258431 0.026979983 3028304
0.63006365 0.14537942 0.026565731 2830921
0.63145614 0.14797153 0.026542842 1645369
0.63288152 0.15053736 0.027228951 1513784
0.63450193 0.15269606 0.027778804 2304320
0.63629484 0.15538156 0.028034091 2633805
0.63776958 0.15795651 0.02754581 1712456
0.63966954 0.16057122 0.027345955 1185593
0.64091128 0.16328007 0.027432144 1712190
0.64238054 0.1658809 0.027137935 1317176
0.64406937 0.16817145 0.027090609 856370
0.64564896 0.16997002 0.027468145 987950
0.61944127 0.13440949 0.025160491 1448237
0.62150264 0.13632357 0.026032746 2172993
0.62319088 0.13888143 0.026289642 2765388
0.62454098 0.14141174 0.02641046 4607862
0.62599105 0.14393477 0.026198924 5198977
0.62748367 0.14662474 0.025830984 3488606
0.62910879 0.14917088 0.026099384 1250616
0.63036633 0.15156239 0.026426673 1118771
0.63210112 0.15423249 0.026823819 1843518
0.63657606 0.16045541 0.027453959 1186880
0.63760781 0.1617942 0.027014375 791356
0.63858867 0.16436785 0.026462615 659517
0.6399073 0.16635101 0.026657403 396076
0.60336071 0.11314689 0.025418222 3093061
0.60495001 0.11507474 0.025311649 2829890
0.60661477 0.11776859 0.025265515 2895684
0.60782927 0.12015243 0.02510643 2830149
0.6092422 0.1223806 0.024849236 2895941
0.61256957 0.12817611 0.024694204 1315379
0.61397499 0.13033915 0.025210917 1908539
0.61547261 0.13274327 0.025143564 2566988
0.61726511 0.13529703 0.024933994 1513783
0.61886847 0.13764253 0.025008857 1448245
0.62058306 0.14033018 0.025290251 1909304
0.62207282 0.14301662 0.025629222 4014948
0.62372547 0.14542738 0.025843799 3883368
0.62519646 0.14801124 0.025747776 2436184
0.62682074 0.15039252 0.025641024 1449036
0.6281656 0.15285967 0.025485456 724784
0.62955594 0.15550509 0.025673211 724514
0.59972262 0.11146557 0.024712324 3224383
0.60117304 0.11347508 0.025006115 2961476
0.60282195 0.11589964 0.025036395 2829894
0.60445738 0.11843136 0.024946511 2567237
0.60577804 0.12096748 0.024838269 2633286
0.60755032 0.12346894 0.024722338 2830405
0.60911763 0.12622222 0.024540126 2237755
0.61054587 0.12873039 0.024721563 1250098
0.61212504 0.13129643 0.025014579 2172224
0.61372542 0.13394515 0.02486378 1909580
0.61541092 0.13636294 0.02507931 1514043
0.61687684 0.13916282 0.025075436 1316403
0.6182465 0.14158575 0.024763703 987952
0.61965764 0.14406039 0.024485171 1119535
0.62114948 0.14666732 0.024298906 856109
0.62207353 0.14850464 0.025083542 1315894
0.59600639 0.11061914 0.023036718 1974575
0.59725749 0.11216015 0.023913562 2632508
0.59881139 0.11484562 0.024332166 2567490
0.60041201 0.11744149 0.024667084 2304578
0.6018877 0.1199709 0.024781346 3423064
0.60347259 0.12272854 0.02432698 3356759
0.60508728 0.12497035 0.024181843 2435905
0.60671586 0.12744486 0.024245143 1382196
0.60848945 0.12956199 0.024385512 724274
0.61038828 0.13227008 0.024763525 1844292
0.61191601 0.13526557 0.024744391 1383753
0.61317658 0.13760565 0.024763227 725310
0.614546 0.1393396 0.0245682 659503
0.61898381 0.14716567 0.024194837 790068
0.59040427 0.1068027 0.021810234 1644592
0.59137267 0.1090142 0.022311747 2961736
0.59346253 0.1111031 0.022348106 1382454
0.59482265 0.11349377 0.023119628 1645613
0.59646845 0.11599734 0.022976875 1579826
0.59794009 0.11864921 0.023763776 2106948
0.59913832 0.12114912 0.023863971 2896974
0.60109222 0.1236473 0.023677409 4804469
0.60295701 0.12633778 0.023250341 3883368
0.60402936 0.12890124 0.023087025 1186113
0.58640999 0.10563089 0.021389425 1578793
0.58801985 0.10726109 0.022050381 1776431
0.58976966 0.10943201 0.022215188 2566987
0.5914939 0.1119993 0.022426248 1580353
0.59269708 0.1147431 0.022683382 1184816
0.5941807 0.11744204 0.022422016 1250346
0.59553432 0.11964966 0.022513092 1119011
0.59684116 0.12186633 0.022704124 1448501
0.60152495 0.12804386 0.022732973 2699877
0.58270127 0.10422496 0.020170629 2434352
0.58430588 0.10568611 0.021020353 1579050
0.58590108 0.10788865 0.021283329 1382189
0.58728987 0.1101813 0.022185564 2502744
0.58914411 0.11321083 0.021803796 462145
0.59026164 0.11550391 0.02187109 527658
0.57894266 0.10301073 0.018801987 2631470
0.58038771 0.10428968 0.019962311 2171182
0.582066 0.10659225 0.02076453 1119268
0.57470024 0.10163438 0.017646372 2170409
0.57651436 0.1030388 0.018517673 2565678
0.57783949 0.10488427 0.019792616 1908275
0.56917381 0.098468155 0.016447604 1841189
0.57087219 0.099930733 0.017542899 2432817
0.57281661 0.10197033 0.017594993 2367786
0.56675118 0.098832056 0.017028034 2498850
0.568376 0.10067932 0.016454577 2170147
0.57017905 0.10241328 0.016617596 2170150
0.56491363 0.099869788 0.015412748 2104351
0.5665791 0.10129571 0.01516217 2038816
0.54682535 0.10634854 0.0034174323 5326155
0.54843044 0.10857826 0.0041160583 2762536
0.54199457 0.10315914 0.0022253394 8088403
0.54335552 0.10530137 0.0025715232 7430740
0.54484665 0.10756107 0.0027187467 4866619
0.54625285 0.10941203 0.0030351877 3156522
0.54105961 0.10613486 0.002350986 7957078
0.54254049 0.10856886 0.0027968287 4537399
0.54383647 0.11007568 0.003056109 2761506
0.54006422 0.11029355 0.0020049214 5457472
0.71235025 0.22931662 0.039610207 1122899
0.71398401 0.23147961 0.038740158 1712198
0.71542233 0.23364031 0.038297236 2369352
0.70795238 0.22559208 0.037451446 2107713
0.70951033 0.22781271 0.037696481 2370377
0.71102065 0.23039189 0.03823328 2502996
0.71262002 0.23234454 0.038196445 3818081
0.71350121 0.23429134 0.037499547 5529230
0.70395029 0.22403342 0.036357701 1120298
0.70594382 0.22647443 0.036894023 2172987
0.70708776 0.22911638 0.037371933 2238530
0.70863926 0.23155174 0.037364304 3291730
0.710302 0.23342597 0.037332118 4015956
0.69833785 0.22144674 0.035018921 1579323
0.69985545 0.22328208 0.035226703 2896993
0.70136321 0.22527072 0.035135627 2369882
0.70334351 0.22794314 0.035607755 1448503
0.70455778 0.23043206 0.035946429 1448239
0.70625401 0.23307493 0.036032796 1579823
0.70747793 0.23509546 0.036776483 1909292
0.69462872 0.21962149 0.034263909 1579322
0.69621241 0.22142144 0.034791887 1645631
0.69783664 0.2238778 0.035366237 2501972
0.69958186 0.22640026 0.03555876 2370131
0.70118332 0.22893533 0.035517633 1909062
0.70260382 0.23131122 0.035453141 1514042
0.7037667 0.23374847 0.035601676 1053230
0.67529178 0.19320764 0.03396517 5066338
0.67647278 0.19540726 0.033768356 5197430
0.69060975 0.21846282 0.033166945 1315892
0.69239736 0.2199944 0.034056723 1447992
0.69406521 0.22225074 0.034587681 1778241
0.69553256 0.22433808 0.03528434 2896719
0.67127073 0.19133148 0.033247292 2304065
0.67290986 0.19334593 0.033630908 2765134
0.67424846 0.19586755 0.033755243 3949413
0.67591602 0.19863684 0.033382475 4671605
0.67739558 0.20117477 0.032667339 3619428
0.67796218 0.20285818 0.032429874 2106441
0.67968702 0.20562425 0.0315485 1052986
0.68129051 0.2075825 0.031608105 1975350
0.68530881 0.21468739 0.031568587 3488337
0.6870451 0.21689509 0.031949401 2434878
0.68842518 0.2188834 0.03278172 1250611
0.69010049 0.22094309 0.032848537 1316919
0.66085756 0.17753188 0.032694459 2831440
0.66189015 0.17953227 0.032554507 4935273
0.66295302 0.18144535 0.032568455 6644621
0.6641444 0.18438597 0.031800866 4211063
0.66769415 0.19013384 0.031738639 1447223
0.66915429 0.19218792 0.032692969 2435653
0.67069989 0.19463885 0.033157587 3948901
0.67221993 0.19713433 0.032968462 4475249
0.67387891 0.19964209 0.032841146 3159645
0.67512542 0.20227823 0.032685697 2567510
0.67697179 0.2047022 0.031896651 2238028
0.67850804 0.20751026 0.031126797 2106694
0.67999005 0.21014158 0.030818999 3028298
0.68152541 0.21279164 0.030976951 3422547
0.68307972 0.21513675 0.031213462 3093582
0.68457222 0.21764892 0.03167814 1909057
0.68628561 0.22001091 0.0319677 1778254
0.6878345 0.22169626 0.032396615 1054271
0.65823734 0.17829838 0.031426907 1909823
0.65930319 0.18049552 0.031781971 3028560
0.66065896 0.18320638 0.031523526 5725056
0.66198891 0.18554373 0.031040847 5987978
0.66370904 0.18832637 0.030901015 1975636
0.66553128 0.19077973 0.031232893 1053234
0.66651547 0.19350755 0.031856179 1711924
0.66833627 0.19561641 0.031897962 2172742
0.66937792 0.19846812 0.03246659 2436690
0.67213905 0.20164497 0.03265959 2568802
0.67319375 0.20445175 0.032187879 1975883
0.67441094 0.20664233 0.031418681 2172747
0.67598188 0.20884596 0.030933559 2567247
0.67782938 0.2113194 0.030523717 3028047
0.67932296 0.21378553 0.030633748 3225681
0.68075979 0.21620362 0.030933321 2830927
0.6822412 0.21794873 0.031434953 1711416
0.64892405 0.16965903 0.030573606 1316662
0.65009677 0.17192188 0.030828774 2567492
0.6516813 0.1743025 0.030534744 2896462
0.65351743 0.17696902 0.030147374 1580350
0.65512007 0.17922573 0.030152261 987695
0.65654123 0.18190289 0.030386269 1251126
0.65818578 0.1846341 0.030885756 3159379
0.65980482 0.18707027 0.030718625 2304335
0.66131848 0.18961656 0.030804515 1844567
0.66282129 0.19219676 0.030655682 1515086
0.6642468 0.19447365 0.030470848 1185081
0.66553342 0.19734986 0.030535638 790056
0.66737747 0.19867982 0.031350195 856370
0.67380881 0.21026497 0.030403554 2567504
0.67535532 0.21266396 0.030278265 3028050
0.6771785 0.21515203 0.030208111 3225949
0.67813897 0.21657552 0.030466199 3292250
0.63577086 0.15369804 0.029712141 3093068
0.6370548 0.15606238 0.029393554 2764617
0.63823277 0.15758055 0.02952534 3159371
0.64531773 0.16832089 0.029678762 1250097
0.6466316 0.17055704 0.029992521 1579576
0.64804822 0.17298491 0.030059218 2304578
0.64968127 0.17547332 0.030329347 2765134
0.65123773 0.17795748 0.030304492 2370123
0.65308148 0.18068853 0.030087829 1711931
0.65435719 0.18331286 0.029828072 1185333
0.65573549 0.18574999 0.029618979 922159
0.65726167 0.1880554 0.029983878 921645
0.65943575 0.190806 0.030587971 922701
0.66157377 0.19390941 0.03073746 2238540
0.67300761 0.2127368 0.029730022 2962773
0.63196242 0.15231314 0.02924937 3159619
0.63328117 0.15386148 0.029091775 3093835
0.634875 0.15628466 0.029109538 2896462
0.63667476 0.15875506 0.029202163 2896719
0.6381228 0.16135347 0.028694451 2765392
0.63925254 0.16393986 0.028183162 2436172
0.64107198 0.16687123 0.027995169 1316919
0.6427812 0.16918133 0.028892457 1119024
0.64431065 0.17150287 0.029140115 1382710
0.64584577 0.17389219 0.030069947 2634566
0.64760929 0.17623499 0.030207455 1910086
0.64969873 0.17928122 0.029882789 988735
0.65073061 0.18176897 0.029559314 725561
0.65266341 0.18536842 0.029548824 2502219
0.65400147 0.18635963 0.029349923 1777727
0.62782937 0.15064453 0.02726686 1119016
0.62977588 0.15249068 0.028131962 2435900
0.63103968 0.15511174 0.028482199 2568008
0.63268912 0.15751886 0.028598309 2699858
0.63419771 0.1603246 0.02861768 3029599
0.63572323 0.16288432 0.028357208 2765396
0.6371271 0.16557193 0.02800709 2239054
0.63898933 0.1678631 0.027721345 1712455
0.64038301 0.17014806 0.027961791 1185336
0.64156014 0.17286511 0.028120577 921641
0.64225513 0.17521793 0.028347731 987166
0.62141079 0.14452733 0.026292264 6579330
0.62251526 0.14668922 0.026400387 2435405
0.62390673 0.14910336 0.026525497 1778508
0.6255815 0.15136981 0.026622236 1382977
0.62710518 0.15398043 0.027058661 1382706
0.62866211 0.15656298 0.02717638 1448754
0.63021976 0.15891249 0.027203143 1580351
0.63160223 0.16187778 0.027995408 3489124
0.63348818 0.16433178 0.027852118 6316430
0.63495541 0.1665584 0.02766484 3159650
0.63663977 0.16923423 0.027533889 989508
0.6385197 0.17128946 0.0277583 1910617
0.64017063 0.17451163 0.027685463 592417
0.60930157 0.13021509 0.026168466 2632767
0.61078411 0.13234088 0.02679646 2961732
0.61249101 0.13479462 0.026847303 2764613
0.61373997 0.13731962 0.026617944 2501443
0.61520737 0.13985825 0.026023388 2238273
0.61698169 0.14238454 0.025395036 1448502
0.61878699 0.14514722 0.025902331 1975104
0.62034369 0.14748974 0.026523054 1250611
0.62184083 0.14983718 0.026592672 1645891
0.62361968 0.15259677 0.026872754 1975118
0.62512654 0.15507028 0.026696861 1250363
0.62655866 0.1577009 0.026168644 987185
0.62766194 0.16044973 0.02601546 790056
0.62885785 0.16289158 0.026352882 790569
0.63031709 0.16468306 0.026731312 593720
0.5975014 0.1156382 0.025191009 2173249
0.59920257 0.11862086 0.02524966 3290958
0.60012442 0.12047674 0.024995267 6513804
0.60435498 0.12675992 0.024797797 1512751
0.60555434 0.12838016 0.025419414 1381425
0.60710764 0.13087721 0.025946736 2369854
0.60884047 0.13325597 0.026165485 2633284
0.61002439 0.1359632 0.026265562 2107720
0.61192131 0.13872506 0.026131213 1975621
0.61352992 0.14118285 0.025814593 1909825
0.61492383 0.1438342 0.025559008 1712189
0.61655259 0.14619036 0.025758624 1251125
0.61830157 0.14852026 0.025821626 987700
0.61997896 0.15115137 0.026521623 3094882
0.62124574 0.15354192 0.026470423 1120079
0.62713593 0.16294287 0.026044488 855856
0.59583557 0.116827 0.024421632 2369599
0.5972693 0.11920162 0.024622798 3027785
0.59890389 0.12175816 0.024472237 5921661
0.60020959 0.12447852 0.02412641 4540784
0.60186297 0.12698624 0.024326265 1316922
0.60336226 0.12959258 0.024860203 1250352
0.60468662 0.1319752 0.025231719 1843512
0.60598516 0.13445838 0.025648355 1975872
0.61004603 0.14118241 0.025351822 1647681
0.61137474 0.14259286 0.024883628 1055298
0.61298656 0.14507589 0.025115967 1120318
0.61422724 0.14663209 0.025737882 2501702
0.5856356 0.10666534 0.022995651 2368050
0.5868572 0.10852814 0.023759365 2236727
0.5881331 0.11062844 0.024198592 2961223
0.58967662 0.11308581 0.023909926 2566729
0.59154236 0.11585051 0.023347318 1579575
0.59320891 0.1180543 0.023396075 1514038
0.59477013 0.12073 0.0236606 2435391
0.59622937 0.12344223 0.023747563 3751000
0.59779823 0.12588125 0.023973107 2107207
0.59932399 0.12835185 0.024116755 1515338
0.6008215 0.13088875 0.02406764 1448510
0.60237539 0.1334835 0.02386415 855590
0.60273588 0.13572054 0.02431798 921890
0.58291024 0.10707448 0.022959709 2105138
0.58460653 0.10904785 0.023728788 2303032
0.58617055 0.11156875 0.023838639 2435913
0.58784312 0.11422895 0.023735523 1909317
0.58944649 0.11669166 0.023420751 1645881
0.59101921 0.11932513 0.023284256 1514037
0.59226787 0.12216783 0.023262799 1382708
0.59388405 0.12451524 0.023062944 1777463
0.59546155 0.12689966 0.023423553 1185593
0.59714353 0.12935562 0.023679197 1056600
0.57763678 0.10413751 0.020925105 1841963
0.57912958 0.10572313 0.022046328 1710636
0.58074725 0.10743679 0.022947609 1973808
0.58310395 0.11031803 0.023097813 1974589
0.58600795 0.1161956 0.022559226 1054533
0.58715868 0.11787938 0.022570074 922433
0.58895278 0.1209341 0.022489727 856879
0.59047538 0.12294206 0.023051202 527674
0.59176099 0.12531871 0.022955835 1185077
0.57539558 0.1045856 0.020749509 1841964
0.57682377 0.10620271 0.021606147 1579052
0.56967199 0.10098542 0.018554032 2499114
0.57144618 0.10340017 0.019283235 2499890
0.57280654 0.10503829 0.020302117 1513262
0.57441705 0.10678817 0.020788789 1447468
0.56591952 0.10034451 0.017712653 2564644
0.56740189 0.1017642 0.018504202 2499628
0.56937706 0.10349046 0.019249618 2170928
0.56200367 0.09908013 0.017101169 2301473
0.56385571 0.1004504 0.017541945 2236195
0.56563056 0.10186251 0.018616855 2236458
0.55770767 0.098573849 0.0163486 2038049
0.55995667 0.099156305 0.016610682 2235426
0.56165826 0.10032912 0.01628232 2104353
0.55545813 0.099013284 0.015535176 2038053
0.55771333 0.098949909 0.015835226 2498344
0.5406794 0.11360933 0.0026468635 3616026
0.70600718 0.23139931 0.038401306 4278085
0.70704305 0.23247595 0.038851976 6252415
0.7040062 0.23147756 0.037573755 1513783
0.70490932 0.2327615 0.038275003 2172206
0.70574987 0.23591545 0.036856413 2170952
0.69515562 0.22309783 0.03658247 3225166
0.69644189 0.22527255 0.03664571 2765134
0.69784486 0.22742516 0.036699295 2699087
0.69920677 0.23009111 0.036734879 2501194
0.70097888 0.23260444 0.036666572 1909056
0.70280182 0.23457959 0.036625445 1579831
0.70479929 0.23588385 0.036462128 921650
0.69150543 0.22157677 0.035607398 2172223
0.69277132 0.22359978 0.036278784 2764872
0.69438314 0.22604318 0.03660506 2830672
0.69597507 0.22857371 0.037027657 2699087
0.69766802 0.23141262 0.036792159 2369869
0.69903857 0.23281676 0.037024558 2040903
0.68745953 0.22055805 0.034051955 1448238
0.6889987 0.22231245 0.035196364 2040886
0.69045144 0.22459875 0.035624325 2370115
0.69221699 0.22742096 0.036313474 2765131
0.69373512 0.22902602 0.036652923 2830163
0.66897178 0.19541374 0.034085453 5855882
0.67107815 0.19817966 0.034005284 3291233
0.67277795 0.2004559 0.034033954 2436173
0.67319262 0.20205922 0.033315778 2567765
0.68196356 0.21687849 0.032600582 1381423
0.68320537 0.21890187 0.033380449 2304078
0.68484384 0.22120218 0.033863008 2041420
0.68666208 0.22337294 0.034100294 1383224
0.68837953 0.22597945 0.033814609 1185577
0.68873572 0.22854145 0.034567118 1382448
0.66619098 0.19440664 0.033071816 2370364
0.66756111 0.19688152 0.033358634 4409452
0.66892266 0.19917935 0.033441901 3094884
0.67041004 0.20176686 0.033206403 3292003
0.67197788 0.20415606 0.032884061 2830423
0.6737839 0.20644896 0.032398522 2632524
0.67410648 0.20902412 0.031717241 2829643
0.67597497 0.21227506 0.031591892 3685714
0.677984 0.2152615 0.032257497 2763586
0.67972851 0.21720876 0.032979131 1316147
0.68131816 0.21940441 0.033285737 1777730
0.68298936 0.22160424 0.033893645 1779288
0.6850574 0.22546232 0.033867896 1843282
0.68616509 0.22740649 0.033551276 987950
0.68734944 0.22897528 0.033613026 1250859
0.65737867 0.1862109 0.031796217 1710905
0.65834332 0.18846172 0.032356441 1053493
0.6596446 0.19046518 0.032184899 2962520
0.66138619 0.19322877 0.031907141 1974868
0.66325635 0.19574735 0.032079577 922156
0.66491872 0.19822955 0.032417595 1514548
0.66644681 0.20043971 0.032475531 2501965
0.66811538 0.20324574 0.032320559 3685991
0.66963685 0.20604435 0.031771779 3751526
0.67150241 0.20825075 0.031372905 3093591
0.67276824 0.21098574 0.031135798 3093839
0.67404246 0.21380877 0.03140384 3356752
0.67582345 0.21575677 0.031897247 2303554
0.67735946 0.21819231 0.032156944 1250875
0.64570719 0.17205393 0.031585991 3159879
0.64709377 0.17398624 0.032042861 3159628
0.64863086 0.17628019 0.031879485 3093838
0.64981997 0.17891069 0.03134793 2896719
0.65138209 0.18151985 0.030825377 2633547
0.65321267 0.18482164 0.030560076 1514558
0.65498674 0.18689312 0.031536281 1119283
0.65639752 0.18923739 0.032040656 1316406
0.65803623 0.19166505 0.032023549 2435663
0.65966815 0.19440666 0.031925023 1975372
0.66121674 0.19687293 0.031794846 1382716
0.66247964 0.19958656 0.03174454 921905
0.66427338 0.20216949 0.031402051 1119278
0.66585863 0.20458303 0.030927598 2106437
0.66691697 0.20696954 0.031019151 3027547
0.66865039 0.20966551 0.030800283 3290713
0.67041433 0.21223751 0.030735016 3159638
0.67191201 0.21455583 0.030660152 3159632
0.6734556 0.21736713 0.03115207 1974598
0.64222562 0.17065318 0.030748427 2172727
0.64313352 0.17259769 0.031272471 2831429
0.64470714 0.1749332 0.030953109 2765641
0.64645803 0.17755008 0.030948162 2831187
0.64786458 0.18010266 0.031068265 2765653
0.64945722 0.18276381 0.030775249 2371151
0.6509831 0.18535909 0.030570447 1844036
0.65255624 0.18788689 0.0310238 1250872
0.65403914 0.1897655 0.031421304 1119285
0.65801024 0.19583644 0.03166616 593983
0.65863788 0.19756064 0.031611621 528185
0.66216886 0.20353802 0.031077743 1250874
0.66349363 0.20590101 0.030561864 1645630
0.66478348 0.2085095 0.030272186 2633037
0.66641474 0.21105438 0.030190349 2896464
0.66815996 0.21331933 0.030200243 2962261
0.66973448 0.21561517 0.03025347 3094873
0.67113161 0.21745627 0.030828774 1777732
0.62988144 0.15726124 0.029471099 3159372
0.63170218 0.15854573 0.029610872 3883370
0.63282132 0.16085413 0.029296577 5001855
0.63409626 0.16355629 0.02914995 2698837
0.63571787 0.16631578 0.029075801 2501960
0.63768858 0.16905361 0.028953254 1712205
0.63944077 0.17140187 0.029713988 1119533
