# .PCD v0.7 - Point Cloud Data file format
VERSION 0.7
FIELDS x y z rgba
SIZE 4 4 4 4
TYPE F F F U
COUNT 1 1 1 1
WIDTH 826
HEIGHT 1
VIEWPOINT 0 0 0 1 0 0 0
POINTS 826
DATA ascii
1.3507481 0.11735642 0.01092875 11696175
1.3528032 0.11952728 0.010801613 11433768
1.3545201 0.12255353 0.010768235 11039789
1.345376 0.11296064 0.011173129 11959347
1.3492891 0.11954939 0.012215316 10913351
1.3504062 0.12058151 0.012418985 11109716
1.3525517 0.12292814 0.011736572 11045468
1.3402765 0.10953897 0.010884106 11698488
1.3423862 0.11201954 0.011695087 11828530
1.3452256 0.11427432 0.011370838 11760689
1.3466314 0.1172806 0.011598349 11042888
1.3483686 0.11844569 0.011834919 10777657
1.3501694 0.12296236 0.011618197 12498609
1.3387458 0.11086714 0.010688305 11829563
1.3401561 0.11267513 0.011496663 11828535
1.3417571 0.11612695 0.010506809 12153945
1.3366734 0.11255026 0.010432303 11435066
1.348282 0.12003082 0.015936375 12630190
1.3505572 0.12144196 0.015625358 12234395
1.3521693 0.12445235 0.015731633 12761511
1.3412875 0.11413735 0.014154971 11822641
1.3431971 0.11562836 0.014638901 12753545
1.3446822 0.11709058 0.01443404 12626088
1.3475546 0.11883283 0.0139696 11904385
1.3392681 0.11458224 0.0134781 12085039
1.3407106 0.11555666 0.013081074 13599614
1.33693 0.11581892 0.011970878 10440475
1.3350163 0.11696756 0.010950208 9852450
1.344928 0.11624169 0.018431425 12565161
1.3452735 0.11773795 0.018555701 13154237
1.3482668 0.12030822 0.018474281 12960445
1.3404522 0.1145137 0.017529726 12819325
1.3418807 0.11667359 0.01796031 14137281
1.344121 0.11790198 0.017749131 14201026
1.3381896 0.11543363 0.015708506 12212037
1.3396343 0.11677158 0.016605735 14454169
1.3358607 0.11669922 0.014696002 11025203
1.3337866 0.1182062 0.013305545 9188630
1.3312917 0.11922783 0.011811256 10314273
1.3320678 0.12068218 0.011974394 7674383
1.3302381 0.12276506 0.010381103 6890517
1.3314505 0.12691587 0.01100409 10308183
1.3303894 0.12780952 0.010268688 9782103
1.3464667 0.11864281 0.023304582 13158595
1.3483515 0.11924714 0.021196902 12894907
1.3495296 0.12158656 0.021350801 13158337
1.3415866 0.11429971 0.021250486 12957336
1.3431302 0.11567223 0.021357656 13157563
1.3451767 0.11859709 0.020524859 13420232
1.346105 0.12085581 0.021032214 14008780
1.347134 0.12331408 0.021990538 14140621
1.3396018 0.11444694 0.019868851 12620124
1.3407604 0.11728704 0.019704223 13223365
1.3424485 0.11979204 0.019972086 14270156
1.3439636 0.12190843 0.020635784 14792652
1.3372598 0.11597753 0.018682599 12349526
1.3384606 0.1182794 0.018350124 13933481
1.3401399 0.12013352 0.019205511 14595528
1.3352418 0.11725938 0.017044842 11355705
1.3359902 0.11922133 0.017622709 13728905
1.3331609 0.11916673 0.015878856 10827820
1.333516 0.1204375 0.016248763 13326948
1.3311472 0.12046355 0.014652669 9122056
1.3312551 0.12173474 0.014476478 11417149
1.3289911 0.1220631 0.012632668 9591319
1.3289275 0.12322718 0.013039529 8659729
1.3309174 0.12774199 0.012552798 11292512
1.3270168 0.12497407 0.011712432 7416595
1.3299356 0.12839204 0.01181525 10569056
1.3290836 0.12947363 0.011448681 10438999
1.3250165 0.12675673 0.010327637 8211752
1.3272367 0.13044423 0.010543346 9190218
1.3471272 0.12067616 0.024845183 13289923
1.3422227 0.11662775 0.023294747 13092540
1.3437665 0.11881787 0.023949683 13158337
1.3447882 0.12178993 0.024013281 13224132
1.346333 0.12369907 0.023565352 13421516
1.3388264 0.11563295 0.022369981 12820863
1.3395683 0.11755013 0.023774624 13156522
1.3412473 0.12009281 0.021954 13289927
1.3430018 0.12307501 0.021859944 13746890
1.3444701 0.12525821 0.021560431 14725320
1.3450792 0.12759674 0.021793306 15114945
1.3360171 0.11721903 0.021463513 12616803
1.3375959 0.11933887 0.019913912 13023932
1.338933 0.1216982 0.020629048 13746377
1.3402921 0.12392044 0.02115202 13809605
1.3418235 0.12696695 0.021287858 14788030
1.343523 0.12864041 0.021478891 15048890
1.3336468 0.11825234 0.019749343 11949881
1.3355727 0.12087172 0.019113421 13411499
1.3367714 0.12271559 0.019598484 14201792
1.3380917 0.12555391 0.020198226 14460092
1.3402114 0.1273362 0.020881057 14590395
1.3317618 0.11963153 0.01843369 10825232
1.3333292 0.12198198 0.018149614 13337996
1.3343307 0.12425458 0.018821359 14459314
1.3355865 0.12573421 0.019592822 14461889
1.3297662 0.12149674 0.016935408 9380612
1.3307012 0.12323606 0.016941369 12803680
1.3320673 0.12491137 0.018074334 14384790
1.3283632 0.12419146 0.01587081 11419961
1.3309197 0.13031882 0.014867246 13134213
1.3259959 0.12597656 0.014190853 9778724
1.3293048 0.13096684 0.014043033 12344949
1.3240258 0.12789464 0.012690783 7744532
1.3268412 0.13190097 0.012780547 11030880
1.3220685 0.13013273 0.011293471 5709836
1.3246802 0.13317376 0.011436164 9454421
1.3476616 0.12290555 0.026420832 13354939
1.3443742 0.1228767 0.025846899 13223355
1.3457394 0.12455475 0.026635826 13288372
1.3382494 0.11884296 0.024161398 13156266
1.3400791 0.1208517 0.024754107 13157816
1.3416088 0.12381774 0.025240421 13222327
1.3435481 0.12592798 0.024389625 13354442
1.3353498 0.11874914 0.022844672 12884861
1.3362679 0.12015748 0.023891389 13088927
1.3375624 0.1224364 0.02470839 13222837
1.3395193 0.12531579 0.023572564 13090490
1.3409197 0.12788755 0.023271561 13416128
1.3424159 0.12975973 0.022426009 14916789
1.3333111 0.11928374 0.021845162 12681306
1.3337913 0.12098223 0.023396611 13017472
1.3353363 0.12362379 0.020949721 13289159
1.3373184 0.12673748 0.021789849 13220033
1.3391058 0.12917644 0.022147 13739446
1.340129 0.13149583 0.021822333 14782375
1.3308957 0.12080586 0.020794392 12412479
1.3317373 0.122594 0.021048188 12882560
1.3332067 0.12529188 0.020023108 13612988
1.3350402 0.12765902 0.020767808 13807293
1.3365438 0.13062668 0.02069062 14456236
1.3378149 0.13258159 0.021562874 14717094
1.3292605 0.12389541 0.019459665 12545624
1.3313165 0.126692 0.019464791 13804974
1.3323212 0.12941825 0.019818246 14459575
1.3338401 0.13137835 0.020490408 14456494
1.3273139 0.12580508 0.017792225 12476504
1.3287716 0.12770897 0.018289506 13992335
1.329692 0.12991345 0.019153774 14525106
1.3314871 0.13341093 0.01684314 14516636
1.3325647 0.13609493 0.017165482 14581152
1.3333317 0.13761795 0.017120898 14448287
1.3253081 0.12706321 0.016465664 11025966
1.3259976 0.12896913 0.017630875 13593456
1.3286692 0.1329326 0.014815331 13134207
1.3297796 0.13419729 0.016345024 14187932
1.3309683 0.13730913 0.017006338 13990304
1.3324864 0.13874865 0.017647505 14317466
1.3233109 0.12891853 0.015467823 10501930
1.323056 0.13000047 0.015869379 12210505
1.3268186 0.13348848 0.014455259 12280433
1.3271631 0.13535452 0.015644193 13464971
1.3283708 0.13743383 0.016541243 14123934
1.3219905 0.12977195 0.013620615 8334865
1.3209119 0.13104898 0.013787508 8336153
1.3238922 0.13515013 0.012833297 10703712
1.3249394 0.13694793 0.014468551 12413045
1.3213028 0.13627064 0.011790931 9130577
1.3220402 0.13749415 0.013300776 10050655
1.3188685 0.13765997 0.011056185 4075069
1.3448508 0.12607628 0.027387619 13418669
1.3425354 0.12713778 0.026838958 13286059
1.3429247 0.12925369 0.027653098 13547424
1.3359015 0.12362725 0.024812222 13353904
1.3385786 0.12587577 0.025349379 13089192
1.340134 0.12882686 0.02595067 13154219
1.3409064 0.13039047 0.026150167 13219760
1.3334273 0.12309611 0.024098456 13285275
1.3344086 0.12484771 0.024666846 13353391
1.3357733 0.12719488 0.025378764 13088933
1.3377576 0.13005906 0.024859488 13154480
1.3383482 0.13198024 0.024783134 13154237
1.330888 0.12322766 0.022829294 12947825
1.332166 0.12615967 0.023984551 13351328
1.3338685 0.12891358 0.023003161 13024186
1.3355317 0.13124895 0.023115575 13089727
1.3368574 0.1338799 0.022979081 14131887
1.3387377 0.1344381 0.022808969 14850996
1.328591 0.12522244 0.022271216 12879975
1.3301415 0.12733018 0.02282697 13284253
1.3312498 0.1301173 0.02181232 13090754
1.3327422 0.13275462 0.021909714 13740214
1.3345985 0.13512123 0.021787167 14783398
1.3355379 0.13746512 0.02263689 14784682
1.3266311 0.12649703 0.020730376 12742472
1.3277625 0.12869638 0.020214558 13148310
1.3293569 0.13127965 0.020753443 13743551
1.3306429 0.13427109 0.020845354 14587562
1.3323908 0.13599867 0.021651089 14717862
1.3243454 0.12839741 0.01981461 12476219
1.3250087 0.13001883 0.019053042 13074036
1.3267671 0.13232571 0.019331932 14524075
1.3283763 0.13401496 0.020177662 14854852
1.3304778 0.13913763 0.017462015 13793176
1.3228083 0.12938255 0.018055141 11025949
1.3230195 0.13133842 0.017968595 12937820
1.3243887 0.13334095 0.018676996 14516871
1.327961 0.13859385 0.016592622 14123942
1.3296347 0.13963264 0.017172456 14122140
1.3206925 0.13247579 0.016719282 11360574
1.3234111 0.13857609 0.01463455 11758435
1.3253255 0.13958776 0.015741944 13140375
1.3182336 0.13410091 0.015205622 6832695
1.3214524 0.13940579 0.014245331 8283767
1.3229235 0.14144969 0.015622616 10522814
1.3177347 0.13893151 0.011880636 3291226
1.3188713 0.14036542 0.01345557 3621997
1.3201091 0.14177108 0.014931738 5004944
1.315253 0.1393199 0.011777163 3291738
1.3162702 0.14131731 0.012169361 1909570
1.3138797 0.14291602 0.010936856 2107216
1.3405213 0.13196939 0.027884841 13546908
1.3364171 0.13057435 0.026069224 13351074
1.3379277 0.13306814 0.026959658 13547677
1.3385569 0.13625151 0.027816772 13742229
1.3330747 0.12949461 0.025254786 13220777
1.3343306 0.13182914 0.025726318 13416352
1.3358979 0.13452613 0.025818884 13547688
1.3370129 0.13575387 0.02731818 13743515
1.3298026 0.12872201 0.024052024 13417382
1.3302677 0.13099647 0.02498734 13550258
1.3319895 0.13343662 0.025691509 13480344
1.3339653 0.13580114 0.024232984 13285302
1.3344982 0.13769615 0.024442196 13739952
1.3267382 0.12952721 0.022869945 13278585
1.3279742 0.1320532 0.023140013 13617086
1.3300881 0.13502371 0.022259414 13216949
1.3311162 0.13734144 0.02279222 14000042
1.3325868 0.13919377 0.023006022 14716833
1.324013 0.13106155 0.022196114 13142369
1.325477 0.1332022 0.021221995 13417917
1.3273379 0.13639015 0.021684349 13869488
1.329036 0.13866216 0.022321284 14520995
1.3300574 0.14117187 0.022750676 14848159
1.3217884 0.13228267 0.020284832 12810059
1.3234254 0.13499475 0.020287275 14001576
1.3251706 0.13737494 0.020947814 14262711
1.3267926 0.13991618 0.021478057 14322345
1.3198191 0.13357919 0.018770874 9985866
1.3210545 0.13560438 0.019396722 12356742
1.3220847 0.13806272 0.02003628 12822732
1.3176986 0.13537025 0.017953813 5589327
1.3186198 0.13717318 0.018061876 7827340
1.320433 0.13842982 0.019188702 11576792
1.3222365 0.14314526 0.015937746 8424635
1.3219086 0.14462978 0.016373754 4084358
1.3158576 0.13853818 0.017123163 2371144
1.3182812 0.14261848 0.014451087 1582922
1.3195059 0.14393145 0.015304804 2964066
1.3200266 0.14591777 0.01618284 2502487
1.3162255 0.14315969 0.013585746 1843774
1.3168461 0.14542472 0.015024424 2698570
1.3139673 0.14453709 0.012496948 2041165
1.3144319 0.14651513 0.013920486 2303816
1.3116149 0.14601582 0.011365891 2106965
1.3119035 0.14729887 0.012741506 1975373
1.3086751 0.14655936 0.010454774 5068164
1.3093314 0.14845139 0.010771573 1976156
1.3360417 0.13732439 0.02765131 13676175
1.3293195 0.13281721 0.025431991 13548970
1.3308191 0.13482082 0.025848269 13545363
1.3326315 0.1368444 0.026511908 13742742
1.333601 0.13899326 0.027237654 13806998
1.3271534 0.13310063 0.024816811 13681582
1.3284154 0.13570958 0.025826454 13676181
1.3304918 0.13854963 0.02623719 13806756
1.3310738 0.14002132 0.025605619 13806254
1.3237741 0.13273495 0.02355212 13475443
1.3246377 0.13428456 0.024446011 13744287
1.3259238 0.13670969 0.025467694 13610918
1.3276167 0.13958758 0.023385942 13476030
1.3286631 0.141913 0.023922324 12617647
1.3208861 0.13371891 0.022086561 11433545
1.3222154 0.13545316 0.023459375 13149335
1.3239932 0.13819259 0.022408783 12562116
1.3252249 0.1410467 0.022643447 10191545
1.3268375 0.1433503 0.022749305 7824548
1.3189962 0.13505518 0.021310687 7493701
1.3198502 0.13688713 0.021771073 9404040
1.3215584 0.13980538 0.021310627 9146298
1.3231738 0.14213359 0.021377027 6581414
1.3242826 0.14483142 0.022018254 3425141
1.3262432 0.14635319 0.022651613 2504556
1.3166178 0.1364361 0.020237446 3879990
1.3177912 0.1381768 0.020183325 4802907
1.3192374 0.14097989 0.020586908 3951723
1.3206028 0.14362949 0.020693541 2700376
1.315138 0.13981402 0.018822551 3290188
1.3167357 0.14198881 0.019315302 3488595
1.3184838 0.14354938 0.020355523 3422291
1.3128985 0.14065045 0.017391443 3750487
1.313916 0.14322388 0.01845926 3948374
1.3173752 0.14804816 0.016121566 2962262
1.3112454 0.14424443 0.017206371 3224400
1.3141177 0.14796513 0.01454705 2829897
1.3149329 0.14981389 0.015658796 3027540
1.3152078 0.15238428 0.016267061 2830422
1.3117753 0.14918315 0.013814807 2238538
1.3124207 0.15108067 0.015127778 2896207
1.3092902 0.15032685 0.012831271 2041166
1.3099467 0.15194422 0.014225602 2567244
1.306808 0.15178084 0.011923432 2106965
1.3048816 0.15258694 0.010306001 3028844
1.3285172 0.13969928 0.026583076 13343406
1.3305724 0.14121801 0.027801096 12158868
1.3254632 0.13793254 0.026090741 12755883
1.3264916 0.14044315 0.026673853 9730712
1.3276709 0.14229906 0.026849747 7364743
1.3216658 0.13724244 0.02461946 11112345
1.3227341 0.13911504 0.025158048 8813451
1.3242471 0.14164168 0.026266575 5066333
1.3255351 0.14373028 0.024995565 4409716
1.319257 0.13772589 0.023412883 6377036
1.3203017 0.13997942 0.024595857 4472379
1.3226432 0.14290351 0.024005651 3489365
1.3235204 0.14523822 0.024157524 2830676
1.3245057 0.14719158 0.023729324 2500686
1.3164443 0.13934988 0.022679627 4143160
1.3180548 0.14162248 0.023366868 4210756
1.3197802 0.14435947 0.022593081 3619409
1.3212619 0.14665991 0.022631824 3092819
1.3222201 0.14976048 0.022763431 2369875
1.3144394 0.14082032 0.02180469 4143936
1.3156834 0.14314175 0.021011055 4408662
1.3175809 0.14553118 0.021173775 3751000
1.3190757 0.14865369 0.021611631 2962265
1.3201289 0.15074801 0.022277057 2569308
1.3121688 0.14150745 0.02001673 3749961
1.3136951 0.14473522 0.019945562 4277078
1.3150327 0.14712989 0.020489395 3817049
1.3169444 0.14898336 0.021143734 3225689
1.3176504 0.15067595 0.021359026 2963290
1.3111911 0.14574128 0.018718123 3816787
1.3121644 0.14827812 0.019560993 3817302
1.3087465 0.14646363 0.017177999 3159381
1.3097434 0.14850163 0.01829046 3817044
1.3123736 0.15265447 0.015700161 2896468
1.3135527 0.15471452 0.016218722 2764886
1.3063987 0.14813548 0.016102493 3225436
1.3097292 0.15353554 0.014702857 2830416
1.3105644 0.15593129 0.015674174 2962007
1.311785 0.15773445 0.016111016 2699095
1.3071326 0.15463734 0.013825536 2435917
1.3083305 0.15654975 0.01507467 3028055
1.3029131 0.15361422 0.011835217 2437222
1.3045781 0.15585917 0.013007283 2173008
1.3025807 0.15686798 0.011735201 2107222
1.3286624 0.14232105 0.028811932 6312306
1.3271666 0.14417624 0.027982235 3552577
1.3251204 0.14531755 0.027258575 3157303
1.3256418 0.14694208 0.028379321 3222840
1.3196988 0.14205813 0.025422335 4078394
1.3207859 0.14416236 0.025612175 4012349
1.3224932 0.14645422 0.026100636 3552064
1.3234124 0.14836448 0.027063787 3158079
1.3169705 0.14261538 0.024650872 4670274
1.3180488 0.14464968 0.025057375 4473155
1.3198547 0.14789248 0.025494337 3882051
1.3211871 0.14952785 0.02517581 3225440
1.3135846 0.142362 0.023234427 4604226
1.3147743 0.14347804 0.024212241 4801859
1.3160679 0.14608145 0.024467289 4473417
1.3182514 0.14870477 0.024182141 3883351
1.3190663 0.15158838 0.023188472 4410746
1.3206317 0.15409791 0.02267164 4409479
1.3116822 0.14302766 0.022383571 4209469
1.3123375 0.14518058 0.0232234 4604741
1.3143824 0.147964 0.021831036 4014680
1.3154494 0.1501807 0.022068143 3555165
1.3168576 0.15287894 0.02218461 5266308
1.3182942 0.15492678 0.022583961 5069203
1.3095849 0.14607251 0.021627367 4276038
1.3120196 0.14884055 0.020891726 4080215
1.3129983 0.15177852 0.021083772 3291991
1.3148052 0.15442872 0.021514654 5529740
1.3077525 0.14767075 0.019689083 3882061
1.3095118 0.15033883 0.019400597 4014422
1.310528 0.15261412 0.020204186 3817047
1.3122007 0.15521616 0.020363569 3752805
1.3055573 0.14907938 0.018081069 3816789
1.3068137 0.15148258 0.018395126 3948373
1.3082647 0.15442151 0.01900667 3817308
1.3093781 0.15558738 0.019449413 3291481
1.3044699 0.15269864 0.017446041 3554133
1.3049039 0.1546945 0.017830014 3882583
1.3082278 0.15813297 0.015697777 2896727
1.3093474 0.16027665 0.016228616 2567767
1.3017504 0.15378261 0.016089737 3620191
1.3044462 0.15779001 0.0139907 2633036
1.3053148 0.15952969 0.014963567 2896466
1.3067441 0.16143417 0.015995026 2699351
1.308432 0.16363961 0.016147912 2566741
1.3020095 0.15880281 0.012824595 2107217
1.3028445 0.16092795 0.01419431 2699087
1.3052198 0.1627993 0.015501499 2830681
1.3001876 0.16001165 0.011784375 2172503
1.3004466 0.16209662 0.013373673 2370381
1.2969661 0.16024834 0.01093334 4739461
1.298095 0.16254491 0.011664689 2172757
1.2959213 0.16408569 0.010118306 1714269
1.3230013 0.14967644 0.027689159 3223615
1.3207171 0.15093094 0.027092397 5592682
1.3214008 0.15298963 0.027653635 5921909
1.3150358 0.14769012 0.025215328 4407359
1.3161455 0.14972872 0.025520623 4933967
1.3179884 0.15229052 0.026135027 6185597
1.3191993 0.15463668 0.0259673 4804980
1.3118212 0.14699721 0.024068177 4670532
1.312993 0.14843106 0.024688363 4538946
1.3141594 0.1516096 0.025040329 4671047
1.3159941 0.15398496 0.025014877 6777989
1.3173648 0.15584189 0.025030255 3688317
1.3096771 0.14745694 0.023028791 4670019
1.3101901 0.14957476 0.023658991 4736325
1.3115151 0.15226239 0.024274051 4275774
1.3138435 0.15481132 0.023444831 5988993
1.3153737 0.15678805 0.023203194 5332636
1.3073255 0.14872342 0.021946728 4407107
1.3079354 0.15128392 0.022966087 4736070
1.3101966 0.15346032 0.022247434 3948366
1.3116772 0.15670776 0.021526992 5068924
1.3126881 0.15886486 0.022872627 6779552
1.3053672 0.14984709 0.02051121 3881028
1.3059072 0.15255678 0.021119893 4473675
1.3078048 0.15512747 0.020689368 4079956
1.3089403 0.15786242 0.02072525 3489116
1.3102144 0.16027194 0.022052526 7173528
1.3039925 0.1513586 0.019408464 3618375
1.3038023 0.15382451 0.019530416 4144973
1.3053269 0.15650117 0.019369841 4014425
1.3066832 0.15919185 0.02002573 3225685
1.301551 0.15548998 0.017971933 3685203
1.3025177 0.15768182 0.018519998 3948631
1.3038214 0.15999883 0.019137025 3685720
1.3066154 0.16375303 0.016244888 2698838
1.3071659 0.16518962 0.016475439 2173266
1.2993768 0.15679008 0.016511202 3817567
1.2998555 0.15884191 0.017289281 3619412
1.3043861 0.16389418 0.015546143 2830679
1.3053377 0.16635847 0.016328931 2501977
1.3060184 0.16817659 0.016566396 2963299
1.2977899 0.15978569 0.016197383 3027794
1.300305 0.16342407 0.013891518 2633294
1.3015251 0.1652627 0.01504904 2896213
1.3028626 0.16803265 0.015892506 2567765
1.2975972 0.16436648 0.012751639 2107472
1.2989738 0.16684538 0.014318407 2830419
1.3006928 0.16869521 0.015211761 2765144
1.2958083 0.16568857 0.01227808 2172755
1.2963036 0.16771787 0.013372302 2436175
1.2931768 0.16695577 0.010642767 2437223
1.293581 0.16876143 0.011976898 2106963
1.3185244 0.15564549 0.027171075 4541548
1.3159028 0.15492111 0.026625812 6711939
1.3161771 0.15669543 0.027254283 6186373
1.3130515 0.15589565 0.025216401 6776692
1.3136048 0.15808839 0.026207924 6975116
1.3091862 0.15485579 0.023902833 4275776
1.3103472 0.15711099 0.024434626 5460055
1.3113314 0.16008836 0.024793804 7565451
1.3134574 0.16086012 0.023697913 6449831
1.3062886 0.15560657 0.022884548 4670789
1.307467 0.15850133 0.023711085 4604742
1.3091885 0.16102624 0.023272932 6973569
1.3034718 0.1549589 0.021439254 4604483
1.3037431 0.15747124 0.022624314 4736327
1.3058834 0.15953177 0.021842003 3948883
1.3071706 0.16214275 0.02110666 5331065
1.3007544 0.15670002 0.020333886 4209989
1.3015268 0.15786749 0.020932853 4539210
1.3034202 0.16100484 0.02013731 3817559
1.3044297 0.16355377 0.0201177 3752545
1.2988137 0.15774316 0.019365549 3684680
1.2995288 0.15978211 0.018927157 4079696
1.3007367 0.16217613 0.018988311 4014679
1.3019449 0.16422552 0.019165277 3554390
1.2971574 0.16124767 0.017707467 3685459
1.298527 0.16374111 0.017854631 3882839
1.2998787 0.16619253 0.018400967 3554394
1.3018808 0.16930759 0.015975416 2633303
1.3027519 0.1713329 0.015588999 2239576
1.2948256 0.1623823 0.016400516 3620702
1.2957758 0.16486049 0.016735673 3685207
1.2998075 0.1698398 0.015173495 2699351
1.3011202 0.17270243 0.015384197 2304855
1.3018801 0.17528594 0.016027927 3687544
1.3036939 0.17719668 0.016446948 4478612
1.2935278 0.16561401 0.015804172 3159380
1.296224 0.16932344 0.013620734 2896206
1.2972487 0.17129546 0.014646947 2896214
1.2985234 0.17387098 0.015078247 2567767
1.2999926 0.17601264 0.015531957 3028831
1.2908956 0.16702253 0.014406621 2568281
1.2937973 0.17028564 0.012497663 2173007
1.2947992 0.17268407 0.013715744 2895955
1.2963338 0.17494845 0.014766812 2830938
1.2913404 0.17200142 0.011830747 2041169
1.2921264 0.17372382 0.013253212 2698575
1.288666 0.17315757 0.010413766 1779294
1.2890846 0.17457515 0.011273265 1909843
1.3139501 0.15973973 0.027622521 5987962
1.3117249 0.16097558 0.026660681 7563632
1.3117532 0.16234553 0.027331769 6117227
1.3089433 0.16226214 0.024804413 7957627
1.3093114 0.16433764 0.026037395 7169661
1.3049321 0.16035861 0.023401201 4341567
1.306319 0.16274703 0.023883045 5986653
1.3067687 0.16545749 0.024803579 7434368
1.3013085 0.15995753 0.022326946 4736326
1.3024049 0.16218847 0.023103237 4538693
1.3037781 0.16498876 0.02347666 5328723
1.3047354 0.16676849 0.024110794 7500669
1.2986122 0.16069084 0.021399915 4604741
1.2995117 0.16331208 0.02255708 4670535
1.3014289 0.16584349 0.02107352 3685967
1.3022976 0.16844392 0.022126079 5858188
1.2961744 0.16233599 0.020387352 4210247
1.2977961 0.16465855 0.020187855 4146004
1.2992229 0.16767061 0.019743145 3357782
1.3001029 0.16896844 0.020676732 4016483
1.293941 0.16361809 0.018803358 3816271
1.2952259 0.16543865 0.019265592 4277077
1.2965963 0.16816521 0.018959343 3817563
1.2981414 0.17077303 0.018968701 3029333
1.2989942 0.17334044 0.01884383 5463945
1.3032017 0.17933941 0.016915262 3887244
1.3041744 0.18168122 0.016980946 3425404
1.2930098 0.16732997 0.017597258 3751510
1.2942051 0.16989589 0.01764679 3882584
1.2962527 0.17231709 0.018286049 3029335
1.2975345 0.17499721 0.017017066 3423590
1.2996962 0.17761499 0.015996456 3753843
1.3012004 0.17984039 0.016716182 4347280
1.3018951 0.18231386 0.017470837 3294601
1.3024242 0.18576986 0.016635239 2174316
1.2903814 0.16816181 0.016238332 3423325
1.2914932 0.17087048 0.016919315 3817045
1.2939427 0.17425805 0.014195561 3027798
1.2954212 0.1761356 0.014771104 2699353
1.2964753 0.17858744 0.015349686 2371160
1.2980819 0.1810866 0.016163468 4412810
1.3001976 0.18327075 0.016878724 4084633
1.2883604 0.16969383 0.01483959 4739444
1.2892685 0.17159128 0.016168654 3421780
1.2916249 0.17489022 0.01346159 2764879
1.2927408 0.17757714 0.014390647 2962007
1.2939849 0.18041033 0.015145183 2502487
1.2965779 0.18213594 0.015982807 4873359
1.2892575 0.17653126 0.012662649 2435661
1.2900712 0.17890286 0.013846457 3027796
1.2844161 0.17427891 0.01207757 6712986
1.2869056 0.1779142 0.011673748 1975118
1.2878951 0.17951483 0.013235629 2830413
1.284797 0.17896098 0.01083231 1450075
1.3095183 0.16683495 0.026803493 5790073
1.3072749 0.16715926 0.026085913 6514047
1.3078637 0.1680764 0.026837289 5659517
1.3047802 0.16827005 0.024699926 6974591
1.3055079 0.16985416 0.026100457 6185344
1.3000044 0.16612267 0.023039639 4341826
1.3020353 0.16928184 0.023877859 6710898
1.3033295 0.17168713 0.023836374 5726093
1.2964627 0.16537929 0.022233605 4736328
1.2978817 0.16756809 0.023035824 4407620
1.299629 0.1702221 0.022878945 5593196
1.3006808 0.17321157 0.022414029 6055324
1.3026344 0.17527628 0.023570001 3556471
1.2938821 0.16691577 0.021711707 4670536
1.2953604 0.16955715 0.022520185 4605000
1.2967317 0.17186028 0.0205881 3621471
1.298249 0.17443657 0.021782577 6252954
1.2997763 0.17710716 0.020564616 4741269
1.3012073 0.18031305 0.020795882 2766451
1.3039576 0.1855123 0.020086706 4146526
1.2921473 0.1658237 0.019509375 3684166
1.2915967 0.16777056 0.020354629 4209990
1.2936152 0.17044067 0.019549429 4014938
1.2944907 0.17335075 0.019902706 3423575
1.2963004 0.1758796 0.019695759 5134722
1.2979635 0.17840052 0.020514607 5398691
1.3015842 0.18398058 0.019337595 1909862
1.3020396 0.18466145 0.018692195 1976425
1.2896663 0.16972035 0.018649638 3619151
1.2912401 0.17226243 0.018699944 4146009
1.2927853 0.17480093 0.018819809 3554905
1.2940027 0.17749941 0.019078434 4411768
1.2959222 0.17918539 0.019755304 6713772
1.297895 0.18312132 0.016456306 5267618
1.2986863 0.18417341 0.017930388 3886739
1.3002486 0.18646258 0.017386258 3622269
1.287459 0.17126513 0.017073512 3686238
1.288668 0.17319477 0.017101765 3751254
1.2902513 0.1761142 0.017550945 3817559
1.2916459 0.17806739 0.018348277 2832210
1.2935212 0.18155169 0.015321195 2108246
1.2955863 0.18341571 0.015946925 4609675
1.2967606 0.1859951 0.016418993 4939168
1.2978725 0.18862855 0.016243696 3557002
1.2995192 0.19090521 0.015692115 2173290
1.2853971 0.17309302 0.015667319 3818607
1.2862625 0.1745646 0.016251981 3159381
1.287812 0.17686623 0.017099321 4080218
1.2895434 0.18002355 0.014001608 3093844
1.2908506 0.18191326 0.01480633 2699351
1.2929014 0.18492669 0.015505254 3359603
1.2940674 0.18737805 0.015937805 5136541
1.2955289 0.18973392 0.016140878 4149911
1.2840159 0.17561144 0.014751017 3293040
1.2876289 0.18113047 0.013650715 2962004
1.2889431 0.18359768 0.014780343 2699094
1.2905596 0.18598533 0.015294015 2438763
1.2821372 0.17730981 0.013032019 5924502
1.282534 0.17991418 0.012470186 3489390
1.2852085 0.18189764 0.01294589 2502229
1.2865779 0.18431693 0.014206231 3752790
1.2808501 0.18057454 0.011438727 5332372
1.282706 0.18367404 0.011782229 4806020
1.2787123 0.18176639 0.010241687 8818101
1.2804767 0.18500733 0.01011771 4478092
1.3045168 0.17140478 0.027441144 4804462
1.3022698 0.17288136 0.026463211 5725308
1.2984462 0.17173642 0.023706138 6447728
1.2999862 0.17374468 0.025081635 6777731
1.3017304 0.1761803 0.025105953 3556720
1.2951422 0.17098629 0.022652328 4473416
1.2964873 0.17244029 0.023413479 5065813
1.2981073 0.17513555 0.023817599 6909321
1.2991492 0.17727554 0.023557961 5135249
1.3002112 0.18011689 0.024397254 3424367
1.2927419 0.16923988 0.02196002 4867658
1.2925007 0.17131764 0.022125423 4802121
1.2935019 0.17414403 0.023045599 4736587
1.2953836 0.17697591 0.023002505 6974596
1.2967898 0.17903709 0.022511482 6121892
1.2988037 0.18038934 0.021824956 4542345
1.2987823 0.18360823 0.021887302 2306926
1.3021054 0.18517488 0.021104515 3489885
1.289728 0.17064005 0.020629227 4473160
1.2896674 0.17287558 0.021353424 4802378
1.2906613 0.17517251 0.022321701 4670792
1.2934155 0.17756951 0.020368934 4740217
1.2948666 0.18038797 0.020660102 6648231
1.2966611 0.18310738 0.019870341 5529758
1.2973506 0.18488187 0.020797968 2833012
1.2986211 0.18790841 0.019659281 2174805
1.287519 0.1741901 0.019738674 4145227
1.2895279 0.17667705 0.0191347 4014939
1.2911408 0.17924434 0.019188881 3621989
1.2920901 0.18170053 0.019556403 5793427
1.293581 0.18446463 0.019930959 5793189
1.2955345 0.18691736 0.020057797 3556491
1.2978325 0.18785948 0.018660128 1978468
1.2978835 0.19150233 0.017960608 1715037
1.2854264 0.17532128 0.018257737 3159888
1.2865803 0.1782881 0.018015802 3752022
1.2883875 0.18001139 0.018736303 2832728
1.289965 0.18332762 0.018905163 4806793
1.290684 0.18531853 0.019144356 6254250
1.2933074 0.18951833 0.016094744 4939427
1.2948055 0.19107169 0.016804457 4084377
1.2957696 0.19273943 0.017590284 3622282
1.2836009 0.17668784 0.016791344 3621739
1.284338 0.17915761 0.016865134 4146782
1.285884 0.18156725 0.017751455 4607079
1.2877825 0.18351358 0.018257439 3161972
1.2893929 0.1870724 0.015093803 3228536
1.2912128 0.1896618 0.015497863 4939423
1.2925516 0.19234973 0.016090572 4479646
1.2948847 0.19323635 0.01592356 4084636
1.2813706 0.17852002 0.015418768 6909843
1.2818809 0.18039948 0.01574856 6186642
1.2833866 0.18258893 0.016907871 9803705
1.2855911 0.18574303 0.014153957 7634095
1.2867138 0.18801981 0.01482302 6385578
1.2880759 0.1908952 0.01535666 5596331
1.2905612 0.19312906 0.015760303 4807587
1.2918295 0.19594336 0.015461981 4347553
1.2935336 0.19832426 0.014788449 3688853
1.2797655 0.18158394 0.014420867 6318232
1.2833474 0.18688309 0.013412714 8555699
1.2842107 0.18941516 0.014522612 7964091
1.2857114 0.19161576 0.015140772 5596080
1.2917308 0.200243 0.014845908 4275343
1.2777638 0.18309712 0.013022006 8223913
1.2798111 0.186584 0.011116624 5200015
1.2805459 0.18820822 0.012554824 6711955
1.2818995 0.18976933 0.014106154 9147068
1.2757349 0.18459147 0.011623859 11709639
1.2766844 0.18671632 0.011544883 7758225
1.2786131 0.18993556 0.011240244 7229563
1.2996042 0.17669034 0.026247263 5923971
1.2978394 0.17859125 0.025081098 6647437
1.2950093 0.17844999 0.023676872 7698572
1.2959571 0.18001616 0.024233162 6778771
1.2971783 0.18237209 0.024117172 5857411
1.2904342 0.17642385 0.022657871 4473414
1.2918755 0.17823434 0.023006797 5197403
1.293294 0.18098134 0.023308933 7435923
1.2946222 0.18328983 0.023615539 6252944
1.2871056 0.17613447 0.021220684 4736577
1.2883633 0.17721879 0.022260249 4473406
1.2891537 0.18031812 0.022856772 5000284
1.2914299 0.18222708 0.02304846 7173265
1.2921736 0.18478078 0.0221681 6253982
1.2937744 0.18698758 0.020664454 5069472
1.2849258 0.17663908 0.020246327 4078911
1.2857764 0.17870313 0.02156949 6249555
1.2868127 0.18102276 0.019655585 3358048
1.2887214 0.18383962 0.019934595 5267089
1.2905805 0.18632358 0.020411253 6056871
1.2922385 0.18891501 0.020247579 5792934
1.2935853 0.19116896 0.019764364 5792412
1.282619 0.17810303 0.018346846 6120053
1.282962 0.17951578 0.0199911 7960190
1.2847123 0.18232363 0.01876384 8225705
1.2866718 0.18501955 0.019038558 6911656
1.2878675 0.18751174 0.019092917 6319786
1.2895316 0.19029844 0.019403577 5792937
1.2916433 0.19378722 0.018672228 5200291
1.2931559 0.19562584 0.018089652 3686533
1.2811258 0.18119311 0.018185198 7632266
1.2824922 0.18374604 0.017938793 9738680
1.2840414 0.18615961 0.018627346 7898290
1.2854919 0.18878281 0.018948376 6319530
1.2873164 0.19171441 0.018094361 5595820
1.288798 0.19412363 0.01792109 5789080
1.2903688 0.19704813 0.017342687 5260934
1.2917112 0.19915193 0.017969608 7425889
1.2792658 0.18327749 0.016436279 6972548
1.2801666 0.18487316 0.016736925 8750757
1.2816527 0.18745768 0.017698705 8553906
1.2836255 0.19040602 0.014864504 7240886
1.2848034 0.19241393 0.015350163 5661101
1.2869709 0.19514757 0.015818238 5525661
1.2883338 0.1981982 0.015371859 7294599
1.2901113 0.20077574 0.015799284 10579592
1.2772603 0.18440187 0.015152276 9335698
1.2777284 0.1863963 0.015467286 8609400
1.2788451 0.18803984 0.016866624 10845574
1.2812672 0.19139892 0.014036357 8878759
1.2827885 0.19416535 0.014762938 9136535
1.2840979 0.19668478 0.015277684 11169175
1.2856102 0.19944596 0.015099883 13861793
1.2877989 0.20196182 0.014619768 13928616
1.2755418 0.18599409 0.013734102 12627393
1.2759037 0.18814588 0.013909519 11763346
1.2762058 0.19095546 0.014307797 13134457
1.2794148 0.19306654 0.01321435 11826838
1.2804712 0.19543785 0.01445961 13927070
1.2818506 0.1972459 0.015218973 14649504
1.2846307 0.20104188 0.014855325 14583715
1.2741525 0.18673497 0.012001812 14407643
1.2739975 0.18954301 0.012326539 13879501
1.2746408 0.19198549 0.012125731 13019831
1.2770547 0.19427073 0.012073994 11956877
1.2778927 0.19620717 0.013469338 13274026
1.2715104 0.19076884 0.010982752 14868962
1.2898738 0.18353903 0.023630083 7567505
1.2924982 0.18549049 0.023824215 6713486
1.2924435 0.18718898 0.02326107 6779022
1.2851119 0.18090141 0.021914482 10196380
1.2864923 0.18230826 0.022733867 8553362
1.2878619 0.1848588 0.023468196 7698835
1.2898448 0.18774462 0.023224533 6975381
1.2908857 0.1899429 0.022628963 6186651
1.2828997 0.18114692 0.021178603 10130323
1.2841015 0.18314469 0.02213043 9933981
1.2854352 0.18618 0.022865236 8092048
1.2876618 0.18860227 0.021494985 6449826
1.2891717 0.19112211 0.022487402 6708106
1.2897216 0.1943624 0.021521628 8870000
1.2925415 0.1965059 0.021360457 10124182
1.28036 0.18326312 0.020312488 9336438
1.281723 0.18471968 0.021297276 10587272
1.2827753 0.18704706 0.020127833 8092312
1.2845378 0.19000018 0.019985974 7560841
1.2862729 0.19180673 0.01975733 6509710
1.2878197 0.19495398 0.01952821 8674176
1.2894423 0.19837844 0.019220531 10776206
1.290972 0.20000041 0.019871533 2430526
1.2785769 0.18457967 0.018984616 9394758
1.2792104 0.18601918 0.019617498 11170148
1.2805831 0.18882078 0.018527687 9992319
1.2821784 0.19140387 0.018831372 10383487
1.2841116 0.19346136 0.019421637 11695502
1.2854705 0.19661844 0.019317091 14324892
1.2871405 0.19899136 0.018227637 14060447
1.2883822 0.20127892 0.01854974 7356768
1.2772644 0.18527675 0.017298996 10973291
1.277243 0.18748212 0.017721117 12417134
1.2782631 0.19019145 0.017552674 13076372
1.2798219 0.19266385 0.01792115 14257564
1.2812659 0.19502991 0.018278778 14652843
1.2828413 0.19725877 0.017674267 14457264
1.2851665 0.2007131 0.016772985 14651800
1.2862797 0.20294279 0.016877353 11693921
1.275701 0.18856335 0.016212046 13671570
1.2763072 0.19126379 0.015996575 13407387
1.2776084 0.1935963 0.016895652 14131880
1.2794446 0.19669211 0.016001999 13804206
1.2814261 0.19820583 0.015695691 14193315
1.2744337 0.19323146 0.013792932 14536651
1.2755311 0.19467837 0.014365971 13877445
1.2858921 0.18859082 0.023255765 8216684
1.2874386 0.1915676 0.023703218 10512224
1.2922454 0.19951397 0.023607135 3417142
1.2811688 0.18587548 0.021939754 11239262
1.2826862 0.18791163 0.022428691 10514764
1.2835097 0.1905905 0.023021936 12878435
1.285682 0.19166815 0.02360338 12811345
1.2879654 0.19544369 0.022751987 14783878
1.2905619 0.20086199 0.021987081 4007733
1.2792032 0.18737435 0.021155536 13731681
1.2805929 0.18915617 0.021972954 14260080
1.2807529 0.19157875 0.021988094 14984073
1.2823665 0.19477433 0.02030015 13997991
1.2850623 0.19527078 0.020722926 15179900
1.2879543 0.20278567 0.020753264 4205875
1.2775766 0.18840778 0.019946516 14583410
1.2778354 0.19055396 0.019770741 14261386
1.2797544 0.19330376 0.020109236 14788751
1.2824757 0.19663364 0.019189477 14658457
1.2890055 0.20241243 0.024970651 3945785
1.2875428 0.20288944 0.024451494 3880251
