# .PCD v0.7 - Point Cloud Data file format
VERSION 0.7
FIELDS x y z rgba
SIZE 4 4 4 4
TYPE F F F U
COUNT 1 1 1 1
WIDTH 925
HEIGHT 1
VIEWPOINT 0 0 0 1 0 0 0
POINTS 925
DATA ascii
1.2654247 0.1614868 0.0026142001 14542565
1.261085 0.15732855 0.0030183792 14082529
1.262588 0.15970117 0.0027111769 14214114
1.2640181 0.16257334 0.0025762916 14345700
1.2588484 0.15694964 0.0029574633 13689057
1.259181 0.15828741 0.0032398105 13755108
1.2609907 0.16145396 0.0027388334 13886692
1.2620697 0.16426194 0.0025318265 14018022
1.2634652 0.16674984 0.0021458864 14280422
1.2638874 0.159446 0.0065718293 13421772
1.2653811 0.16229177 0.0064159036 13487565
1.258383 0.15589231 0.0063141584 13224393
1.2599733 0.15855855 0.0065335035 13290186
1.26114 0.1611408 0.0064980984 13421772
1.2627763 0.16349828 0.0063208938 13421772
1.2608564 0.15816009 0.010333419 13816530
1.2623696 0.16016358 0.010226905 13882323
1.264008 0.16314465 0.010112286 14013909
1.2573839 0.15622759 0.0098384619 13553358
1.2586206 0.15895087 0.010150015 13684944
1.2600245 0.16191655 0.0098422766 13816530
1.2623506 0.16515958 0.0083479285 13619151
1.2618177 0.16748083 0.0064777136 13224393
1.2598312 0.16343772 0.0098050833 13816530
1.2612334 0.1651842 0.010157764 13948116
1.2625582 0.16836321 0.010163665 14145495
1.2583899 0.16359431 0.0095385313 13750737
1.2596442 0.16620773 0.010147035 13816530
1.2604481 0.16966301 0.010466456 14145495
1.2228875 0.13861522 0.0032632947 5397391
1.223336 0.14094672 0.004147172 1845082
1.2170697 0.13504905 0.0025919676 11318720
1.2192826 0.13755831 0.0029526949 8029623
1.2205739 0.13992298 0.0033730865 3753341
1.2135866 0.13364658 0.002184391 12238526
1.2151697 0.1357691 0.0024323463 11187648
1.259783 0.17288846 0.01063031 14277081
1.2587522 0.17385542 0.010450542 14277081
1.2174108 0.13865122 0.00352633 6451120
1.2197925 0.14138484 0.0046066046 2831722
1.2214484 0.14153478 0.0039498806 2239842
1.2118125 0.13459113 0.0025109649 11450558
1.214103 0.13710237 0.003121078 8885696
1.2150278 0.1394572 0.0039009452 5530016
1.217782 0.14100692 0.0039168 3687805
1.2072357 0.13044828 0.0021300316 12237754
1.2084599 0.13336733 0.0023514032 11778491
1.2102757 0.13578427 0.0031310916 9872830
1.2121148 0.1380873 0.0036418438 7240633
1.2011843 0.12708601 0.0023165345 12040119
1.2029896 0.1296607 0.0022498965 12106168
1.2045497 0.13206047 0.0021960139 12106425
1.2060587 0.13409546 0.0027120113 11384507
1.1978285 0.12577987 0.0020806789 11974326
1.1903833 0.12187004 0.00015646219 11447982
1.2217495 0.13897979 0.011343896 660288
1.2210226 0.13975587 0.0090896487 1317699
1.2174672 0.14127457 0.0061887503 3160676
1.2136431 0.13866061 0.0078837872 3490678
1.2154095 0.13962859 0.0067424774 3424629
1.2038289 0.12870672 0.0056437254 12105912
1.2064617 0.12997043 0.0051002502 12303291
1.2085886 0.13703415 0.0044203401 7109302
1.2110401 0.13867071 0.0051034093 5200543
1.2001388 0.12745225 0.0053946376 11908533
1.2021044 0.12978333 0.0053821206 12105912
1.2033472 0.13358101 0.0024769306 11712953
1.2054187 0.13584733 0.0038784742 8688316
1.1948307 0.12385634 0.002152741 11842740
1.1968304 0.12689695 0.0021314025 11908533
1.1981981 0.1288873 0.0022879839 11974326
1.2000434 0.13129926 0.002268672 12040375
1.201068 0.13410819 0.0025098324 11449784
1.2025237 0.13584602 0.0033919215 8885947
1.1910164 0.122738 0.0017995834 11711154
1.1924319 0.12539971 0.0019628406 11842740
1.194223 0.1277276 0.0022246838 11842740
1.1953419 0.13055581 0.0022222996 11908789
1.1971627 0.13280383 0.0022823215 11909046
1.198819 0.13539416 0.0024747252 10923959
1.1889788 0.12405077 0.0010057688 11447982
1.1900737 0.12644872 0.0010943413 11513775
1.1915429 0.12908721 0.00071448088 11513775
1.1923106 0.13187385 0.00024968386 11513775
1.1881131 0.12754908 0.00055593252 11382189
1.1899893 0.13086334 0.00026285648 11447982
1.1907506 0.13283268 0.0001116991 11513775
1.1944206 0.13699567 0.00023633242 11514288
1.221328 0.14020908 0.011951447 2963565
1.2220081 0.14234632 0.012478411 3422052
1.2309499 0.15688452 0.012397051 790574
1.217822 0.13981512 0.010879576 3884158
1.219399 0.14137661 0.011657894 3028321
1.213793 0.13886309 0.0098646879 4082059
1.215431 0.14038041 0.010739505 4146294
1.2173023 0.14190283 0.011127174 2567263
1.2064258 0.13010287 0.0089303255 11448239
1.2105557 0.13733071 0.009144485 4280196
1.2128026 0.13851705 0.0087041855 3951495
1.2016246 0.12698215 0.0085404515 11250603
1.2029641 0.12929511 0.0085825324 11513775
1.2060691 0.13634425 0.0068136454 5069219
1.20768 0.13688102 0.0076678395 4477073
1.197655 0.12636757 0.0069056749 11579568
1.1992712 0.1290004 0.0072752833 11711154
1.200833 0.12992209 0.0058916807 12105912
1.2044523 0.13690594 0.0061454773 4937628
1.1941828 0.12449682 0.0054853559 11842740
1.1953439 0.12739497 0.0054716468 11842740
1.1974411 0.12992221 0.0055244565 11974326
1.2017257 0.1377154 0.0047809482 5332382
1.1898077 0.12373266 0.0054053068 11776947
1.1914189 0.1259166 0.0053964853 11842740
1.1929811 0.1285038 0.0052669644 11776947
1.1945004 0.13093963 0.0052711964 11842740
1.1964813 0.1350463 0.0022986531 11909303
1.1976477 0.13696289 0.0026102066 9937076
1.1992183 0.13824439 0.0035078526 6187688
1.1893352 0.12785545 0.0019407868 11776947
1.1909522 0.12957799 0.0024611354 11776947
1.1926254 0.13232845 0.0022015572 11908533
1.1940982 0.13469011 0.0021718144 11908789
1.1953157 0.13743144 0.0021317005 10989235
1.1977437 0.13985488 0.0034584999 4608407
1.1868557 0.1286405 0.0013384819 11645361
1.1881809 0.1310558 0.001445353 11645361
1.1895998 0.13387406 0.0013794899 11776947
1.1913971 0.13679171 0.0011380315 11711667
1.1932781 0.13870671 0.0011225343 11251633
1.1945699 0.14141509 0.00093311071 10134446
1.1953925 0.14386261 0.00152421 6451115
1.1861835 0.1326201 0.00040394068 11513775
1.1891745 0.13774273 0.00014513731 11579824
1.1909368 0.14016375 0.00052154064 11448752
1.1921304 0.14261478 0.00080507994 10660015
1.1940126 0.14456245 0.0011677146 7964338
1.1843421 0.13438937 0.00023108721 11579568
1.1855992 0.13621008 1.7166138e-05 11645361
1.2183294 0.14287004 0.012275696 461362
1.2491267 0.19453922 0.0097455382 14869218
1.2130998 0.13956046 0.01155597 4277885
1.2136613 0.1415756 0.011777163 1250866
1.2160453 0.14290002 0.011906028 461359
1.206885 0.13560858 0.011640429 4871298
1.2088943 0.13708562 0.011365056 5133445
1.2106097 0.13951144 0.011644542 2895967
1.2119102 0.14201218 0.012263477 790067
1.2139671 0.14318851 0.012470067 725042
1.2012479 0.12905845 0.0093997121 11579568
1.2036617 0.1345135 0.011523187 4541825
1.2055767 0.13608676 0.011243284 4607609
1.2064351 0.13825113 0.012081027 3094589
1.2079436 0.13945216 0.012227774 920910
1.194306 0.1240727 0.0083146095 11053224
1.1970074 0.12805834 0.0083666444 11184810
1.1980032 0.12976384 0.0084745884 11250603
1.2010269 0.13516778 0.0094019175 4344708
1.202908 0.13540655 0.0089939833 4344971
1.1912261 0.12283939 0.0085173845 10987431
1.1922963 0.12538013 0.0084594488 11053224
1.1945293 0.12784323 0.0081411004 11119017
1.1954933 0.13088855 0.0084081888 11250603
1.1998508 0.13629311 0.008430779 4147584
1.1889379 0.12467581 0.007752955 11184810
1.1898994 0.12689853 0.0072743297 11447982
1.1921037 0.12950474 0.0070827603 11513775
1.1934229 0.13219252 0.0067960024 11645361
1.1992757 0.13893726 0.0056473017 4016254
1.1881573 0.12807578 0.0051400065 11776947
1.1900191 0.13068861 0.0053918362 11842740
1.191144 0.13318622 0.0055447817 11908533
1.1871201 0.13190982 0.0051887035 11645361
1.1886207 0.13460681 0.0052371025 11842740
1.1910441 0.13893279 0.0022604465 11909303
1.1955351 0.14537957 0.0018951893 4478096
1.1958148 0.14662594 0.0020710826 3360377
1.1854392 0.13290074 0.0024918318 11776947
1.1866713 0.13583565 0.0020452142 11908533
1.1887 0.13838038 0.0019564033 11908789
1.1891727 0.1408276 0.0017114282 11514803
1.1911414 0.14397907 0.00077337027 10660526
1.1930673 0.14628226 0.001388967 7371947
1.193482 0.14844477 0.0024254322 4083850
1.1839867 0.13757661 0.0011897087 11776947
1.1858974 0.13980523 0.0012657046 11777204
1.1872782 0.14237311 0.00095766783 11646131
1.1890167 0.14484844 0.00053679943 11252145
1.190488 0.14755231 0.00099509954 9213615
1.190393 0.14965254 0.0015200973 8227251
1.1818727 0.13864505 0.00055348873 11645361
1.1835918 0.14106637 0.00063157082 11711154
1.1846774 0.14361808 0.00064456463 11645618
1.1865311 0.14658728 0.00055730343 11383474
1.1888436 0.14862069 0.00084930658 9805743
1.210891 0.14326367 0.013175845 921907
1.2020496 0.13510814 0.011950552 3883888
1.2039076 0.13647038 0.012138009 3488860
1.2053647 0.13923073 0.012106895 855856
1.2072359 0.14168072 0.012641668 790319
1.2085526 0.14384285 0.013083875 856625
1.2105824 0.14649194 0.012433589 791087
1.214412 0.15197948 0.013148665 790059
1.2447642 0.20338216 0.010457337 14737632
1.1984026 0.13457218 0.011984944 4080500
1.1999869 0.13577467 0.011936843 3488615
1.2015054 0.13814753 0.012437165 1513791
1.2031007 0.14069742 0.012262881 986931
1.2045811 0.14243966 0.012357652 922162
1.197597 0.13503912 0.011607051 4080757
1.1977632 0.13713419 0.010445595 3949172
1.2016624 0.14185953 0.012187421 987698
1.1889653 0.12807313 0.0082246661 11053224
1.190156 0.12985823 0.008050561 11119017
1.193396 0.1337086 0.008374691 11382189
1.1871148 0.12933981 0.0079972148 11053224
1.1889706 0.13177881 0.0078793764 11119017
1.1904755 0.1342096 0.0076524615 11184810
1.1914352 0.13546333 0.0080019832 11447982
1.186102 0.13268846 0.006914556 11513775
1.1874729 0.13551629 0.0068343282 11447982
1.189486 0.13714728 0.0075434446 11447982
1.1839511 0.13419995 0.0052012205 11711154
1.1857193 0.13666511 0.0051937103 11776947
1.1925957 0.14998579 0.0030305386 3229562
1.1831206 0.13826579 0.0043913126 11711154
1.1841609 0.14079446 0.0046285987 11776947
1.1908756 0.15044639 0.0022656918 6320041
1.1805792 0.13975137 0.0017191768 11842740
1.182372 0.14181671 0.001793921 11908533
1.1836958 0.14447966 0.0017591119 11843510
1.1855283 0.14745003 0.00049060583 11515059
1.1871585 0.14953634 0.0010020137 10134704
1.188565 0.15238193 0.0016582608 8490164
1.188956 0.15525097 0.0021864772 5728167
1.1799977 0.14334273 0.0013683438 11842740
1.1816576 0.14574531 0.0012353063 11842996
1.1832316 0.14836857 0.00084924698 11646131
1.1845441 0.15075332 0.0010033846 10989490
1.1858208 0.15371478 0.0010338426 9937329
1.1874523 0.1549094 0.001768589 8424373
1.1794258 0.14701679 0.00080645084 11842996
1.1810049 0.14954597 0.0006930232 11711667
1.183678 0.15303501 0.00064569712 11187123
1.2039492 0.14384979 0.012867272 987695
1.1974677 0.1374478 0.01237154 3422817
1.1987613 0.13972408 0.012311518 1382718
1.2001855 0.14238808 0.011900783 987188
1.2019768 0.1439293 0.012116253 922158
1.2412146 0.21017998 0.010693073 15066597
1.1846114 0.1332179 0.0079076886 11119017
1.1865612 0.13711867 0.0077237487 11250603
1.1844265 0.13760743 0.0076792836 11184810
1.1855745 0.13974684 0.0078555346 11382189
1.1819891 0.13874346 0.0061808228 11645361
1.1836907 0.1412957 0.0072695017 11579568
1.1815069 0.14275792 0.0049512386 11776947
1.1811347 0.14569485 0.0048972368 11842740
1.1789159 0.14387295 0.0039421916 11711154
1.1804839 0.1467478 0.0031535625 11842996
1.1807542 0.14906892 0.002587378 11975096
1.1852244 0.15551916 0.0010800362 9871793
1.1872685 0.15677732 0.0020779967 7240623
1.1870766 0.15945789 0.0015217066 6714799
1.1782324 0.14818984 0.0018393993 11974582
1.1795847 0.15061557 0.0016266704 11909046
1.1813588 0.1530351 0.0010885596 11581109
1.183175 0.15580073 0.00096791983 10595506
1.1847346 0.15817237 0.0012899041 9542837
1.1863359 0.16115278 0.0014417171 6583469
1.1758866 0.14921048 0.0011188388 11908789
1.1772578 0.1521174 0.00089532137 11908789
1.1789107 0.15438887 0.0009804368 11777717
1.1802533 0.15705398 0.00106287 11515574
1.1820972 0.15978262 0.00077229738 10529716
1.1837678 0.16222227 0.00074535608 9411256
1.1846581 0.16412401 0.0011045933 7701176
1.1749135 0.15204507 0.00085538626 11974582
1.1807108 0.13967901 0.0077614188 11250603
1.1827062 0.14243072 0.0082224011 11382189
1.1836793 0.14464399 0.0082951784 11645361
1.1802814 0.14349356 0.0081374645 11316396
1.1813765 0.14591131 0.0083847642 11513775
1.1789433 0.14728829 0.0053693652 11908533
1.180217 0.14904138 0.0045189261 11711154
1.1768916 0.14909583 0.0053515434 11842740
1.1788064 0.15137541 0.0045357347 11645361
1.1781273 0.15370202 0.0044130683 11645361
1.1752057 0.15017989 0.0032566786 11908533
1.1767756 0.1526508 0.002969265 11974582
1.1780127 0.15523422 0.0025509596 11909560
1.180007 0.15984809 0.00088149309 11252919
1.1819382 0.16310757 0.00055372715 10200758
1.1842178 0.16567206 0.0013875365 6517419
1.184646 0.16763183 0.0018526316 3755664
1.1741211 0.15431157 0.0016815662 12106168
1.1757122 0.1565294 0.0014989972 12040632
1.1773125 0.15870172 0.0013613105 11909560
1.1788743 0.16131517 0.00051832199 11515575
1.1803808 0.16430518 0.00060039759 10529719
1.1817923 0.1670664 0.0011156797 8951226
1.1830764 0.16873029 0.0018265247 5399974
1.1729087 0.15794399 0.00076407194 12040376
1.1748347 0.16054705 0.00051611662 12040889
1.1759883 0.16328412 0.000441432 11975353
1.1774679 0.16551983 0.00058019161 11581368
1.1790773 0.16791853 0.00061559677 10529720
1.1714985 0.15926048 0.00061923265 12171961
1.1720102 0.16104445 0.00038307905 12171962
1.179644 0.14576602 0.0085997581 11447982
1.1801412 0.14710492 0.0086120963 11579568
1.1782584 0.14822316 0.0085126758 11513775
1.1792338 0.15047857 0.0081350207 11645361
1.1756272 0.14982736 0.0078873634 11579568
1.1772563 0.15166399 0.007539928 11776947
1.1783291 0.15398055 0.0082034469 11645618
1.1751899 0.15357 0.0051870346 11974326
1.1764591 0.1561451 0.0048140883 11645361
1.1729524 0.1545535 0.0050265789 11908533
1.1742034 0.15758172 0.0047491193 11908533
1.1808542 0.16922083 0.0016594529 8687804
1.1823704 0.16998738 0.0024570823 4610717
1.1723796 0.15866625 0.0023831129 12303547
1.1740053 0.16086787 0.002363503 12238012
1.1740221 0.16373381 0.0024598241 12304061
1.1765008 0.16699392 0.00051546097 11779002
1.1790562 0.16953981 0.0011329055 10069435
1.1799901 0.17143276 0.0017068386 8227512
1.1801444 0.17356277 0.0024118423 5597098
1.1717046 0.16272196 0.0013931394 12303547
1.1731594 0.16516033 0.00080919266 12172218
1.1744727 0.16792795 0.00056904554 11975867
1.1763135 0.17013779 0.00081127882 11318713
1.1774554 0.1728662 0.0012224913 10069438
1.178875 0.17443275 0.0021048784 7701441
1.168931 0.16413131 0.0003991127 12237755
1.1702005 0.16695341 0.00049030781 12303547
1.1722881 0.16899848 0.00054901838 12172732
1.1738926 0.17170131 0.00082528591 11844796
1.1758659 0.1737375 0.0010458827 10924731
1.1759796 0.15312704 0.0082679391 11579568
1.1767049 0.15513712 0.0081073642 11776947
1.1741147 0.15429997 0.0081548691 11579568
1.1758322 0.15697116 0.0079684258 11776947
1.1756516 0.15953085 0.008187592 11974326
1.1734006 0.1581229 0.007224679 11908533
1.1745985 0.16075906 0.0075755715 12040119
1.1712048 0.15942219 0.0052662492 12040119
1.1728005 0.16211081 0.0051608682 12040119
1.1796055 0.17500141 0.0033670664 3821201
1.1703448 0.16316658 0.0041437745 12106168
1.1713663 0.16589978 0.0035477877 12237754
1.1725435 0.16856635 0.0022951961 12370110
1.1774276 0.17470467 0.0017424822 9477568
1.1781471 0.1763362 0.0023790002 6846643
1.1790284 0.17893293 0.0025135875 3098758
1.1682031 0.16491744 0.0029816031 12303547
1.1693023 0.16745815 0.0025595427 12501183
1.1707746 0.16992977 0.0018049479 12435647
1.1719446 0.17232525 0.0010721684 12238782
1.1745865 0.17474577 0.00099259615 11122109
1.1756103 0.1775085 0.0013397932 10069183
1.1771727 0.1803765 0.0021663904 5663145
1.1674442 0.16863143 0.00077217817 12369340
1.1689192 0.17126504 0.0011978149 12369598
1.1703008 0.17404735 0.0010257363 12304318
1.1717259 0.17654023 0.00096035004 11976383
1.1733011 0.1792019 0.0011617541 10727358
1.1749673 0.18111154 0.0016033053 9214146
1.166575 0.17226875 0.0009572506 12435134
1.1684476 0.17462298 0.001232028 12369854
1.1704824 0.17805317 0.00089406967 12239297
1.1724548 0.15941188 0.0083374977 11711154
1.1735091 0.16158438 0.008359611 11908533
1.1700244 0.16080984 0.0083311796 11711154
1.1714723 0.16338655 0.0083355904 11908533
1.1725302 0.1653702 0.0081740022 12105912
1.1693704 0.16444218 0.0061287284 12237498
1.1706526 0.16658983 0.0068745613 12237498
1.1720277 0.16803506 0.0077927113 12105912
1.1682371 0.16853154 0.0050033927 12171705
1.1759992 0.18233249 0.0031260252 4479384
1.1659026 0.16961575 0.0038214326 12303291
1.1675887 0.172236 0.0032955408 12500926
1.168596 0.17432347 0.0026358962 12698562
1.1743007 0.18277201 0.0018336177 8688319
1.165252 0.17356211 0.0019711852 12632512
1.1666611 0.17600414 0.0017315149 12566976
1.1683146 0.17848283 0.001080811 12435904
1.1706038 0.18065953 0.0010457635 11779520
1.1716477 0.18346041 0.00095427036 10924737
1.1629951 0.17463526 0.0011229515 12500927
1.164332 0.17762148 0.0010758638 12566719
1.1656933 0.18015242 0.0010655522 12566976
1.1675535 0.18258402 0.00086885691 12501697
1.1687583 0.18523684 0.00045889616 12173761
1.1695949 0.18770716 0.00050514936 11450816
1.1670085 0.18611348 0.00047761202 12436418
1.1680839 0.16532737 0.0082665086 11842740
1.1698486 0.16837534 0.008003056 12040119
1.1704626 0.1706447 0.0081090331 12303291
1.1671109 0.16879904 0.0081757307 11974326
1.1683253 0.1713199 0.0079759955 12105912
1.1652894 0.17058071 0.0057401061 12303291
1.1665248 0.17252216 0.0061543584 12237498
1.1665299 0.17473146 0.0051372051 12566463
1.1643647 0.17450064 0.0049122572 12303291
1.1654034 0.17706811 0.0048493743 12434877
1.1661392 0.17916793 0.0038440228 12698306
1.1635528 0.17785159 0.0028979778 12763842
1.164969 0.18038633 0.0029509068 12764355
1.1613464 0.17925644 0.0017719865 12698306
1.1627507 0.18179452 0.0016873479 12764099
1.1644937 0.18426439 0.0015665889 12698819
1.166214 0.18732402 0.00040590763 12501954
1.1674479 0.18948367 0.00056701899 11910850
1.1674986 0.19181988 0.00096690655 11187906
1.1604304 0.18346083 0.00096821785 12698306
1.1618104 0.1863848 0.00053912401 12698562
1.1635802 0.18876356 0.00016969442 12698819
1.1650376 0.19115829 0.00044578314 12502212
1.1613336 0.18941927 6.9975853e-05 12830148
1.1678897 0.17374828 0.0084058642 12303291
1.1652646 0.1736834 0.0080797076 12040119
1.1663251 0.17590541 0.0082095861 12237498
1.1629562 0.17517567 0.0081182122 12040119
1.1643053 0.17764598 0.008274734 12171705
1.165287 0.18022534 0.007995069 12303291
1.1623397 0.17899367 0.0051137805 12434877
1.163609 0.18080273 0.0049937367 12566463
1.1599255 0.18050349 0.0047454238 12434877
1.1615007 0.18304205 0.0042060018 12566463
1.1632216 0.1850197 0.0034886599 12895685
1.1632831 0.18723485 0.0029522181 12961992
1.1593286 0.18419793 0.0032382607 12829892
1.160718 0.18690225 0.0030046701 12961734
1.1621267 0.18933171 0.002756238 13093320
1.1643028 0.19373485 0.0005274415 12436933
1.1586263 0.18788752 0.00097417831 12895685
1.1601883 0.19074342 0.0012251735 12961734
1.1619036 0.19321176 0.00043332577 12764869
1.1624839 0.19530675 0.00049954653 12765383
1.1556638 0.18956584 0.00027251244 12895428
1.1573821 0.19207644 0.00016486645 12895941
1.1590623 0.19420427 0.00059467554 12830405
1.1608551 0.19625926 0.00086253881 12765383
1.1551185 0.19202539 0.00010788441 12961477
1.1635393 0.17908329 0.008369565 12237498
1.1612741 0.17988577 0.0082454085 12171705
1.1630603 0.18215355 0.0081523061 12303291
1.1641822 0.18388221 0.0079669356 12369084
1.1608543 0.18387026 0.0069324374 12500670
1.1620266 0.18625069 0.0070557594 12632256
1.1584151 0.18533465 0.0051086545 12566463
1.1598917 0.18794557 0.00513345 12698049
1.1574502 0.1888122 0.0045666695 12763842
1.158355 0.19118437 0.0039219856 12895685
1.1603649 0.19431236 0.0025184155 13159370
1.1553141 0.19022691 0.0025969744 13224393
1.1562434 0.19297859 0.0024120808 13290443
1.1582992 0.1954366 0.0020466447 13224906
1.1593239 0.19782555 0.0017136931 13028298
1.1609282 0.19930407 0.00060528517 12634568
1.1543678 0.19395661 0.00071126223 13027271
1.1560782 0.19649974 0.0010941625 13093320
1.1574795 0.19925207 0.00094753504 13027784
1.1590861 0.20142812 0.00076007843 12831433
1.1521868 0.19528475 0.00054216385 13027014
1.1536202 0.19789797 0.00081193447 13093063
1.155448 0.19989505 0.00086033344 13158856
1.1569058 0.20200402 0.00097995996 13093834
1.1584185 0.20422453 0.00057798624 13028812
1.1590712 0.184627 0.0086697936 12303291
1.1605413 0.18721887 0.008169353 12434877
1.1611506 0.18955949 0.008439362 12566463
1.1588147 0.1884509 0.008885026 12434877
1.1598344 0.1910364 0.008995235 12632256
1.1558424 0.18956968 0.0056120753 12829635
1.1575483 0.19190708 0.0055380464 12829635
1.1554002 0.19338477 0.0051596165 12763842
1.1563408 0.19544461 0.0054739118 12895428
1.1533089 0.19525269 0.0036339164 13092807
1.1546454 0.19774991 0.0033803582 13290443
1.1561208 0.19999912 0.0032457709 13422029
1.1524105 0.19891652 0.0019253492 13421772
1.1539733 0.2013253 0.0020743608 13422028
1.1555386 0.20356813 0.0011655688 13159370
1.1564707 0.2054233 0.00084024668 13094091
1.1499791 0.2001088 0.0010783076 13224393
1.1517596 0.20263439 0.0011720061 13224650
1.1529909 0.20542991 0.0012601614 13290699
1.1550357 0.20782515 0.00096106529 13159884
1.1551886 0.20996085 0.001003921 13094605
1.156666 0.1885744 0.0091093183 12434877
1.1588151 0.19176677 0.008895576 12698049
1.1553872 0.19056985 0.0089123249 12434877
1.1567886 0.19315851 0.0089687109 12566463
1.1570544 0.19544107 0.0093564987 12763842
1.1547908 0.19412291 0.0093787909 12566463
1.1556369 0.19744119 0.0058532953 13027014
1.152549 0.19601867 0.0058329701 12895428
1.1533239 0.19829062 0.0055732131 12961221
1.1542468 0.20021698 0.0058233142 13027014
1.1511662 0.19981289 0.0049951673 13027014
1.1527863 0.20199975 0.0047958493 13092807
1.1543123 0.20427883 0.0028900504 13685457
1.1497368 0.20071194 0.0032098293 13553358
1.15061 0.20370993 0.003279388 13487821
1.1523889 0.20616627 0.0028307438 13751250
1.1531516 0.20858887 0.0017812848 13488079
1.1484447 0.20465845 0.0017879009 13422029
1.1501176 0.20732617 0.0018733144 13553615
1.1517022 0.21010008 0.0015524626 13488078
1.1530387 0.21237165 0.0010668039 13357006
1.1543562 0.21493712 0.00092506409 12963534
1.1479446 0.20840958 0.0013971925 13421772
1.1494135 0.21148029 0.0015460849 13488078
1.1510503 0.21419737 0.0014070272 13488335
1.152575 0.21678606 0.0010817647 13291984
1.153741 0.21810177 0.00097090006 12832462
1.2121537 0.26625684 0.013266921 10991565
1.2084143 0.27079168 0.010612547 10197147
1.1532929 0.19513607 0.0096366405 12566463
1.1547518 0.19745153 0.0095948577 12763842
1.1556551 0.1995348 0.0097245574 12895428
1.2046018 0.28142279 0.005309701 4147549
1.1524811 0.19948918 0.0096344352 12763842
1.1539834 0.2012952 0.0097747445 12895428
1.20227 0.28229854 0.0047565103 5266050
1.1505585 0.20090592 0.0063282251 13092807
1.1516216 0.20380467 0.0063402653 13158600
1.1493003 0.20442072 0.005581677 13092807
1.1505098 0.20688534 0.0055165887 13158600
1.1952882 0.28230605 0.0018599033 14214909
1.1470863 0.20565078 0.0046829581 13355979
1.1486578 0.20830032 0.0045929551 13355979
1.1499293 0.2107946 0.0034610033 13750994
1.1526916 0.21300521 0.0030502081 13554644
1.1465992 0.20965844 0.0024605989 13750994
1.1477985 0.21208984 0.0026892424 13816787
1.1492921 0.21424738 0.0026133657 13882836
1.1507162 0.2168366 0.0013318062 13554385
1.151858 0.21981865 0.00075644255 13489106
1.1443342 0.21080571 0.0020511746 13619151
1.1452932 0.21345654 0.0017222762 13553615
1.1472658 0.21607289 0.0015788674 13619664
1.1486483 0.21882737 0.0015366077 13619921
1.1500504 0.22104037 0.0015240312 13685971
1.151013 0.22259185 0.0013272166 13620949
1.1453624 0.21690467 0.0016370416 13750993
1.2091662 0.2685675 0.014054596 5858944
1.2091802 0.26972076 0.013561904 3160143
1.2068176 0.27018088 0.014241159 9085150
1.2071505 0.27103797 0.012595952 9345455
1.2079725 0.27317002 0.011291444 1450054
1.2049739 0.27324423 0.011678159 7962258
1.2010586 0.27332658 0.010282159 14674935
1.2029234 0.27556604 0.0098540783 10130842
1.2042325 0.27697816 0.010528207 1713232
1.1828599 0.24813911 0.0095843673 921654
1.1852742 0.25033203 0.0090651512 856113
1.1855561 0.25249466 0.0094032884 856112
1.1866001 0.25466537 0.0097802281 791090
1.1990969 0.27425393 0.0097756982 16055550
1.2024014 0.27796692 0.0094351172 5396598
1.2024646 0.2814278 0.0081920028 1054807
1.2043414 0.28195995 0.007745564 593217
1.1529769 0.20262122 0.0096423626 12895428
1.18038 0.24985537 0.0091727972 922163
1.1826916 0.25048825 0.0094453692 921908
1.18364 0.25271684 0.0098199248 922166
1.2015641 0.28179306 0.0080891848 1053775
1.2030607 0.28324151 0.0053781867 1910369
1.1497979 0.20119044 0.0096507072 12763842
1.1510056 0.20399591 0.009272635 12895428
1.1517149 0.2060917 0.0093045831 13092807
1.173595 0.2434954 0.0082515478 988727
1.1993173 0.28412849 0.0040512085 6911407
1.2003913 0.28519091 0.0050693154 3293050
1.1481013 0.20483685 0.0094117522 12829635
1.1494832 0.20773521 0.0092199445 12961221
1.1509237 0.20921558 0.0089374185 13224393
1.14678 0.20719284 0.005977869 13224393
1.1476452 0.20982435 0.0063681602 13290186
1.1487644 0.21021751 0.0066815615 13421772
1.1454631 0.21025422 0.005756259 13290186
1.1468496 0.21281695 0.0054433346 13290186
1.1837158 0.27598858 0.0020023584 14479612
1.1856947 0.277224 0.0016210675 14216443
1.1443448 0.21435848 0.0039194226 14013909
1.146263 0.21662259 0.0038403869 13882580
1.1477648 0.21833777 0.0029959679 14277594
1.148616 0.22184929 0.0017890334 13817556
1.149948 0.22361138 0.0016822815 13686484
1.1825113 0.27589834 0.0019716024 14479099
1.1426623 0.21551675 0.0023336411 13816530
1.144006 0.21810064 0.0024772882 13948373
1.1456262 0.22039706 0.0024790764 14014166
1.1470734 0.22312021 0.0022291541 13948886
1.1483495 0.22582352 0.0020655394 13620949
1.1484777 0.22795761 0.0026192665 13621464
1.1703266 0.26503789 0.00024056435 80
1.1757796 0.26871032 0.00014734268 1060982
1.1760914 0.271301 0.00092840195 10534139
1.1412839 0.21891141 0.0020949244 13750994
1.1433241 0.22153506 0.002204299 13882580
1.1450672 0.22455299 0.0021375418 13882836
1.1466056 0.22713998 0.0022527575 13817814
1.2047672 0.26998129 0.015795887 2896725
1.2050637 0.27193743 0.01522392 4608623
1.2035575 0.27190936 0.013946831 10596541
1.2035035 0.27366427 0.014007628 5003646
1.2015117 0.27315709 0.012057245 14608636
1.201641 0.27473328 0.012303233 10201796
1.2024244 0.27661067 0.011159122 3818597
1.1977423 0.27460757 0.0097663999 16449534
1.1991987 0.27656305 0.011066496 10596297
1.2003359 0.27789295 0.010731161 6449270
1.1799244 0.25097674 0.0095849633 988719
1.1817375 0.25181818 0.0097490549 857140
1.1942677 0.27380404 0.010015786 16646142
1.1956983 0.27553424 0.0093949437 16580606
1.1967517 0.27785969 0.010336816 12437724
1.1982956 0.28037271 0.010482252 4409702
1.1999013 0.28263953 0.0086224675 2436955
1.2011356 0.28428191 0.0081348419 792146
1.1745049 0.2461527 0.009039402 988976
1.1759527 0.24834469 0.0094680786 922420
1.1782125 0.24946472 0.01001668 987950
1.193177 0.27691993 0.0092407465 16515070
1.195325 0.27961138 0.009129107 11777208
1.1953971 0.28106219 0.0089817047 8357539
1.1477153 0.20807442 0.0091809034 12961221
1.1495658 0.21069005 0.0090234876 13158600
1.1686367 0.24283987 0.0076528788 988464
1.1708046 0.24444488 0.0083802342 988466
1.1720052 0.24684262 0.0091802478 988723
1.1731917 0.24880081 0.0096204877 1054009
1.1462681 0.20979467 0.0098139644 12961221
1.1477565 0.21244508 0.0095452666 13158600
1.1665102 0.24305218 0.0078886151 988464
1.1682477 0.24539119 0.0086578727 1054260
1.1442318 0.21158373 0.006998837 13355979
1.1456306 0.21376976 0.0068235993 13421772
1.1466792 0.21540618 0.0066362619 13553358
1.1640141 0.24321511 0.0081148744 1185079
1.1432599 0.21533343 0.0061956048 13421772
1.1442698 0.21735558 0.0064353943 13487565
1.1429129 0.21914786 0.0053328872 13684944
1.1437852 0.22181195 0.0043504834 14145495
1.1456691 0.22524592 0.0031923652 14540766
1.1486943 0.22935519 0.0027201176 13030359
1.1763221 0.27281183 0.0011125207 14282238
1.1405783 0.22074285 0.0031940341 14145495
1.1421661 0.22302303 0.0034586787 14211288
1.1430887 0.22552052 0.0033409595 14343130
1.1447294 0.22824997 0.0030642748 14277851
1.146446 0.23029345 0.002427876 13818072
1.1467738 0.23323253 0.0029919147 13687001
1.1633376 0.26016164 0.0005158782 264775
1.1396024 0.22400627 0.0031192303 14079702
1.1415647 0.22729504 0.0029463768 14079959
1.1432027 0.22936451 0.0029287338 14146008
1.144731 0.23274735 0.0028621554 14212058
1.145659 0.23402071 0.0028897524 14146779
1.1473409 0.23594755 0.0032193065 12766935
1.1613023 0.26055098 0.0013756752 598132
1.1626875 0.2631751 0.0012063384 8757734
1.1998342 0.27419901 0.015730202 1976147
1.2004428 0.27562913 0.014691591 5070479
1.1981022 0.27752927 0.013758838 4938379
1.1999375 0.27853414 0.012848854 3554384
1.196213 0.27942258 0.012290478 8820674
1.1972843 0.28122312 0.011922359 4146269
1.1998651 0.28299499 0.010947287 1514573
1.1897447 0.27480909 0.010263264 16646142
1.1925569 0.27787706 0.0098049641 16515070
1.1937468 0.28041953 0.010765791 12175062
1.1949981 0.28219101 0.01075542 5528440
1.1876352 0.27767694 0.0093601346 16711679
1.1900828 0.27800122 0.0092792511 16580606
1.14553 0.21229407 0.010533333 13092807
1.1474302 0.21465102 0.010479271 13224393
1.1652687 0.24435771 0.0086250305 1119540
1.1666272 0.24600276 0.0087931752 1119030
1.1817048 0.27435416 0.0091391802 16777215
1.1852324 0.27590293 0.010147452 16777215
1.1860642 0.27794409 0.0096260905 16777215
1.1444819 0.21476105 0.010775208 13158600
1.1453253 0.21709213 0.010325253 13290186
1.1640642 0.24426755 0.0085942149 1185335
1.143383 0.21748042 0.010802209 13290186
1.1416748 0.22036126 0.0073199868 13619151
1.1428449 0.22217298 0.0073834658 13684944
1.1395326 0.22087502 0.0068823695 13619151
1.1407537 0.22343755 0.0064995885 13619151
1.1415983 0.2262342 0.0064680576 13487565
1.1381844 0.2252315 0.0046426654 14211288
1.1401268 0.22730672 0.004029274 14474460
1.1415592 0.23003539 0.0038279891 14540510
1.1428764 0.23249829 0.0037428141 14606559
1.1443908 0.23545471 0.0034118295 14343901
1.1460326 0.23819906 0.0034190416 13358553
1.1471868 0.24095073 0.0030353665 12109527
1.1534632 0.24965572 0.0033912659 2172469
1.1553568 0.25261673 0.0029159188 592946
1.1567347 0.25606182 0.0020296574 855619
1.1587839 0.25895175 0.0016242266 1383770
1.1601913 0.26153114 0.0019124746 7704786
1.1617966 0.26476064 0.0020217299 13623537
1.1632032 0.26580715 0.0019761324 13360622
1.1363223 0.22655371 0.0039147735 14211288
1.1379442 0.22922301 0.0040769577 14408667
1.1398388 0.23150533 0.0039763451 14408924
1.1410725 0.23394343 0.0039921999 14540510
1.1425356 0.23660329 0.0037747025 14540766
1.1437562 0.2391029 0.0034089088 14475230
1.1454675 0.24134758 0.0033101439 13292246
1.146883 0.24454236 0.0031988025 11583187
1.1480302 0.24745598 0.0028361678 11319512
1.1502879 0.24976584 0.0026849508 10331084
1.1518635 0.2519936 0.0027224422 8883879
1.1535096 0.25429335 0.0023897886 7633049
1.1547462 0.25701752 0.0022197962 9937609
1.1569799 0.2594904 0.0021008253 7505093
1.1581122 0.26211941 0.0023884773 11190767
1.1597056 0.26454574 0.0023328662 14215667
1.1945672 0.27919835 0.015377641 2831710
1.1955189 0.28162155 0.014705598 2830414
1.1935023 0.28135046 0.01351887 5793167
1.1825039 0.27481592 0.010294735 16777215
1.1632173 0.24898723 0.010356963 1119542
1.1637433 0.25088456 0.010204077 659511
1.1773101 0.27331984 0.0099007487 16382457
1.1426612 0.21902248 0.011137187 13290186
1.1431053 0.22149947 0.010538816 13421772
1.1566452 0.2441583 0.009775579 1579067
1.1568115 0.24548265 0.010104716 1513535
1.1751577 0.27234176 0.0098810196 16185078
1.1401559 0.22094318 0.011442482 13355979
1.1418488 0.22263122 0.011314809 13421772
1.1530457 0.24269012 0.0093904734 1448522
1.1543564 0.24406245 0.0097382665 1448261
1.1561644 0.2458986 0.010489881 1119807
1.1385032 0.22238114 0.0079046488 13619151
1.1392457 0.2245273 0.0082366467 13750737
1.141017 0.22724938 0.0080776811 13750737
1.1413211 0.2305716 0.0089343786 13948116
1.1572815 0.25187254 0.0061224103 528436
1.1375177 0.22589597 0.0076892972 13816530
1.138954 0.2283437 0.0075196028 13816530
1.1403649 0.23132288 0.0068736076 14079702
1.1419263 0.23343208 0.0080561638 14079702
1.1368144 0.22962493 0.0056877732 14342874
1.138098 0.23244733 0.0051429868 14408923
1.1400727 0.23492947 0.0050125122 14803425
1.1412013 0.23711082 0.0053782463 14869475
1.1426206 0.23969194 0.0048333406 14475746
1.144052 0.24293569 0.00390172 13949659
1.1455219 0.24538845 0.003520906 12635862
1.1493678 0.25144997 0.0028905272 11253728
1.1508553 0.25346798 0.0027685761 12042470
1.1523424 0.25515446 0.0029783845 12174824
1.153505 0.25830001 0.0027371645 13030631
1.1553168 0.26066127 0.0028328896 10335715
1.1345557 0.23125613 0.0040903687 13949405
1.1361401 0.23351717 0.0042280555 14212575
1.1372688 0.23630482 0.0042561889 14146785
1.1393129 0.2387968 0.0042306185 14541282
1.1412534 0.24159905 0.0041550994 14672866
1.1418313 0.24395552 0.0037840009 14279395
1.1438227 0.24639505 0.0040774345 14213088
1.1454701 0.24924099 0.0031574368 13358813
1.1469525 0.2516863 0.0030171871 12767197
1.1484621 0.25465852 0.0030705333 13030626
1.1501207 0.25666419 0.0029121637 13294055
1.1514626 0.25937343 0.0028765202 14411239
1.1335402 0.23521888 0.003264308 8029074
1.1350205 0.2373026 0.0031605363 8227487
1.1367135 0.23995259 0.0028887987 8689069
1.1382862 0.24237877 0.002456367 8886443
1.1399059 0.24549496 0.0023209453 8426411
1.141753 0.24814889 0.0022479892 9807031
1.1425115 0.25071949 0.0021310449 8293279
1.1444101 0.25249171 0.0026017427 10531022
1.1456027 0.2554819 0.0026794672 9478589
1.1325212 0.23884654 0.0016228557 7760989
1.135087 0.24134421 0.001301825 6709851
1.1356454 0.24385601 0.00097674131 7498593
1.1372947 0.2465072 0.0010054708 7366748
1.1389105 0.24922022 0.0010758042 7038305
1.1403074 0.25211233 0.0010678172 7498849
1.1421986 0.25472113 0.0016091466 7301981
1.1305104 0.24053296 0.00099986792 8682863
1.1321223 0.24296856 0.0007981658 8682866
1.1337855 0.24540374 0.00061839819 8814449
1.1346822 0.24820551 0.00058096647 8814450
1.1366353 0.25010851 0.00065594912 8485489
1.1381395 0.25258803 0.00058317184 8880758
1.1408101 0.22408092 0.01145941 13487565
1.1411874 0.22654036 0.011687338 13619151
1.1544291 0.24518529 0.01031816 1250883
1.1556839 0.24665958 0.010496497 595522
1.1380762 0.22509205 0.01169616 13421772
1.1392798 0.22760159 0.011818111 13553358
1.1411946 0.2304036 0.011515558 13750737
1.1416814 0.23343182 0.011462092 13948116
1.1378505 0.22955096 0.0095090866 13816530
1.1398239 0.23153278 0.0098035932 13816530
1.1404823 0.23454592 0.0085881948 13948116
1.1420108 0.23705396 0.0087525249 14013909
1.1355307 0.2305322 0.0082275271 13948373
1.137244 0.23251393 0.007828176 14013909
1.1384912 0.23578647 0.0079602003 14014166
1.1397846 0.23833656 0.0075790882 14013909
1.1410213 0.24075609 0.0083625913 14014166
1.1423995 0.24425223 0.0086678863 13883351
1.134737 0.23438567 0.0070443749 12763852
1.1362429 0.23700067 0.0070518851 13026512
1.1378345 0.2399331 0.0066269636 13290709
1.1394804 0.24235117 0.0069690347 13159635
1.1405516 0.24456462 0.0065371394 13291221
1.1418525 0.24712011 0.0059951544 13488343
1.1434329 0.25004598 0.0053412318 13554915
1.1456161 0.25236446 0.0045705438 14344938
1.1462331 0.25498679 0.0047354102 14345967
1.1317356 0.23617318 0.0057091117 7630939
1.1336622 0.23837477 0.005662024 7828581
1.1357262 0.24098077 0.0053343177 7764077
1.1371286 0.24348029 0.0050860047 8619130
1.1387531 0.24608922 0.0046080947 8620167
1.140327 0.24879402 0.00509727 9737097
1.1416869 0.25102314 0.0043331385 9014154
1.1433933 0.25347129 0.0048130155 10066846
1.1452001 0.25651112 0.0045474768 10068649
1.1318953 0.24003059 0.0041667223 8878692
1.1332788 0.24247086 0.0037504435 8746848
1.1346903 0.2450158 0.0038297772 8615262
1.1362149 0.2471804 0.0035968423 8483931
1.1377434 0.24957135 0.0030718446 8352597
1.1396385 0.25214714 0.0034896135 8089679
1.1294558 0.2407946 0.0023258924 9471086
1.1310283 0.24383497 0.0020576119 9536623
1.1324342 0.24615332 0.0020810366 9405553
1.1340744 0.24866638 0.0023875833 9339244
1.1358206 0.25183341 0.0013765693 9405809
1.1285522 0.2445052 0.001354754 9603192
1.130582 0.24700373 0.0013431311 9537143
1.1318725 0.24984422 0.00094079971 9208954
1.1261615 0.24647149 0.00048917532 9406845
1.1421552 0.23458067 0.011977732 13882323
1.1427685 0.23651546 0.012359619 13685200
1.1367837 0.23046529 0.012020051 13750225
1.1384754 0.23247179 0.011818826 13750737
1.1398234 0.23540071 0.011800885 13947860
1.141216 0.23816404 0.011911213 14013910
1.1432323 0.24021533 0.01200366 13685200
1.143491 0.24304491 0.011667192 14079703
1.144794 0.24512362 0.01133436 14145496
1.1546454 0.26018688 0.011642754 15329769
1.1341436 0.23172691 0.010994136 11840415
1.1364436 0.23398879 0.011321485 13222857
1.1366976 0.23667032 0.011067808 11050656
1.1386216 0.23899534 0.011373639 12828087
1.140124 0.24167994 0.01112169 12367793
1.1415427 0.24454314 0.011211395 12169896
1.1437075 0.24739864 0.010583043 13289157
1.1451511 0.24977842 0.010516226 13552081
1.1464288 0.25209224 0.010267675 14671071
1.1472927 0.25537178 0.010215461 14538955
1.1521155 0.26068503 0.010917783 15263464
1.133649 0.23511058 0.010832906 8417599
1.1347566 0.23770833 0.010667086 8220218
1.136621 0.24114776 0.010225415 7891774
1.1384664 0.24378049 0.0094847083 8748378
1.1398708 0.24541041 0.0092056394 9407362
1.1413727 0.24796087 0.0078450441 10331816
1.1435527 0.25032771 0.0088408589 11843255
1.1444759 0.25309414 0.0089372993 10592415
1.1456786 0.25546601 0.0091026425 9933469
1.1475304 0.25826123 0.0080395341 12832212
1.1344781 0.24195272 0.0076143742 8287060
1.1365163 0.24442786 0.0070152879 7631449
1.1375759 0.24664238 0.0071396232 8354399
1.1390901 0.24977458 0.0071467161 8419679
1.1409975 0.25210556 0.0072171688 7631703
1.1419235 0.25462294 0.0071317554 7828309
1.1309676 0.24065441 0.005741179 9405808
1.1324959 0.24299529 0.0062134266 9142637
1.1335043 0.24523905 0.0063065886 9340272
1.135219 0.24819285 0.0065123439 9734768
1.1365204 0.25094548 0.0055117011 9865840
1.1297677 0.24435019 0.0049054027 9799540
1.131151 0.24667495 0.0051009059 9865847
1.1333323 0.24961275 0.0052018166 10129013
1.1272848 0.24610656 0.0032343864 9930353
1.129209 0.24840328 0.0034926534 10128246
1.1494653 0.25808951 0.011124969 14538975
1.1505065 0.25933757 0.011227787 14472929
1.1319997 0.23563045 0.010607779 9075018
1.1344241 0.23954105 0.010509312 8548928
1.1374761 0.2445204 0.010168254 8811839
1.1394422 0.24657884 0.010689914 8746305
1.1405108 0.24815422 0.010662556 9075276
1.1419336 0.25097123 0.010183752 8614724
1.1438545 0.25404042 0.0098366141 8811848
1.1449931 0.25666538 0.0097884536 8877638
1.1309437 0.23738375 0.009601295 9535568
1.1319861 0.23935074 0.0099855661 9600846
1.1334584 0.24217898 0.0095431209 9403471
1.1349111 0.24506858 0.0094407201 9732945
1.1365829 0.24743694 0.010095537 9732435
1.1381035 0.25044072 0.0099459887 9732179
1.1402503 0.25302538 0.0096357465 9534798
1.1294639 0.24138626 0.0095866919 9666389
1.1314384 0.24375719 0.0091445446 9798227
1.1323558 0.24713361 0.0090956688 10193237
1.1339328 0.24966648 0.0094823241 9929814
1.1353962 0.25188735 0.0093762875 9863507
1.129054 0.24495265 0.0092223287 10127446
1.1299375 0.24757341 0.0081424117 10325088
1.1314327 0.2493273 0.0075981617 10194279
1.1265014 0.24572164 0.0059295297 9537399
1.1279587 0.24573308 0.0091876388 10258778
1.1286064 0.2486023 0.0088908672 10324317
1.1269155 0.24693042 0.0088161826 10390372
