# .PCD v0.7 - Point Cloud Data file format
VERSION 0.7
FIELDS x y z rgba
SIZE 4 4 4 4
TYPE F F F U
COUNT 1 1 1 1
WIDTH 1180
HEIGHT 1
VIEWPOINT 0 0 0 1 0 0 0
POINTS 1180
DATA ascii
1.3704739 0.50313962 0.031039774 5535671
1.3724332 0.50563872 0.031022191 5667004
1.3756003 0.51219642 0.029832184 5864381
1.3768234 0.51473033 0.029773533 5996222
1.378433 0.51689291 0.031355977 6061762
1.3804531 0.5197075 0.032339633 5535164
1.3571422 0.48739573 0.03003329 5139884
1.3591938 0.48833412 0.030324757 5205933
1.3611393 0.49236241 0.030268133 5403055
1.362932 0.49451652 0.030629158 5403568
1.3642837 0.49719742 0.03106904 5403568
1.3656731 0.5009501 0.030882418 5469106
1.3666985 0.50338364 0.031054676 5535155
1.3687606 0.50588155 0.031081259 5535670
1.370333 0.50726318 0.030971169 5601209
1.3720964 0.50886041 0.030534387 5601467
1.3731067 0.51281834 0.029592812 5732798
1.3753281 0.5156045 0.029199302 5930176
1.376048 0.51772678 0.030868948 6061248
1.3797539 0.52432418 0.027970731 10660554
1.3820747 0.52806419 0.027882338 7112402
1.3369259 0.45841867 0.030700862 2836104
1.3382134 0.46113908 0.030497015 1715837
1.340076 0.46335852 0.030697107 791921
1.3422338 0.46596435 0.030560315 2108760
1.3429954 0.46809822 0.030885339 3558496
1.3448322 0.47044086 0.030922115 4810368
1.3461708 0.47324044 0.030601621 4941706
1.347394 0.47594038 0.03037703 4876180
1.3511536 0.48054752 0.03002125 4941990
1.3527216 0.48364362 0.030138135 4942249
1.3539581 0.486285 0.030051053 4942249
1.3554394 0.48923931 0.029855311 5074091
1.3571043 0.49135625 0.030249059 5271213
1.3590065 0.49356201 0.03062135 5337520
1.3601034 0.4962385 0.030690193 5271981
1.3612132 0.49901643 0.030618966 5206445
1.3631141 0.50121367 0.030842364 5271983
1.3641334 0.5037623 0.030918777 5469105
1.3669825 0.5061388 0.031035662 5535413
1.3687457 0.50937271 0.030531347 5667001
1.3697902 0.51212364 0.030327737 5732801
1.3726742 0.51691604 0.029068828 6915517
1.3749425 0.51896238 0.028534114 8426176
1.3778445 0.52419001 0.02788049 10594511
1.3788612 0.52792072 0.028108418 9608911
1.3810121 0.52960098 0.027111769 9082576
1.326946 0.44709015 0.029829979 4415133
1.3282981 0.44999731 0.029481053 4349852
1.3331697 0.45734537 0.029444277 4218263
1.334783 0.45937896 0.029880404 3889554
1.3355767 0.46144035 0.030298769 3231373
1.3367362 0.46395952 0.030330896 2176645
1.339313 0.46662301 0.030844629 1187699
1.3410094 0.46965054 0.030792594 1846385
1.3419759 0.47194189 0.030928314 3031675
1.3433206 0.47479212 0.030537784 4282245
1.3448598 0.47607431 0.030388653 5071499
1.347558 0.47971168 0.029474497 4941717
1.3483008 0.48185959 0.029843748 4941985
1.3494558 0.48516268 0.029870212 5007526
1.3517147 0.48709893 0.029687226 5008300
1.3519592 0.48970407 0.029699147 5008298
1.3538926 0.4919948 0.029850006 5205420
1.3566022 0.49424109 0.030288637 5337006
1.3684549 0.51576841 0.025770605 9871291
1.3701808 0.51773763 0.027124465 9345716
1.3717754 0.52025795 0.026831806 10002877
1.3737371 0.52425843 0.025488853 8885445
1.3751588 0.52541924 0.02623409 8556745
1.3765516 0.52772021 0.02675575 8360400
1.3780453 0.53054917 0.027529776 7243727
1.3797121 0.53383839 0.025985599 6517406
1.3100717 0.42442149 0.029857337 4216719
1.3112682 0.42707241 0.029523671 4282767
1.3149524 0.43151474 0.029565752 4348819
1.3161488 0.43416548 0.029232085 4283539
1.3173971 0.43690181 0.028893292 4348820
1.3206577 0.44091624 0.029230714 4283542
1.3224871 0.44287041 0.029557645 4349334
1.3231065 0.44468975 0.030035377 4414873
1.3243227 0.44733298 0.029769123 4415130
1.3255663 0.45019656 0.029557824 4414875
1.3285167 0.45272568 0.029329658 4414874
1.3297024 0.45545337 0.029193461 4349083
1.3306552 0.45763731 0.029357553 4218010
1.3317435 0.46007922 0.029327273 4218008
1.3326491 0.46314293 0.029682219 3955095
1.3347359 0.4653984 0.030154943 3099276
1.3374698 0.46767518 0.030367732 1715581
1.3447807 0.47971055 0.029652178 4809094
1.3456962 0.4820883 0.029738724 5006992
1.3471857 0.48522621 0.027450144 5333638
1.3482814 0.48762134 0.027041733 7238525
1.3494315 0.49088687 0.026719451 8358019
1.3533809 0.49580806 0.025702953 9146786
1.3570968 0.50115871 0.02558291 9213099
1.3587703 0.50383782 0.025669575 8818867
1.3603475 0.5064888 0.025780976 8884663
1.3619831 0.50878608 0.025463462 8950450
1.3636963 0.51145607 0.025475681 9213110
1.3651485 0.51445907 0.025281787 8884920
1.3666943 0.51690519 0.025424719 8622521
1.3680233 0.51956737 0.025722027 9082555
1.3698206 0.52216303 0.02570045 9016511
1.3712065 0.52427924 0.025740206 8819908
1.3721303 0.52653486 0.025882065 7899591
1.3736521 0.52904356 0.025950909 7177424
1.3779151 0.53493834 0.024154603 4610693
1.3798114 0.53988659 0.024294198 4150142
1.3059803 0.42067188 0.029422045 4019850
1.3069201 0.42291433 0.029448628 4150667
1.3078222 0.42573234 0.029578269 4150927
1.30951 0.42858019 0.029693007 4282514
1.3115978 0.43092862 0.029768586 4283024
1.3134869 0.43426454 0.029313743 4217488
1.3146189 0.43672898 0.029125154 4217490
1.3155335 0.43910059 0.02910012 4283027
1.3182759 0.44040695 0.029172063 4283539
1.319032 0.4439165 0.029585838 4283540
1.3203657 0.44645697 0.029779732 4349333
1.3215307 0.44902071 0.029630244 4349079
1.3229489 0.45032391 0.029592812 4414872
1.32526 0.4533335 0.028940022 4414617
1.3265331 0.45692292 0.028755784 4349080
1.3286051 0.45933467 0.029078066 4217754
1.3299203 0.4625999 0.029448926 4152217
1.3323509 0.46493536 0.026570261 7701145
1.3335761 0.46814463 0.02607131 7766171
1.3392092 0.47708037 0.025702655 7241364
1.3409584 0.47959903 0.025835037 6122641
1.3427908 0.48170814 0.025974214 4674181
1.3440254 0.48462927 0.026046455 4672641
1.345506 0.48714897 0.026209474 4475774
1.3466229 0.48991472 0.025866032 5133181
1.3484228 0.49214426 0.025739729 6844808
1.3499079 0.49478304 0.025618911 7766413
1.3517544 0.49769735 0.025381029 8095895
1.3536503 0.50008881 0.025249422 8490401
1.355165 0.50285208 0.025128722 8292778
1.3563592 0.50533867 0.025299191 8029873
1.3581762 0.50787914 0.02500993 8358833
1.3597089 0.5100323 0.025296867 8556469
1.3610625 0.51309347 0.025124311 8621749
1.3624264 0.51569211 0.025180578 8359097
1.3637159 0.51833737 0.02524519 8293306
1.3660572 0.52038193 0.025341213 8425151
1.3668516 0.52359891 0.025166035 8227520
1.3682797 0.52519917 0.024963081 7111110
1.3699208 0.52844965 0.023495793 5663912
1.370755 0.53033417 0.025289655 7111629
1.3742371 0.53449023 0.02239275 4479364
1.3755468 0.53574288 0.023344338 4479364
1.3763568 0.53880692 0.02403599 4478852
1.3780599 0.54002684 0.024523497 4281470
1.2863945 0.39541298 0.029119253 3624568
1.2874103 0.397937 0.028749108 3690111
1.2930852 0.4070994 0.028024435 4150667
1.2962172 0.41107237 0.028320253 3822218
1.2971058 0.41323581 0.028463602 3756681
1.2987709 0.41699862 0.027975798 3887753
1.3012145 0.41909212 0.028548002 3888008
1.3027878 0.42113462 0.029219091 3953801
1.3039786 0.42439693 0.028933942 4085387
1.3056364 0.42711496 0.029190302 4216462
1.3065276 0.42995298 0.029535532 4348048
1.3079395 0.43169543 0.029921949 4348305
1.310569 0.43396106 0.029867411 4282770
1.3112726 0.43711367 0.028994799 4282769
1.312688 0.44003513 0.028555036 4283026
1.3155165 0.44235328 0.029115736 4283283
1.3176117 0.44582444 0.029431999 4349077
1.319374 0.45005012 0.025894761 7569049
1.3223673 0.4532322 0.029213607 4283287
1.3242879 0.45690945 0.026937008 6188954
1.3254808 0.46035877 0.025215805 8028316
1.3271737 0.46302974 0.025370061 7765913
1.3294349 0.46517783 0.025683045 7306139
1.3299152 0.46793813 0.025259197 7108765
1.3315454 0.47007972 0.025554895 7831707
1.3334322 0.47200191 0.025435209 7831706
1.3349638 0.47522074 0.024940908 7503259
1.3368838 0.47778815 0.025011599 6977947
1.338654 0.48084709 0.02527386 6584217
1.3403075 0.48376003 0.025462151 5991823
1.3415326 0.48607931 0.025555611 5333388
1.3424548 0.48830131 0.025913358 5332104
1.3446039 0.49069023 0.025601864 4147075
1.3459482 0.4940072 0.02503854 3950716
1.3479058 0.49627861 0.025300205 5990280
1.3496537 0.4988319 0.025081217 7701137
1.3510129 0.50146222 0.024798155 6912402
1.3527179 0.50415993 0.025127828 7767454
1.3547666 0.50718671 0.024736464 8095910
1.356179 0.50919467 0.024857521 8621738
1.3572282 0.51204777 0.024846554 8161968
1.3586016 0.51397467 0.024980068 7965108
1.3599488 0.51668692 0.023275733 5597341
1.3610435 0.51917756 0.02413857 7044538
1.3636367 0.5209955 0.02307874 5728927
1.3651863 0.52367884 0.021979213 4216447
1.3663881 0.52669823 0.021983683 4347776
1.3682547 0.52910638 0.023427427 5663911
1.3702352 0.53194314 0.022405803 4478852
1.3713981 0.53465265 0.022718608 4413317
1.3724511 0.53714097 0.023111582 4544390
1.3739748 0.5389514 0.023806989 4610181
1.2837076 0.39482373 0.028701484 3624303
1.2849853 0.39812067 0.028734863 3558522
1.2860396 0.40062281 0.028388023 3690366
1.2879447 0.40318403 0.027874887 3756162
1.2888834 0.40542033 0.027789772 3887493
1.2908597 0.4075616 0.027836561 4150411
1.2923634 0.41033053 0.028094232 4085391
1.2947671 0.41285068 0.028308153 3953548
1.2959596 0.41623652 0.027814746 3822216
1.2968156 0.4190132 0.028088868 3953289
1.2983363 0.42151198 0.02850759 3888008
1.3005805 0.42321932 0.028919578 3953801
1.3021393 0.42580444 0.029213846 4085132
1.3034124 0.42841122 0.028926849 4216974
1.3093957 0.43856809 0.025412977 7634324
1.3114907 0.44176608 0.025400877 7700115
1.3127029 0.44366875 0.02512306 7831443
1.3145943 0.44655481 0.025170684 7634579
1.3161464 0.44892436 0.025219381 7239833
1.3174928 0.45173761 0.025205135 7437208
1.3197434 0.45441994 0.025002658 7766165
1.320964 0.45649654 0.02494663 7240347
1.3224936 0.4589746 0.024866343 7174553
1.3237592 0.46180618 0.024830103 7174553
1.3251574 0.46406138 0.024791002 6714780
1.3263743 0.46628004 0.0249089 6714525
1.3280357 0.46891865 0.024846137 7042972
1.3296018 0.47152755 0.024626493 6846110
1.3314657 0.47404101 0.024615705 6714527
1.3331552 0.47699612 0.02463007 6911902
1.3343453 0.47979307 0.024722874 6911904
1.3359604 0.48247102 0.024812639 6715295
1.3379754 0.48456371 0.025002658 5992092
1.3391826 0.48725787 0.025013626 6583961
1.3408357 0.49043685 0.023942053 4019600
1.3429837 0.49285692 0.023539245 2570866
1.3441939 0.49605733 0.02273488 2044001
1.3465402 0.49780962 0.023628891 2898796
1.347383 0.49998498 0.02482444 6253195
1.3480223 0.50164771 0.022869587 2109019
1.3502936 0.50499475 0.022564232 2635870
1.3520733 0.50835454 0.023366749 6056573
1.353545 0.50861204 0.022042632 3887466
1.3539767 0.51254779 0.021711469 3952745
1.3566741 0.51502448 0.021958351 4084598
1.3578192 0.51808554 0.022095263 4084858
1.358946 0.5213269 0.022110343 4084862
1.3616579 0.52321088 0.022061169 4150654
1.3620791 0.52711427 0.022396266 4216190
1.3639612 0.52735925 0.022099853 4281982
1.3658723 0.53012908 0.022202194 4347518
1.367692 0.53249788 0.022506416 4478595
1.3688686 0.5353148 0.022790849 4478853
1.2799923 0.39380386 0.027284861 1845318
1.2812827 0.39588568 0.028191149 3558247
1.282016 0.39921433 0.028614998 3492725
1.2833736 0.40200198 0.02828747 3624573
1.2857111 0.40418372 0.027776957 3690368
1.2874494 0.40688741 0.02795887 3887748
1.2885299 0.41014501 0.0277794 4085129
1.2896924 0.41154519 0.026753247 5399175
1.29232 0.41395679 0.027160943 5464969
1.2930999 0.41662627 0.026172459 5924744
1.2943094 0.41899455 0.026802242 5333639
1.2962725 0.42202494 0.024919212 6187661
1.2979345 0.4251062 0.024759948 7305098
1.2996726 0.42756414 0.024746358 6910863
1.3015018 0.43006748 0.024870336 6581905
1.3029606 0.43230686 0.024801672 7042193
1.3043542 0.4346725 0.024781644 7173776
1.305867 0.43684471 0.024742782 7239570
1.3074098 0.43984962 0.024815142 7371154
1.3092144 0.44253761 0.024753511 7239570
1.3105737 0.44521424 0.024848938 7174037
1.312407 0.44724223 0.024729431 6976920
1.313755 0.45031813 0.024767816 7174041
1.3149023 0.45320627 0.024849653 7239577
1.3169297 0.45532015 0.024538577 6714266
1.3188958 0.45805275 0.024242222 6451611
1.320033 0.46072128 0.024424911 6845849
1.3209841 0.46307379 0.02450335 6977176
1.322526 0.46482748 0.024301589 6386075
1.3242483 0.46775711 0.024415791 6648731
1.3256198 0.47060817 0.02421695 6517404
1.3272893 0.4729782 0.023927152 6057631
1.3291931 0.475757 0.024310589 7240345
1.3304969 0.4784838 0.024003983 5400741
1.3320602 0.48143426 0.023919761 6189219
1.333889 0.48398876 0.023168683 4808342
1.3365669 0.48691794 0.022622049 4348301
1.3381655 0.48900536 0.021845996 3295089
1.3386722 0.49128887 0.022732079 3822209
1.340205 0.49492982 0.022132456 2900589
1.3419451 0.49682677 0.022552729 2373991
1.3438759 0.49975461 0.022556722 2044255
1.3443234 0.50299448 0.022509873 2043742
1.3459603 0.50259459 0.022653878 2174553
1.3469709 0.50572979 0.022653401 2042962
1.3496289 0.50822222 0.022765338 2240858
1.351439 0.51281554 0.021962106 3162214
1.35402 0.51502043 0.022359133 4019053
1.3593838 0.52498144 0.022040784 4150397
1.2775385 0.39493689 0.02669239 1055039
1.2784402 0.39728272 0.027575791 3031143
1.2798853 0.39895898 0.028167248 3624050
1.2824317 0.40517089 0.024671733 6515837
1.284507 0.40754548 0.024731874 6252928
1.286484 0.41085139 0.024665415 6647172
1.2879815 0.41307038 0.024680138 6975622
1.2896662 0.41532046 0.025202394 6844550
1.2908998 0.41832107 0.024692535 6450569
1.2927961 0.42092785 0.024573624 6516106
1.2942114 0.42305037 0.024716616 6778762
1.2958486 0.42565295 0.024733365 6779021
1.2975224 0.4285174 0.024717629 6910608
1.2988192 0.43139422 0.024502695 6976401
1.3003122 0.43356475 0.024568975 6713490
1.3019644 0.43615201 0.024306536 6713746
1.3035457 0.43900797 0.02416867 6779539
1.3050668 0.44126123 0.024119735 6647955
1.3071263 0.44375244 0.024070442 6450582
1.3083858 0.44675952 0.024134815 6188184
1.3099824 0.44928247 0.024093807 6451097
1.3116734 0.45151547 0.024282038 6385308
1.3128202 0.45431039 0.024187148 6582684
1.3144605 0.45713615 0.024337709 6385565
1.3164396 0.45946845 0.023487091 5465236
1.3176514 0.46235177 0.023082376 5136527
1.3198063 0.46532565 0.021223366 3623539
1.3204825 0.46710145 0.022531629 4413323
1.3220952 0.46934944 0.022955954 5531021
1.3239398 0.471376 0.022360623 4413324
1.3256032 0.47398162 0.021107733 3558003
1.3270483 0.47713444 0.021909177 4084865
1.3290625 0.47892395 0.02134794 3623538
1.3302258 0.48213094 0.021163225 3623537
1.3315966 0.48567933 0.020958126 3492209
1.3342599 0.48788461 0.021220148 3492212
1.3352773 0.49091059 0.021427095 3491957
1.3362546 0.4937804 0.021553338 3426419
1.3380423 0.49622187 0.021764219 3294834
1.3403783 0.49811333 0.022269964 3031914
1.2749677 0.39625981 0.025631309 989499
1.2766191 0.39851236 0.026693404 1845324
1.2801859 0.4045901 0.023878515 5791859
1.2811719 0.4068734 0.024081647 6318462
1.2824805 0.40933296 0.02443403 6384256
1.2840003 0.41210088 0.024249673 6515590
1.2858613 0.41447166 0.024216115 6318477
1.2872174 0.41705292 0.024423301 6515850
1.2889082 0.41990155 0.024060845 6055820
1.2903459 0.42213798 0.02390492 6187404
1.2916604 0.42451069 0.024312198 6581644
1.2937101 0.42727783 0.02417326 6187666
1.2949789 0.43003562 0.024127603 6516113
1.2964356 0.43232498 0.024035752 6844817
1.2984147 0.43477705 0.023849249 6121876
1.2992598 0.43711719 0.023759186 6516371
1.3010149 0.43993729 0.023243308 5793168
1.3031995 0.44256321 0.02388525 6450836
1.3044472 0.44529712 0.023009121 4873361
1.3058486 0.44802618 0.022143424 4413063
1.3075666 0.45073408 0.022183418 4478857
1.3097196 0.45324737 0.021753073 4215426
1.3103946 0.45557147 0.021112859 3689332
1.3129804 0.45798057 0.021050751 3689333
1.314181 0.46066204 0.021275222 3623285
1.3147452 0.46286145 0.021665335 3623284
1.3175902 0.46586284 0.021412075 3557747
1.3186063 0.46904251 0.021229804 3558003
1.3197633 0.47219899 0.021115005 3557746
1.3224983 0.47481322 0.021107733 3557745
1.3236251 0.47838596 0.020791233 3557746
1.3263073 0.48074314 0.020843208 3557745
1.327213 0.48336974 0.021072984 3557745
1.329278 0.48638338 0.020936787 3492209
1.331834 0.48871759 0.021282196 3557747
1.3330894 0.49216598 0.02117306 3492210
1.2728808 0.39791465 0.024425209 1516106
1.2773607 0.40563703 0.022924721 3882825
1.2785814 0.40806633 0.02398175 6252665
1.2800243 0.41067454 0.023952603 6252927
1.2818881 0.41302031 0.023304343 5661322
1.2834461 0.41599441 0.023644447 6187150
1.2848554 0.41813213 0.023485243 5595796
1.2865143 0.42058173 0.023604751 5661585
1.2875257 0.4234817 0.023113191 5070230
1.2892929 0.42609054 0.022979081 5202072
1.2908266 0.42880735 0.021937609 4872846
1.292354 0.43158212 0.021818578 4872846
1.2940888 0.43415359 0.021380782 4544391
1.2958728 0.43667313 0.021885991 4807311
1.2976213 0.43847737 0.021490157 4281218
1.2986203 0.44108811 0.02076453 3886454
1.3010006 0.44333372 0.020780206 3820661
1.3020269 0.44593892 0.020898163 3754868
1.3029888 0.44852337 0.020995438 3754868
1.3055363 0.45095432 0.020910084 3689332
1.3065574 0.45368108 0.021043777 3689074
1.3072636 0.45619473 0.021281242 3689330
1.30976 0.45854643 0.021312535 3689076
1.3110377 0.46151575 0.021251917 3623285
1.3124464 0.46372357 0.021545649 3689077
1.3147948 0.4671945 0.021158338 3557748
1.3163332 0.46978143 0.021273494 3623540
1.3204632 0.47614038 0.02066952 3623283
1.3239763 0.48151192 0.02079612 3557746
1.2702813 0.40015879 0.02313447 4345463
1.2738066 0.40476286 0.02098161 2236723
1.2747875 0.40660787 0.022231519 2105648
1.2762921 0.40921134 0.022021353 4476772
1.2785454 0.41181365 0.021813095 4872837
1.2789781 0.41460344 0.022582352 4938633
1.2811843 0.41721779 0.02144438 4544130
1.2828181 0.41925889 0.020245016 4149115
1.2837801 0.42184344 0.02034235 4017787
1.2859784 0.42449948 0.020150185 4348046
1.2869296 0.42726874 0.020618021 4017529
1.2883995 0.42848986 0.02070421 4083323
1.2903359 0.43162793 0.020360708 4083578
1.2916965 0.43460381 0.020276666 3952247
1.2931476 0.43703994 0.020572424 3951992
1.2946947 0.43931225 0.020734727 3886712
1.2957542 0.44234848 0.020560026 3886455
1.2982299 0.44453603 0.020578146 3886453
1.2991607 0.44719931 0.020693719 3820661
1.3007035 0.44949296 0.02084738 3886453
1.3036897 0.45296112 0.021015286 3689330
1.268913 0.402051 0.021271706 6053773
1.2713934 0.40657654 0.020265639 2369088
1.27247 0.40760893 0.021436989 1184300
1.2744792 0.4107573 0.020136118 3491184
1.2752886 0.41335121 0.021297753 4478588
1.276661 0.41461217 0.022046864 4675715
1.2788829 0.41790503 0.019341171 3820657
1.2801526 0.42137966 0.020305395 3951990
1.2819452 0.42408201 0.018952191 4941734
1.2834494 0.42598811 0.019676805 4809630
1.2852218 0.42841667 0.020508111 3951993
1.2878153 0.43285641 0.020200074 4017530
1.2892196 0.43535751 0.02045542 4018042
1.292536 0.44014505 0.020570815 3952248
1.2694889 0.40730593 0.01947844 2961733
1.26964 0.40891978 0.019595861 1777212
1.2718463 0.41199175 0.020076871 3622001
1.275443 0.41792825 0.018738627 4016754
1.2764 0.41959539 0.019446194 3885681
1.2782714 0.42205495 0.018356502 5926830
1.2793174 0.42432216 0.018731773 5336502
1.2803593 0.42639235 0.019536018 5271474
1.2671664 0.40929434 0.018849194 4015187
1.2678764 0.41034368 0.017855227 3028308
1.2696279 0.41333488 0.019347966 5725318
1.2715366 0.41822031 0.018550336 5199994
1.27367 0.42260548 0.017554522 3691678
1.2761624 0.4235312 0.017697811 5862839
1.2773517 0.42570931 0.018700242 5205167
1.2657503 0.41234908 0.01674372 3225679
1.2724068 0.42336035 0.017343402 2836112
1.2637901 0.41415295 0.016151845 3553849
1.2641773 0.41483289 0.016440094 2764882
1.263027 0.41683286 0.012710869 5526622
1.2592622 0.41994753 0.012836874 4211776
1.5381446 0.19872588 0.20310968 3290721
1.5386288 0.20036817 0.20382205 4804712
1.5356603 0.20016366 0.20223886 3553653
1.5364002 0.20143795 0.20206606 4538452
1.5332103 0.20179713 0.2007423 3094148
1.5342758 0.20291042 0.20061523 4472395
1.5317819 0.2028808 0.19945061 2041439
1.5322167 0.20472705 0.1991052 4210250
1.5302874 0.20644331 0.19778818 3421769
1.5299944 0.20815212 0.1979205 4407107
1.5291681 0.20796537 0.1971755 2961732
1.5288992 0.20962065 0.19637322 3158072
1.528874 0.21235001 0.1959964 1121338
1.5282794 0.2116853 0.19450554 3026225
1.5284107 0.21399957 0.19482225 2368814
1.5288616 0.21717978 0.19434291 2235935
1.527705 0.21556449 0.1927979 2960436
1.5273569 0.21778512 0.19295931 2303024
1.5258477 0.21900153 0.19176757 2434870
1.5263803 0.22094733 0.19122651 1711148
1.5232426 0.22047275 0.1905663 2894649
1.5243399 0.22263014 0.19001809 2631730
1.5213804 0.22196221 0.18914989 3289141
1.522202 0.22424877 0.18887627 1974834
1.5192938 0.22359455 0.18740371 4537144
1.5201007 0.22559172 0.1874122 2369078
1.5178473 0.2266534 0.18610296 2435128
1.5183805 0.22857189 0.1849426 2171176
1.5157262 0.22820246 0.18473428 3026491
1.5164607 0.22979265 0.18463832 2040108
1.5137087 0.22980964 0.18311149 3158077
1.5141085 0.2318061 0.18320817 1908789
1.51127 0.23137075 0.18163913 3486527
1.5125507 0.23333448 0.18183589 2433837
1.5093337 0.23296916 0.1807031 3618111
1.5099998 0.23465604 0.17997223 2303285
1.5073617 0.23380029 0.17934853 5457733
1.507661 0.23602378 0.1789875 3026489
1.5055593 0.23730177 0.17746368 3289407
1.5035381 0.23895329 0.17595118 3355460
1.5014369 0.24038416 0.17467338 4143686
1.5016787 0.24176574 0.17447481 1450561
1.4989727 0.24228561 0.1730831 3882320
1.4996731 0.24302578 0.17355743 3683646
1.497318 0.24331665 0.17110792 4933458
1.4972105 0.24444383 0.171774 3750214
1.494967 0.2446683 0.17048028 5328217
1.4952674 0.24601871 0.17038077 3487047
1.4930623 0.24746877 0.16891479 4079184
1.490977 0.24908763 0.16749734 4210515
1.48876 0.2508859 0.1660223 4342102
1.4866972 0.25225848 0.16450512 4736340
1.4869088 0.25351256 0.16596812 2701146
1.4844488 0.25387293 0.16326565 4868441
1.4849571 0.25455445 0.16327012 3947334
1.4821104 0.25519943 0.16166991 4408403
1.4826624 0.25608701 0.16216093 4013394
1.480352 0.25625283 0.16034096 3619152
1.4804693 0.25766337 0.1602897 4210774
1.4777632 0.25761104 0.15886933 2171465
1.4781682 0.25902551 0.15911496 3684179
1.4748601 0.25833541 0.15725201 4212573
1.4762901 0.26071745 0.15774161 3093070
1.4710129 0.2579636 0.1552726 8229301
1.4725008 0.25973475 0.15617758 7041134
1.47403 0.2622456 0.1566385 2699865
1.4688394 0.25857234 0.15484595 6649264
1.4701135 0.26095539 0.1548422 10658706
1.4715476 0.26370484 0.15483588 4212828
1.4667797 0.25996608 0.1533004 5461895
1.4676956 0.26200986 0.15381426 11118224
1.4693952 0.26530725 0.15303874 4345715
1.4645568 0.26149863 0.15231413 4012913
1.4649895 0.26357245 0.15200889 9472657
1.4670103 0.26604462 0.15202039 7636922
1.4621871 0.26271176 0.15065384 3355752
1.4631063 0.2646758 0.15040511 6845329
1.4645946 0.26696903 0.15108317 10338773
1.4596449 0.26404566 0.1493057 3093607
1.4607885 0.2658239 0.14927417 4671348
1.4618266 0.26798713 0.14970756 7906264
1.4577668 0.26577628 0.14779454 3750495
1.4584055 0.26735413 0.14795113 4276843
1.4590273 0.26937771 0.14844286 3492251
1.4553976 0.26718622 0.1459254 2436958
1.4562252 0.26881033 0.14642346 4145767
1.457005 0.27072799 0.14704019 2370685
1.4538885 0.26836067 0.14533478 2502494
1.4538918 0.27020878 0.14492422 3948894
1.454616 0.27202588 0.14544171 2306924
1.4516611 0.27143848 0.14380014 3817044
1.4522678 0.27315789 0.1439414 2372710
1.4483575 0.27135628 0.14118069 724010
1.4496074 0.27282405 0.14247131 3750218
1.4504185 0.27420217 0.14192271 2438500
1.4471445 0.27218425 0.14074123 592421
1.447098 0.2740736 0.1408242 2894392
1.448278 0.27597094 0.14091307 2372452
1.4448845 0.27535385 0.13943559 2630951
1.4461038 0.2776683 0.13958704 3029340
1.4428047 0.27704841 0.13788503 3354414
1.4440746 0.27900136 0.1384111 2634059
1.4408566 0.27878821 0.1372335 4143401
1.4414185 0.28063995 0.13666219 988727
1.4393556 0.27998221 0.13517588 527898
1.4386531 0.28163964 0.13518542 1120598
1.4369144 0.28334779 0.13390893 2897530
1.4347491 0.28591287 0.13269019 395030
1.4361684 0.28574592 0.13255435 592425
1.4219868 0.44881135 0.074126005 4545668
1.4235325 0.44834179 0.074140191 4610950
1.418332 0.44592226 0.072923601 7442886
1.4196998 0.44919604 0.073483825 4480135
1.4159253 0.44795054 0.071934462 7508679
1.4170487 0.4500438 0.072483003 6059943
1.4182274 0.45164818 0.072587669 4414343
1.4140455 0.4493131 0.071381092 7574469
1.4155855 0.45126331 0.070321858 4743047
1.4153302 0.45282882 0.071715891 4742025
1.4116464 0.45020413 0.069737732 7705801
1.4137526 0.45316499 0.069126368 4873862
1.4137297 0.45527434 0.070220113 4611205
1.4091969 0.4520852 0.068465948 7836871
1.4109683 0.45497423 0.068159699 4808326
1.4118794 0.4558354 0.069292486 4742276
1.4010155 0.4440262 0.067066133 8104429
1.4053524 0.45088631 0.066164315 13092549
1.406899 0.45277455 0.066108704 8099529
1.4069024 0.45421445 0.068030238 7836615
1.4092579 0.45700836 0.066672325 4677251
1.3985885 0.44387507 0.065345824 8104428
1.3989652 0.44506797 0.066598773 8038374
1.4028774 0.45199302 0.064420104 13091274
1.40438 0.45346844 0.065835714 9741255
1.4059492 0.45679775 0.0649544 5862044
1.4072757 0.45834893 0.065516293 4743043
1.3957729 0.44496664 0.064791918 8234473
1.4010844 0.45262814 0.063682079 12959430
1.4024014 0.45530424 0.064674795 9740745
1.4042704 0.45796269 0.063454807 5005957
1.4044048 0.45979291 0.06474185 4808323
1.392935 0.44555509 0.063426077 8234216
1.3997177 0.45436671 0.062208354 13156553
1.4008968 0.4568781 0.062307954 8361165
1.4002405 0.4590776 0.062707186 6980540
1.4018865 0.46107423 0.062697291 4939913
1.3906052 0.44732556 0.062013805 8167393
1.3980711 0.45841119 0.060863912 7902421
1.3984886 0.46097404 0.06094408 5599140
1.3882942 0.44899938 0.060640335 8101597
1.3935783 0.45594847 0.059584677 10989021
1.3949195 0.45986164 0.059628546 8623558
1.3961669 0.46115994 0.061369359 7111098
1.3860261 0.45051917 0.059909523 7707607
1.3913466 0.45808738 0.058965206 9938395
1.3926926 0.46048555 0.05787909 11911643
1.3931158 0.46243018 0.059441328 14277630
1.3847859 0.4517926 0.058146894 7313119
1.3893924 0.4597638 0.057346284 8952025
1.3816557 0.4528681 0.056737721 5864911
1.3881884 0.45990619 0.055317044 7505614
1.379928 0.45309985 0.054476082 5404353
1.3845346 0.51811826 0.035486758 11450342
1.3817475 0.51952028 0.034534872 7178178
1.3835382 0.51936424 0.034440458 9607895
1.378623 0.51987946 0.032299101 5863608
1.3801787 0.52161729 0.03308779 6059963
1.3762472 0.52138615 0.03205508 6126018
1.3779283 0.52254021 0.032516599 5665469
1.3614254 0.50152832 0.030703425 5206449
1.3625214 0.50403309 0.030826449 5402801
1.3645835 0.506531 0.030852914 5535154
1.3669032 0.50944352 0.030630887 5601207
1.3678832 0.51200801 0.030572355 5601211
1.3736042 0.52022403 0.030167937 5929666
1.3743626 0.52249014 0.031695068 5995456
1.3521018 0.49215099 0.029944479 5139627
1.3553969 0.49562129 0.030356288 5271214
1.3572677 0.49806952 0.030543745 5271726
1.3586719 0.50078702 0.030824482 5206190
1.360007 0.50432503 0.030739725 5271728
1.3603687 0.50720829 0.030713022 5403314
1.3623652 0.50738132 0.030375004 5534898
1.3642232 0.51060295 0.030632138 5535157
1.366028 0.51197749 0.030811906 5535671
1.3668765 0.51579452 0.029789746 5666746
1.3691847 0.51877701 0.030134976 5732796
1.371851 0.52035224 0.030174017 5798593
1.3729628 0.52330655 0.031123281 5995203
1.3768066 0.53165674 0.028575599 10462668
1.3335038 0.46656427 0.030279338 3559828
1.3360832 0.46875685 0.030453146 1979519
1.3380888 0.47113112 0.03077805 1912185
1.3386903 0.47313651 0.031245708 1977207
1.339926 0.4757717 0.031046987 2306932
1.3418753 0.47950819 0.030065775 3228795
1.3436103 0.4818581 0.030170143 4611722
1.344821 0.48462242 0.029919684 4941710
1.346832 0.48687533 0.030228794 4942235
1.3478307 0.48926011 0.030291975 4942242
1.3492218 0.49215102 0.030078053 5073576
1.3523607 0.49486983 0.030039608 5205165
1.3531365 0.49695152 0.03061378 5270957
1.3543222 0.49984503 0.030311584 5271469
1.3554701 0.50243491 0.030429542 5337010
1.3571851 0.50446105 0.030798137 5337267
1.3617995 0.51041532 0.030302286 5534902
1.3630369 0.51306283 0.030326784 5600952
1.3638505 0.51561356 0.030315042 5600696
1.3680739 0.52091706 0.028670907 7769016
1.3729105 0.53028899 0.026843607 9542860
1.3747914 0.53251815 0.027988136 9148621
1.3759604 0.53590375 0.027318716 7046095
1.3272514 0.46035004 0.02936846 4349080
1.3283458 0.46284246 0.029268205 4217753
1.330086 0.46490502 0.029522598 4086169
1.331853 0.46718252 0.029720306 3889047
1.3336072 0.46919274 0.030223787 3296142
1.3346256 0.47156948 0.0303545 2637958
1.3365942 0.47523531 0.030347466 2439037
1.3375974 0.47820324 0.030415893 2439033
1.3398088 0.48172766 0.030519307 2570099
1.3420234 0.48199955 0.030129492 3492476
1.3423246 0.48571306 0.029982984 3822210
1.3444338 0.48743924 0.029991925 4810378
1.3453493 0.48981711 0.030078471 4942229
1.3463068 0.49237266 0.028654456 5201804
1.3493841 0.49475577 0.030224979 5073575
1.3509039 0.49768844 0.030052543 5205161
1.3610221 0.51637465 0.026039422 9410479
1.3621467 0.51910621 0.026328862 9476526
1.3649521 0.52172291 0.026486695 9739442
1.3665745 0.52340484 0.026619613 9739702
1.3669076 0.52573347 0.026332498 9213885
1.3690491 0.52827442 0.026418805 8425156
1.3706567 0.53243041 0.026438296 8951753
1.3720714 0.53502345 0.026963234 8229069
1.3738582 0.53735 0.027210236 6980813
1.3758647 0.53990555 0.025666416 10198982
1.3780185 0.54494601 0.024074614 3953789
1.306571 0.43226743 0.029497683 4282769
1.3089821 0.43410265 0.02982676 4282769
1.3125337 0.44208333 0.028914034 4282768
1.314893 0.44383323 0.029248238 4283028
1.315923 0.44613901 0.02929306 4348821
1.3174708 0.44797999 0.029762626 4348823
1.3185654 0.45123842 0.029739678 4283287
1.3205748 0.4530448 0.029416502 4349079
1.3218997 0.45573702 0.029124379 4349078
1.3239629 0.4585726 0.028930843 4349076
1.3247671 0.46164832 0.029106796 4283284
1.3262508 0.46434543 0.029201448 4217749
1.327687 0.46546292 0.029174089 4217494
1.3298988 0.46882492 0.029499233 3954581
1.331182 0.47199991 0.029998362 3757200
1.3332059 0.4746857 0.029835701 3230345
1.3411725 0.48900676 0.026974142 6385544
1.3434407 0.49180365 0.026642382 5330313
1.3447175 0.49365017 0.027006149 4737665
1.3464798 0.49655008 0.026296258 5001855
1.3479929 0.49877265 0.02643168 7238784
1.3494105 0.50187445 0.026086509 8489355
1.3509364 0.50477636 0.025464118 7570073
1.3530097 0.50744545 0.025525987 8424357
1.3543453 0.50989127 0.025627971 8029871
1.3562379 0.51344478 0.025086582 8489905
1.3574331 0.51553875 0.025231361 8424369
1.3592917 0.51721299 0.02521807 8819121
1.3606117 0.51966548 0.025469959 8753332
1.3623006 0.52205837 0.025583446 8556472
1.3635938 0.52497584 0.025547922 8490940
1.3650086 0.52776289 0.025794864 8556223
1.3659086 0.52985597 0.025531352 9016775
1.3683542 0.53244722 0.025657475 8294346
1.3739505 0.54072219 0.02444154 6385563
1.3734 0.54224026 0.023989081 4544390
1.3755989 0.54582953 0.024066687 4149890
1.2981805 0.42409465 0.028979123 3953800
1.3005524 0.4259457 0.029173255 4085131
1.3020008 0.42929062 0.029292226 4150924
1.3042746 0.43189219 0.029281676 4282509
1.3059628 0.43474397 0.029470742 4217230
1.3073643 0.4376094 0.028929651 4348048
1.3091561 0.43932083 0.028732717 4216721
1.3101349 0.44247547 0.028731346 4216976
1.3116162 0.44501829 0.029006183 4217231
1.3133616 0.44692877 0.029537618 4217488
1.3149996 0.44981784 0.029844403 4283283
1.3167731 0.45258284 0.030097425 4414615
1.3184203 0.45620769 0.029079854 4348821
1.3197744 0.45732477 0.02918762 4348823
1.3209081 0.45996732 0.02905637 4348566
1.3228084 0.46232432 0.029002309 4283029
1.3242722 0.46612036 0.028984487 4283541
1.3269138 0.46815538 0.029121697 4151958
1.3271492 0.46987206 0.02788347 5860503
1.3304567 0.47525552 0.02610749 7634842
1.3320761 0.47947332 0.02590853 7700889
1.3342071 0.48219594 0.025496781 7831966
1.3363622 0.48576465 0.025369763 7174810
1.338683 0.48827374 0.025667012 5859989
1.3396108 0.49046999 0.025776803 6451601
1.34113 0.49326465 0.025840461 5464461
1.34287 0.49549198 0.025804818 4345733
1.3440416 0.49815422 0.026047349 4344448
1.3459864 0.50085568 0.025859475 4607864
1.3474116 0.50313675 0.025767744 6055811
1.3486333 0.50562906 0.025682151 7306120
1.3506019 0.50864094 0.02529794 7504274
1.3524834 0.51139498 0.025160015 8227487
1.3536949 0.51364714 0.025006831 8161446
1.3550384 0.51637888 0.024932325 8095916
1.3565009 0.51885843 0.025125802 8358831
1.3585391 0.52100182 0.025072396 8227253
1.3598228 0.52401954 0.025011659 8030392
1.3613093 0.52686697 0.025147736 8162240
1.362987 0.52958512 0.02445966 6386864
1.3643456 0.53156245 0.023814619 5598116
1.3656921 0.53393275 0.023577332 5268377
1.3673496 0.53599894 0.02271992 4478592
1.3693639 0.53948045 0.023036182 4544130
1.3712668 0.54130739 0.023944318 4478851
1.2885811 0.4128463 0.028414547 3953799
1.2910362 0.4148699 0.028419375 3953800
1.2927537 0.41855854 0.028204024 3887751
1.2943387 0.42069668 0.028141916 3953289
1.2952399 0.42296118 0.028145194 3888009
1.2969657 0.42491037 0.028316379 3953801
1.2989795 0.42784101 0.028722644 4019593
1.3002133 0.43111551 0.028914392 4085131
1.3010697 0.43318561 0.02913022 4150923
1.3027902 0.43525615 0.0293172 4151436
1.304831 0.43774971 0.029053032 4216973
1.3058413 0.44022924 0.028864503 4216718
1.3069351 0.44271579 0.028652608 4151437
1.3089848 0.44604984 0.027842045 5334161
1.3118739 0.44895622 0.02939266 4217744
1.3140304 0.45370054 0.025801659 7700377
1.3162529 0.45731416 0.025541782 7634840
1.3188703 0.46145272 0.025339782 7963037
1.3202829 0.46451408 0.025250614 7700378
1.3219254 0.46665138 0.02537185 7305883
1.3231951 0.46892074 0.025673568 7634841
1.3244607 0.47091845 0.025897861 7700634
1.3264327 0.47378185 0.025430262 7371931
1.3277992 0.47680387 0.025594473 7306139
1.3295767 0.47956058 0.025205791 7240349
1.3310934 0.48164731 0.025177062 7503261
1.3331187 0.48442665 0.025046527 6977694
1.3344409 0.48709634 0.025086045 6977695
1.3362484 0.48982432 0.025040209 7043739
1.3375354 0.49191952 0.025010765 6583962
1.3386283 0.49460831 0.025357008 6386582
1.3409171 0.49780196 0.025164425 3952786
1.3422264 0.50004148 0.025115252 4345733
1.3436999 0.50210917 0.025384903 4082300
1.3451455 0.50477642 0.025406778 4608123
1.345655 0.5065496 0.023984313 3489625
1.3487484 0.50963938 0.024799287 5924999
1.3501062 0.51234901 0.02414763 5728128
1.3520176 0.51523215 0.023855507 6320523
1.3533342 0.51735258 0.023839772 5992335
1.3544638 0.52027273 0.02410543 5861536
1.3563514 0.52255601 0.023824036 5729441
1.3568068 0.52509934 0.022322357 4084854
1.3596855 0.52804065 0.022385716 4150140
1.3607656 0.5309093 0.022556067 4215676
1.3616319 0.53322029 0.022982538 4281470
1.3639507 0.53678203 0.022836804 4347009
1.3665967 0.5408234 0.022281528 4413060
1.3673985 0.54294789 0.022853136 4478341
1.2783237 0.3993029 0.027846575 3689581
1.2797945 0.40102163 0.028435349 3624310
1.2806503 0.40325147 0.028373718 3624315
1.2824377 0.40552977 0.028145611 3690368
1.2837372 0.40823701 0.027837932 3821956
1.2855792 0.4113028 0.027939498 3888261
1.2866191 0.4140974 0.028427839 3756931
1.2883582 0.41631585 0.028330266 3822212
1.2895585 0.41877922 0.028171003 3822213
1.2911335 0.42105827 0.028078914 3953542
1.2925713 0.42448378 0.027969658 4085129
1.2953441 0.42663348 0.028248847 4019593
1.2964272 0.4296357 0.028396904 4019847
1.2976854 0.43130022 0.028855979 4085384
1.3043684 0.44227773 0.025605321 7568787
1.3055463 0.44510794 0.025471032 7568529
1.3067853 0.44722506 0.025136471 7765140
1.3084084 0.44922829 0.025492132 7765400
1.3097486 0.45193222 0.025221586 7042713
1.3117869 0.45475817 0.025346041 7568281
1.3131436 0.45713061 0.024843574 7305372
1.3147545 0.4598043 0.024808407 7042970
1.3164766 0.462145 0.024910033 7371674
1.3181283 0.46513376 0.024745643 6911645
1.3190484 0.4681201 0.025010765 7437211
1.3211794 0.47034997 0.02468276 6977180
1.3226709 0.47297591 0.024482608 7042971
1.324404 0.47555673 0.024512708 6714525
1.3261092 0.47838134 0.024415731 7108763
1.3273501 0.48083773 0.024499834 6846109
1.3288456 0.48362273 0.024412453 6517407
1.3304712 0.48575071 0.024702549 6714784
1.3323436 0.48844582 0.024547935 6649248
1.3336258 0.49068508 0.024900734 7306142
1.3349899 0.4935253 0.024040282 5992097
1.3361163 0.49603173 0.023524761 4808598
1.3383504 0.49817625 0.023793399 4611220
1.3400427 0.50127089 0.023478568 4085384
1.3418941 0.50445843 0.022313356 2439779
1.3430014 0.50754195 0.022426903 1913440
1.344686 0.50981855 0.022759557 1648986
1.3464355 0.50933444 0.022638619 1845842
1.3468661 0.51276648 0.022693336 1779797
1.3491766 0.51686412 0.022279322 2175064
1.3506856 0.51877737 0.022916973 3031644
1.352654 0.52151144 0.022998452 4018798
1.3542315 0.52556098 0.022495568 4150130
1.3563948 0.52886677 0.022364974 4084343
1.3587512 0.53240055 0.022130966 4215931
1.3627269 0.53785253 0.02242887 4412802
1.3644725 0.54225934 0.021770716 4412803
1.2755272 0.39964423 0.027680814 2767450
1.277328 0.40240526 0.028474987 3821686
1.2776479 0.40604997 0.028018653 3887486
1.2797394 0.40796471 0.027733624 3887236
1.2813795 0.41087145 0.027696073 3953544
1.2828857 0.41270909 0.028016865 3888005
1.2844374 0.41458216 0.028081596 3691138
1.2861462 0.41772115 0.025433004 6779012
1.2882819 0.4209629 0.026896238 5399173
1.2895021 0.42314988 0.02622956 6056329
1.2912519 0.42573202 0.025134027 6778766
1.292021 0.42831427 0.024706602 6910607
1.2930026 0.43039635 0.024924576 6779025
1.2952812 0.43289903 0.024777532 6516113
1.2966727 0.43576562 0.024647057 7173521
1.2986839 0.43812916 0.024845541 6845074
1.3000472 0.44058853 0.024546802 7239314
1.3017669 0.44378358 0.024552345 7173777
1.3032386 0.44634736 0.024801791 7305362
1.3048521 0.44805741 0.025009334 7107989
1.3061292 0.45086512 0.024728835 6910869
1.3078425 0.45324859 0.024685919 6910871
1.3098879 0.45654264 0.024601698 6779547
1.3113463 0.45887882 0.024251342 6845337
1.3124402 0.46136361 0.024546325 6911386
1.3145231 0.46416038 0.024498105 6845337
1.3160529 0.46589163 0.024579644 6319771
1.316601 0.46834031 0.024255514 6451100
1.3188899 0.47105986 0.023970127 6385564
1.3201027 0.47406995 0.024033129 6057118
1.3218057 0.47705057 0.024076164 6911388
1.3238618 0.47910845 0.024030685 6057376
1.3251104 0.48200959 0.024007559 6122913
1.3268135 0.48476371 0.023686826 5269161
1.3277593 0.4873901 0.022348642 4413324
1.3304619 0.48957881 0.02306658 4873878
1.3317757 0.49283636 0.022967517 4874133
1.3333055 0.49519995 0.021206439 3491953
1.3343344 0.49798936 0.021493435 3426161
1.3366634 0.49982417 0.021957517 3360625
1.3377113 0.50276542 0.022034585 3294830
1.3390687 0.50620633 0.021857858 3097708
1.3406255 0.50828207 0.022426426 2768742
1.3432047 0.51047456 0.022600293 1715807
1.3445263 0.51412177 0.022569239 1648986
1.2731739 0.4007313 0.026843727 1779273
1.2773739 0.40921026 0.025171041 5595519
1.2794082 0.41206455 0.02450633 6515327
1.2808909 0.41446978 0.024638712 6975360
1.2822556 0.41664097 0.024659276 6581384
1.2841897 0.41929308 0.024654686 6778503
1.2852107 0.42203456 0.024626553 6581385
1.2872467 0.42432061 0.024606347 6515853
1.2888768 0.42683178 0.024491251 6844301
1.2901084 0.42954782 0.024675608 6910352
1.2915223 0.43207982 0.02475369 6976144
1.2929485 0.43459949 0.024617732 6976144
1.2945083 0.43748054 0.024643838 7173520
1.2962576 0.43982399 0.024378836 6779026
1.2976965 0.44236508 0.024132311 6713492
1.2994995 0.44490784 0.024258316 6713237
1.3011975 0.44742855 0.02417624 6319256
1.3026372 0.45013189 0.024089813 6516374
1.3044531 0.4524712 0.024122477 6319513
1.3059042 0.45523706 0.024120986 6187929
1.3072652 0.45789936 0.023955703 6253719
1.3085957 0.46024272 0.023165345 5596303
1.3104662 0.46301463 0.023872495 6122139
1.3122478 0.46530211 0.023072898 4938898
1.3128335 0.4672972 0.022555947 5661570
1.3144326 0.47004125 0.022647023 5530509
1.3166656 0.47286215 0.022624731 5924746
1.318409 0.47582999 0.022045672 4413324
1.3198617 0.47921485 0.020908356 3558002
1.3210371 0.48054877 0.020871043 3557747
1.3228121 0.48305464 0.021056056 3492211
1.324779 0.48397413 0.021147668 3557748
1.3253626 0.48747811 0.021018088 3426163
1.3271462 0.49026993 0.021172404 3426162
1.3288898 0.49296305 0.021228015 3491954
1.329944 0.49595487 0.021235049 3426161
1.3319901 0.49881685 0.021308839 3360367
1.333657 0.50127947 0.02163142 3425904
1.3353488 0.50361282 0.022005737 3360622
1.2696831 0.40095806 0.024550736 2634339
1.270808 0.40150249 0.025497854 527670
1.2742881 0.40891722 0.023526847 4673123
1.2755389 0.41006762 0.023907185 6055030
1.2768427 0.41276923 0.024434388 6318459
1.2783692 0.41554847 0.024457335 6383745
1.2799851 0.41790998 0.024178922 6318215
1.2814169 0.420396 0.024231672 6449801
1.2831979 0.42316803 0.024353564 6318475
1.284878 0.42598608 0.023965061 6384269
1.2862556 0.42815721 0.024168193 6253201
1.288012 0.43072701 0.023969173 6516113
1.2891173 0.43354192 0.023547828 6450576
1.2913388 0.43550694 0.023432255 6318993
1.2924893 0.43768215 0.023333967 5399193
1.2939651 0.4408634 0.023611188 5924758
1.2955015 0.4439815 0.023443341 5399194
1.2970822 0.44587043 0.022921026 5530512
1.2985013 0.44898152 0.023243427 5267868
1.2999483 0.45155901 0.021605551 4281218
1.3022916 0.45350966 0.021869123 4215681
1.3041945 0.4571991 0.021920979 4149889
1.3053344 0.4600032 0.021288157 3623539
1.3081267 0.46274725 0.021094203 3623283
1.3089182 0.46561179 0.021199763 3689075
1.3102614 0.46893969 0.020939827 3623284
1.3126307 0.47142765 0.020986974 3688821
1.313736 0.47449866 0.020877302 3557747
1.3165479 0.47740075 0.020584881 3557745
1.3176136 0.47999024 0.020837843 3492209
1.3184683 0.4827036 0.021018386 3492209
1.3209656 0.48506147 0.021161377 3491954
1.3231215 0.48814461 0.021155059 3425905
1.3266491 0.49396107 0.021033227 3426159
1.2684165 0.40168837 0.023893118 3818364
1.2679083 0.40332165 0.023837149 1778260
1.2719368 0.40942034 0.022664011 2501181
1.2729069 0.41135544 0.023497939 5396322
1.2738891 0.41398832 0.02395314 6186617
1.276328 0.41644841 0.023343444 5266822
1.2778485 0.41947946 0.023427963 5792392
1.278998 0.42208311 0.0232988 5661326
1.2808359 0.42460483 0.021929741 4806795
1.281858 0.4265148 0.023116171 5858703
1.2831604 0.42968544 0.022096217 4872588
1.2853694 0.43242776 0.021824539 4872590
1.2862964 0.43451071 0.022651315 5333145
1.288774 0.43711293 0.021383584 4478086
1.2902021 0.44001281 0.021431625 4347011
1.2917308 0.44241115 0.021885753 4609673
1.2931017 0.4444904 0.020619154 3886455
1.2956021 0.4474211 0.020581245 3886199
1.2971094 0.45101678 0.020589113 3820663
1.2981106 0.45375115 0.020655453 3755125
1.2996702 0.4559055 0.020936012 3689332
1.3015189 0.45878002 0.020846486 3689076
1.3024049 0.46141458 0.02100867 3689076
1.3043797 0.46436495 0.020854294 3689075
1.3063445 0.46494034 0.021054387 3623282
1.3079801 0.46944982 0.020996034 3623282
1.3104864 0.47237399 0.02090627 3689076
1.3141141 0.47800517 0.020659506 3557747
1.2659223 0.40466103 0.022793174 1910092
1.2681068 0.40874436 0.02117902 3421761
1.2695562 0.41063181 0.021805286 1578538
1.2708158 0.41240299 0.022376239 3882319
1.2724957 0.41486704 0.021213114 4017274
1.2736568 0.41772243 0.021988213 4741252
1.2748356 0.42023546 0.02112478 4608900
1.2771347 0.42265803 0.020332515 3885943
1.2785382 0.42553353 0.021298826 4412034
1.2797747 0.42771319 0.020509183 4413065
1.2818546 0.43076363 0.020650923 4017530
1.282806 0.43375665 0.02061379 4017786
1.2844778 0.43614912 0.020790935 4017786
1.2863369 0.43910789 0.020584702 3951994
1.2872813 0.4420442 0.020505965 3951993
1.2896855 0.44398874 0.020627558 3886453
1.2907077 0.44705316 0.020541191 3886453
1.2931199 0.44939178 0.020484269 3951735
1.2946491 0.45141241 0.020832181 3886455
1.2993228 0.45980677 0.020605028 3754868
1.2667437 0.4096846 0.021092892 4408402
1.2669034 0.41194412 0.020712674 1776176
1.2686465 0.41403314 0.020406902 4276579
1.2694318 0.41690487 0.020243287 4148082
1.2710532 0.41878778 0.020202458 4740221
1.2728841 0.42190549 0.019820452 3951220
1.2745092 0.4241451 0.019837558 4150661
1.2765369 0.42675427 0.019578338 4941470
1.2768776 0.428478 0.021015227 4083322
1.2791555 0.43204337 0.02051127 4017530
1.3543303 0.55755806 0.011914611 5204367
1.3569857 0.56331104 0.011668384 8093366
1.2647749 0.41305715 0.019081593 3224136
1.2652755 0.41454977 0.019940913 1446953
1.2674445 0.41831458 0.019214153 3555688
1.2689369 0.42152002 0.018914998 3161952
1.2708178 0.42380598 0.018450618 2966642
1.2723634 0.42620862 0.018004835 4613783
1.2738047 0.42793545 0.018918157 5205667
1.3437195 0.54677129 0.01173532 7435657
1.3452965 0.54917812 0.011188269 3293300
1.348194 0.55259478 0.011561215 5066049
1.3523058 0.55946547 0.010503709 4477049
1.3562496 0.56171095 0.010731578 6188199
1.2624136 0.41520008 0.017546475 2829631
1.2625557 0.41616446 0.018327475 1644329
1.2664704 0.42096469 0.018863142 2503507
1.2678581 0.42596519 0.01763767 3953296
1.2703435 0.42691717 0.017656386 4218519
1.3414859 0.54619116 0.010686576 7633026
1.342716 0.54747087 0.010293663 6713239
1.3458731 0.55181181 0.010143578 7630427
1.2614433 0.41610655 0.016495109 3027266
1.2605989 0.41738808 0.015464365 3224898
1.3347771 0.53912413 0.010475397 7303812
1.2590392 0.41930753 0.015068352 3290688
1.2568259 0.4215112 0.014247358 3159372
1.5399834 0.20049375 0.20664173 7505567
1.5370831 0.19986212 0.20601135 3290202
1.537886 0.20106637 0.2061013 3685196
1.535166 0.20096761 0.20480055 3225199
1.5352927 0.20246947 0.20475444 5919349
1.5328569 0.20241278 0.20288724 4474513
1.533272 0.20379823 0.20335937 4866393
1.5312845 0.20365882 0.20153916 2173028
1.5310113 0.20585483 0.20186108 3684168
1.5295595 0.2072981 0.20025086 3158597
1.5294839 0.20907182 0.20053884 3421243
1.5286618 0.2111057 0.19871342 2894901
1.5288236 0.21292055 0.198511 2829103
1.5280505 0.21509558 0.19691336 2763315
1.5284504 0.21693236 0.19723895 2368808
1.5268611 0.21870416 0.19571802 2565939
1.5272059 0.22048235 0.19553259 2105119
1.5247217 0.2201218 0.19397733 2566198
1.5253475 0.22193527 0.19417733 1974830
1.5223916 0.2219013 0.19287813 2697781
1.5234225 0.223683 0.19278151 2040377
1.520457 0.22322464 0.19175243 3289141
1.52123 0.22514659 0.19125149 2434610
1.5185885 0.22452033 0.19018739 4537147
1.5187508 0.22642255 0.18991858 2369084
1.5184684 0.22848386 0.18961239 1843248
1.5167503 0.22771478 0.18846568 2829626
1.5169299 0.22966999 0.18892056 2302247
1.5141425 0.2291733 0.18696442 3486523
1.5153539 0.23084986 0.18723843 1777712
1.5122328 0.23067218 0.1856983 3814975
1.5135434 0.23274159 0.18578202 2237228
1.5102882 0.23217738 0.18451715 4077892
1.5113077 0.23395187 0.18403596 1712188
1.5080218 0.23360157 0.18274951 5457476
1.5088205 0.23542756 0.18287373 2566201
1.5058275 0.23484528 0.18125102 5589320
1.5066607 0.2368837 0.18162686 2960956
1.504541 0.23815125 0.18025061 3618113
1.5047483 0.23986089 0.17970723 1318987
1.5025018 0.23986107 0.17842984 3946821
1.5024463 0.2413044 0.17849556 1450563
1.5002171 0.24169868 0.17720452 4407371
1.5008314 0.24270409 0.17732605 2172472
1.4983253 0.24292582 0.17627269 3750736
1.4983752 0.24398911 0.17548606 3815746
1.4963827 0.24539036 0.17432895 4078923
1.4940451 0.24543053 0.17191219 6445664
1.4942055 0.24706542 0.17297235 4079439
1.4921811 0.24875462 0.17134058 4079182
1.4900215 0.25023645 0.17004961 4407894
1.487923 0.25193787 0.16874248 4605015
1.4870859 0.25359643 0.16918707 1845580
1.4858174 0.25341612 0.16723287 5197150
1.4855556 0.25444722 0.16687876 4013390
1.4834969 0.25489908 0.16569358 5788516
1.4839106 0.25554752 0.16576058 4145238
1.4813849 0.2555148 0.16422749 7169894
1.4816531 0.25715357 0.16427356 4671068
1.4789562 0.25737125 0.16275525 6973291
1.4796423 0.25866628 0.16308212 4408153
1.4773192 0.26009899 0.16163188 4934496
1.4743805 0.26027018 0.15951014 2896194
1.4750946 0.26177341 0.16027969 4276829
1.4715149 0.26017708 0.15756589 4871279
1.4728985 0.26307958 0.15859056 3224152
1.46926 0.26183087 0.15676045 6255250
1.4707773 0.26434028 0.15738362 2698587
1.4661863 0.26078635 0.15540767 6849975
1.466941 0.26318115 0.15592468 9674402
1.4681441 0.26513648 0.15650451 4803933
1.4692509 0.26736456 0.15597904 2502498
1.4634399 0.26245928 0.15450031 5795245
1.4645513 0.26439494 0.15486348 10857900
1.4657236 0.26681483 0.15496069 6515058
1.4672348 0.2685197 0.15481102 1449800
1.4609923 0.26377958 0.15334129 3555471
1.4621179 0.26553667 0.15341264 9735568
1.4637886 0.26846981 0.15307784 7898793
1.4644215 0.27044886 0.15407676 1055298
1.4589899 0.26504141 0.15246594 2895998
1.4597819 0.26714826 0.15178597 7695996
1.4610958 0.26943958 0.1515432 10401239
1.4565132 0.26662642 0.15037078 2699378
1.4577003 0.26835841 0.15047807 5656684
