# .PCD v0.7 - Point Cloud Data file format
VERSION 0.7
FIELDS x y z rgba
SIZE 4 4 4 4
TYPE F F F U
COUNT 1 1 1 1
WIDTH 1186
HEIGHT 1
VIEWPOINT 0 0 0 1 0 0 0
POINTS 1186
DATA ascii
0.7985304 0.57139146 0.20944405 1251630
0.79950452 0.57291007 0.20881587 1515059
0.80188167 0.57498717 0.20859444 1711404
0.79541594 0.57232046 0.2076056 1514801
0.7975418 0.57379991 0.20701253 1449520
0.79136837 0.57253039 0.20665827 1447981
0.79359841 0.57296848 0.20602399 1448757
0.79458702 0.57523423 0.20554507 1514541
0.78956771 0.57278192 0.20464244 1580332
0.79125154 0.57427412 0.20449749 1514802
0.78512561 0.57263458 0.20374322 1251370
0.78721505 0.57289445 0.20319074 1383215
0.78875077 0.57488543 0.20326775 1514539
0.78350168 0.57238042 0.20192552 1382955
0.78525561 0.57453144 0.2020973 1383473
0.77942401 0.57196641 0.20124727 1251372
0.78082025 0.57353377 0.20049381 1449008
0.78270561 0.57475781 0.20093504 1383217
0.77746099 0.57261783 0.19937488 1383470
0.77892005 0.5745368 0.19926605 1449008
0.77317226 0.57232547 0.19858706 1514542
0.77492547 0.57349521 0.19786021 1449263
0.77605534 0.57480752 0.19885466 1449264
0.77046192 0.56959271 0.19586846 920598
0.77154732 0.57255548 0.19669053 1514283
0.77234602 0.57468784 0.19638082 1383471
0.76863122 0.57366037 0.19544488 1580079
0.77016169 0.57482636 0.19560578 1449014
0.76507139 0.57353371 0.19394571 1514541
0.76689315 0.57514107 0.19386065 1580339
0.75942814 0.56988215 0.19244173 920848
0.76150024 0.57024145 0.19354859 921105
0.76275647 0.57340586 0.19281834 1580075
0.76407456 0.57571507 0.19248334 1449010
0.75669587 0.5693146 0.19176179 723726
0.75885582 0.57303286 0.19131002 1316649
0.76067036 0.5749104 0.19142851 1580332
0.76175469 0.57597071 0.19119421 1448758
0.75394404 0.56913924 0.19091123 723723
0.75474036 0.57286328 0.19074559 1316391
0.75615954 0.57368535 0.18991041 1645612
0.75805897 0.57561672 0.18999535 1448750
0.7512567 0.57035697 0.18919235 657934
0.75318182 0.573075 0.18922278 1381925
0.75427735 0.5749408 0.18855476 1514539
0.74745041 0.56987584 0.18621653 658190
0.74871033 0.5704028 0.18726429 723471
0.75043964 0.57418191 0.1877045 1645355
0.75152004 0.57560605 0.18680561 1448752
0.74514621 0.5701201 0.18648916 657934
0.74679571 0.57351565 0.18557373 1447465
0.7482971 0.57511795 0.1858955 1514286
0.74960494 0.57622415 0.18692681 1514023
0.74176794 0.56984746 0.18482745 526609
0.74301839 0.5698052 0.18605208 592400
0.74407506 0.57417542 0.18488604 1514026
0.74545455 0.57575178 0.18465477 1514283
0.73971081 0.57050878 0.18379879 526352
0.74053168 0.57323009 0.18311322 1381673
0.74161631 0.57474571 0.18329659 1514545
0.74298155 0.57690495 0.18325144 1382435
0.73637211 0.57041597 0.18195522 526616
0.73736173 0.57327431 0.18217534 1315633
0.73923659 0.57616663 0.18199682 1514281
0.73058766 0.5689705 0.18097311 1118236
0.73276579 0.56976914 0.1811929 855321
0.73385346 0.57281446 0.18014038 1249594
0.73545009 0.5758633 0.18073738 1579568
0.73722482 0.57615817 0.18070793 1448237
0.7271657 0.56687397 0.17922151 2961200
0.72910523 0.56879914 0.18068016 1250335
0.72998977 0.57257581 0.17934641 1315389
0.73161554 0.5735653 0.17910069 1184055
0.73339009 0.57613659 0.17939416 1382449
0.72355747 0.56607503 0.17867661 2698288
0.72500336 0.56661224 0.17883781 2764335
0.72690523 0.57112467 0.17662743 4080206
0.72771931 0.57224602 0.17884403 1381945
0.72982132 0.57550305 0.17808962 1316148
0.73147553 0.57704455 0.17838824 1251380
0.72115469 0.56586695 0.17772067 2499372
0.7242893 0.5715062 0.17700687 3421779
0.72555518 0.57446605 0.17642057 1974587
0.72734952 0.57564634 0.17727166 1119544
0.71711498 0.56502467 0.17564726 1381142
0.72069299 0.57026035 0.1754674 4277836
0.72190332 0.57309818 0.17560321 3883092
0.72333419 0.57552516 0.17592895 1843521
0.7147463 0.56440884 0.17392969 1118483
0.71435356 0.56537133 0.17526829 1249813
0.71600366 0.57000172 0.17444181 3422286
0.7181474 0.57176709 0.17414469 3752277
0.71985054 0.57338756 0.17479438 4146772
0.72057408 0.57626116 0.17419827 2765642
0.71084785 0.56487691 0.17350021 1184023
0.71174455 0.56934726 0.17312115 2105407
0.71411967 0.57017779 0.17273527 2171967
0.71550453 0.57269233 0.17321473 3358552
0.71768445 0.57471323 0.17331952 3621465
0.70749629 0.56434882 0.17241225 1184023
0.70979613 0.56897479 0.17177674 2104893
0.71193004 0.57144308 0.17141789 2172483
0.71321583 0.5725522 0.17210558 2503251
0.70400143 0.56339926 0.16934034 460308
0.70440197 0.56395954 0.171031 1117976
0.70603263 0.56777811 0.17047322 2171448
0.70785344 0.57097733 0.17030632 2105915
0.70941943 0.57224947 0.17124742 2435393
0.70157844 0.56359822 0.16960514 526361
0.70316589 0.56756002 0.16970047 2040120
0.70459217 0.56909132 0.16943553 1843511
0.70548093 0.5715856 0.1691038 2566209
0.6978507 0.56373572 0.16831547 724021
0.69903511 0.56481165 0.16862822 724266
0.70073199 0.56773621 0.16815633 1711159
0.70169115 0.57024491 0.16793674 2172217
0.69481122 0.56416541 0.16715008 2303815
0.69639933 0.56644225 0.16649812 592968
0.69814432 0.56920004 0.1665256 1316912
0.69039822 0.5645265 0.16557336 6383237
0.69229782 0.56532085 0.16533631 4672886
0.6947968 0.5683502 0.16546482 527657
0.6956175 0.56923157 0.16601491 1250869
0.68824792 0.56428468 0.16416949 11647446
0.69014621 0.56654358 0.16391927 5858714
0.69193262 0.56905866 0.16387975 1910608
0.68588454 0.56364924 0.16381902 12633570
0.6857537 0.5662207 0.16237986 10661600
0.68770158 0.56742287 0.16309059 7174565
0.69003868 0.56970716 0.1633209 2173525
0.68390989 0.56694245 0.16159266 11385325
0.68563372 0.56903744 0.16222614 7108758
0.68206394 0.56698871 0.16124564 12173808
0.67954457 0.56905389 0.15940434 12436720
1.1525161 0.55089563 0.36998636 2111593
1.1543207 0.5524261 0.3696335 3489106
1.1562192 0.55497414 0.36973146 3359860
1.1511998 0.55139792 0.36826664 2242145
1.1530981 0.55368477 0.36832839 3161431
1.1538792 0.55614161 0.3677099 3096942
1.148685 0.55262077 0.36741215 1516111
1.1504713 0.55494624 0.36697996 2699597
1.1515439 0.55743027 0.36651453 2437736
1.146643 0.55395508 0.36538345 726587
1.1475694 0.55600655 0.36600292 2238006
1.1490834 0.55911684 0.36537927 1976662
1.1446332 0.55605829 0.36445445 989764
1.1455965 0.5573172 0.36394513 2172730
1.1470304 0.56033123 0.36347628 1911643
1.1421522 0.55724633 0.36275059 1384271
1.1429781 0.5586437 0.36278713 2304318
1.144717 0.56161922 0.362856 2305632
1.1385031 0.5565213 0.36124116 1318483
1.1397674 0.55859613 0.3613686 2107460
1.141348 0.56214273 0.36150244 2437216
1.1431251 0.5619303 0.36061621 2437216
1.1356735 0.55681425 0.36051625 1252944
1.1372262 0.55935377 0.35997328 2305090
1.1390162 0.56216991 0.35994333 2437214
1.1312375 0.55778378 0.35908538 1318735
1.1335056 0.55802441 0.35832065 1450062
1.1353093 0.56105494 0.35830581 2305618
1.136704 0.5623945 0.35888088 2568799
1.130239 0.55770355 0.35738409 1252688
1.1314237 0.56001461 0.35712516 2304580
1.1328285 0.56194532 0.35755426 2371678
1.1271262 0.55787623 0.35640138 1187151
1.128901 0.56132686 0.35611108 2239826
1.1312447 0.56266576 0.35587615 2634341
1.123392 0.5584029 0.35436255 1187148
1.1249658 0.55982828 0.35461289 1713222
1.1268167 0.5621053 0.35463625 2371423
1.1215303 0.55865502 0.35337728 1186892
1.1226833 0.56154311 0.3534916 2239829
1.124769 0.56246316 0.35317081 2371686
1.1166636 0.55856657 0.35241085 1186898
1.1187378 0.55946779 0.35230851 1515594
1.120615 0.56193656 0.35192955 2239831
1.1223485 0.56305593 0.35102442 2634083
1.1152499 0.55868816 0.35045749 1186894
1.116421 0.56121004 0.35062632 2042698
1.1181724 0.56284201 0.35041052 2371683
1.1114987 0.55873924 0.34885693 1186898
1.1128609 0.56024468 0.34999579 1779270
1.1143386 0.56218773 0.34916699 2305885
1.1157954 0.56363344 0.34895912 2633830
1.1090457 0.5588975 0.34852177 1252433
1.1107445 0.56160903 0.34803638 2174032
1.1117852 0.5634867 0.34768492 2502755
1.1050397 0.55869812 0.34719816 1252437
1.1067405 0.55996132 0.34608588 1844554
1.1080315 0.56230831 0.34685621 2305882
1.1093829 0.56402361 0.34616405 2568548
1.1027262 0.55852342 0.34525061 1252693
1.10409 0.56157589 0.34550205 2239823
1.1060057 0.5635649 0.34532619 2502755
1.0984042 0.55851293 0.34426463 1252943
1.1006277 0.56011868 0.34430379 1779021
1.1017952 0.56247795 0.34412602 2305888
1.1035035 0.56407082 0.34370476 2568547
1.0963449 0.55883312 0.34300387 1384019
1.0982391 0.56174827 0.34309325 2239820
1.0996841 0.56406868 0.34221667 2503011
1.0928364 0.55863917 0.34172404 1449808
1.0938375 0.56060886 0.34107089 1910604
1.0958695 0.56259459 0.3412098 2305879
1.0970196 0.56432831 0.34090257 2503010
1.0903516 0.55912018 0.34019339 1318482
1.0919063 0.56183898 0.33993396 2305354
1.0933518 0.56352007 0.34012771 2437471
1.0868363 0.5591507 0.33829212 1449815
1.0879648 0.56007266 0.33931699 1713227
1.0897918 0.56279266 0.33881226 2305876
1.0916109 0.56375539 0.33840662 2437475
1.0849588 0.55943942 0.33726022 1384527
1.0863531 0.5616166 0.33738777 2239553
1.0869914 0.56381547 0.33754221 2437473
1.0898142 0.56452572 0.33694458 2371937
1.0822825 0.56052208 0.33650419 1844808
1.0839918 0.56300437 0.33603519 2371673
1.0857246 0.56424046 0.33569199 2437217
1.078119 0.56019205 0.33504564 1318992
1.0797389 0.56086123 0.33493704 1910602
1.0814288 0.56403923 0.33485863 2437217
1.0759201 0.56085789 0.33319414 1647945
1.0776868 0.56354702 0.33366603 2371677
1.0797622 0.56395459 0.33302021 2306399
1.0724022 0.5603863 0.33277863 1450068
1.0733612 0.56141889 0.33202797 2042438
1.0751497 0.56408763 0.33204293 2371681
1.0697963 0.56077635 0.33115792 1713482
1.0717392 0.56318682 0.3307431 2305627
1.073181 0.56414735 0.33010286 2371172
1.0657921 0.56046104 0.32922602 1318990
1.0671251 0.56160486 0.32990396 1910597
1.0690649 0.5639317 0.32949615 2240092
1.0638018 0.56138241 0.32833189 1647688
1.0655091 0.56295681 0.32785189 2108752
1.0661042 0.56481397 0.32812619 2107998
1.0591438 0.56115329 0.32746121 1450074
1.0611943 0.56146407 0.32684198 1779525
1.0628861 0.56442088 0.32691461 2174044
1.0577989 0.56154764 0.32542127 1779277
1.0595775 0.56308961 0.32570934 2240338
1.0602775 0.56514859 0.32545072 2239583
1.0548637 0.56152594 0.32437736 1844814
1.0565706 0.5647881 0.32430562 2371421
1.0584576 0.56521404 0.3237274 2239326
1.0515985 0.5614205 0.32285058 1844552
1.0527465 0.56397104 0.32279712 2239825
1.0541631 0.56482309 0.32253444 2239579
1.0473628 0.56075162 0.32053959 2107965
1.0488312 0.56148148 0.32176256 1844552
1.0505519 0.56466341 0.32123512 2108247
1.0453061 0.56155348 0.32033184 1845065
1.0465769 0.56309885 0.31996873 1779287
1.0477321 0.56489968 0.32018965 2042200
1.0428135 0.5620687 0.31876457 1779276
1.0444899 0.5650264 0.31875134 1976917
1.0390313 0.56175375 0.31729978 2174017
1.0403757 0.56306517 0.3182852 1910610
1.0419027 0.56550109 0.31761321 1976917
1.0366018 0.56249654 0.31659645 2042191
1.0383191 0.56522679 0.31597793 2108250
1.0402516 0.56574762 0.3161532 2041690
1.0324628 0.56270146 0.31539345 2371904
1.0338371 0.56330419 0.31479979 2042198
1.0356197 0.56551945 0.31453043 2173787
1.0305452 0.56272972 0.3136819 1977414
1.0318507 0.56484067 0.31358981 2042199
1.0339817 0.56530559 0.31362668 2107477
1.0279 0.56291366 0.31234345 1976908
1.0294213 0.56542075 0.3119899 2107989
1.0244186 0.56311595 0.31111205 2174279
1.0257735 0.56479371 0.31070048 2108246
1.0272884 0.56607831 0.31143975 1910867
1.0202703 0.56262076 0.30966666 2371907
1.0220475 0.56322938 0.30981398 2042444
1.0235929 0.56569731 0.30939448 2107990
1.018038 0.56202757 0.30840427 2306369
1.019381 0.5648315 0.30820829 1976406
1.0213871 0.56628084 0.30841225 2041426
1.0142825 0.56196761 0.30695927 2240580
1.015901 0.56377208 0.30704588 1910356
1.0172918 0.56597197 0.30688161 2107986
1.0119977 0.5618816 0.30581659 2306116
1.0135574 0.56537658 0.30575413 1910616
1.015672 0.56665719 0.30495578 1975634
1.0083625 0.56218076 0.30474126 2109765
1.0101175 0.56371129 0.30407673 1910869
1.0108724 0.56632626 0.30405259 2173788
1.0060565 0.56250113 0.30331889 2240837
1.0073304 0.5654397 0.30336076 1976669
1.0084641 0.56660932 0.30262965 2239577
1.0034223 0.56353152 0.30175763 2174798
1.005348 0.56637239 0.30174935 2173787
1.0073211 0.56701946 0.30060911 2173276
1.0000219 0.56335974 0.30093199 2241099
1.0010026 0.56481159 0.30039698 1845339
1.0021198 0.56717229 0.30028704 2239836
0.9976235 0.56437099 0.29925063 2240590
0.99896646 0.56675553 0.298825 2239326
1.000594 0.56719697 0.29791766 2238303
0.99482006 0.56502271 0.29772648 2042709
0.99642986 0.56725562 0.29724583 2304861
0.99127334 0.56500959 0.29595023 2239829
0.99290204 0.56653291 0.29623812 2239574
0.98876274 0.56509888 0.29501116 2174290
0.98989969 0.5674262 0.29497796 2305116
0.98505032 0.56473804 0.29392415 2240601
0.98683429 0.56675196 0.2934767 2305883
0.98766446 0.56779134 0.2940405 2173271
0.98157543 0.56402963 0.29270265 2438222
0.98275959 0.56488758 0.29263169 2174304
0.98407179 0.56749159 0.29219711 2436701
0.97884178 0.5650053 0.29103476 1910868
0.98045433 0.56665158 0.29072109 2305114
0.98204899 0.56786668 0.29113728 2436953
0.97620517 0.56541574 0.28952107 1713492
0.97797722 0.56758595 0.28964543 2370902
0.97277367 0.56489861 0.28811008 1780046
0.97426432 0.56674153 0.2886402 2107986
0.97563428 0.56769168 0.28867182 2699360
0.96877706 0.56420332 0.28703362 989521
0.97033036 0.56546235 0.2873559 1713488
0.97148883 0.56769812 0.28706217 2239315
0.9649033 0.56285107 0.28513628 2306374
0.9664216 0.56504583 0.28580916 1648209
0.96821165 0.56641328 0.2852878 1910864
0.96940482 0.56779325 0.28551793 2305105
0.96258336 0.56297231 0.28481856 2306128
0.9640696 0.56571895 0.284695 1450065
0.96527755 0.56785214 0.28449845 2041935
0.96033835 0.56428385 0.28324053 1845586
0.961896 0.56689185 0.28288412 1581644
0.96323109 0.56844318 0.28328907 2502735
0.95823026 0.56579864 0.28196949 1516108
0.95941329 0.56783378 0.28170246 1975884
0.9611522 0.56904888 0.28077811 2436950
0.95414019 0.56538874 0.28009105 924485
0.95583522 0.56680346 0.28056055 1647179
0.95690024 0.5692687 0.27994698 2436438
0.95151865 0.56589472 0.27938125 1318477
0.95340371 0.56813204 0.27913231 1910086
0.95436931 0.5694328 0.27901632 2436440
0.94813216 0.56539202 0.27787405 990279
0.94974136 0.56717527 0.27765211 1712972
0.95115519 0.56933612 0.27765727 2239054
0.94536096 0.56579059 0.27665919 1187401
0.94710302 0.56793797 0.27619037 1910349
0.9486419 0.56954312 0.27654499 2370898
0.94172925 0.56577891 0.2746312 990786
0.94349259 0.56727552 0.27517244 1581642
0.94522071 0.56895506 0.27505028 2107723
0.93959093 0.56617355 0.27420005 1318983
0.94112968 0.56833732 0.27382541 1910347
0.94296432 0.56939489 0.27417707 2305105
0.93519425 0.56601238 0.27189043 1056327
0.93708956 0.56698215 0.27249032 1712973
0.9388231 0.56886303 0.27217698 2041929
0.93327415 0.56623161 0.27172109 1318982
0.93527853 0.56854165 0.27053201 2041933
0.9363457 0.56944841 0.27247697 2239810
0.92978728 0.56564021 0.26999182 1187144
0.93103188 0.56726152 0.26985493 2041683
0.93241477 0.56917542 0.26975942 2239056
0.92721659 0.56609821 0.26827726 1384515
0.92848063 0.56822723 0.26862788 2239060
0.92980421 0.56980777 0.26686278 2305353
0.92374384 0.56552935 0.26697516 1121339
0.92532182 0.56743509 0.26729536 1976136
0.92648727 0.56952524 0.26664561 2173513
0.92091942 0.5653193 0.26660478 1056064
0.92260456 0.56856257 0.26563028 2107470
0.91710865 0.5658114 0.26435566 1055811
0.91897684 0.56761378 0.26458818 1713226
0.92012298 0.56920016 0.26413804 2042184
0.91454661 0.56614304 0.2633265 1055549
0.91630727 0.56912374 0.2628361 1976135
0.91780758 0.56996286 0.26414487 2107974
0.9108876 0.56614351 0.26122636 989504
0.91270542 0.56751239 0.26177213 1647174
0.91399229 0.57018656 0.26168656 1910593
0.90824938 0.56646699 0.26079392 990015
0.90982473 0.56875443 0.26063991 1910090
0.91176838 0.57029879 0.26030862 1910593
0.90484768 0.56605816 0.25883532 1121611
0.90641534 0.5675112 0.259229 1976141
0.90791285 0.57048357 0.2591666 1976394
0.90245885 0.56617343 0.25817508 1318729
0.90401506 0.56905007 0.25730374 2107980
0.90555513 0.57066494 0.25750214 2042187
0.89899623 0.56559122 0.25606072 1121604
0.90052491 0.56696612 0.256874 1976136
0.9019084 0.5705182 0.256437 1976647
0.89612186 0.56628352 0.25558031 1384516
0.89843553 0.5698424 0.25565982 1976647
0.89906561 0.57088816 0.25511989 1976388
0.89324582 0.56576371 0.25357866 1186625
0.89409482 0.56747842 0.25417984 1976134
0.89566827 0.57021916 0.25408795 1976644
0.89036167 0.5666725 0.25281239 1449793
0.89178145 0.56918299 0.25261435 2042187
0.89344293 0.57095045 0.25202334 2042183
0.88581049 0.56652784 0.25089017 1253184
0.88839084 0.56708682 0.25158361 1713221
0.88900399 0.57017398 0.25091982 2107724
0.89117014 0.57169336 0.25164133 1976388
0.88367105 0.56659895 0.24993482 1318721
0.88554537 0.56872958 0.25002903 2107466
0.88704979 0.57143921 0.2496109 2042180
0.88020873 0.56665349 0.24897689 1317694
0.88202292 0.56733906 0.24899286 1581379
0.88287282 0.5708369 0.24852571 2042184
0.88402182 0.57212603 0.24795365 2041922
0.87790501 0.56661052 0.2470482 1317443
0.87926954 0.56827492 0.24743927 1910086
0.88073969 0.57144201 0.24692592 1976389
0.87358844 0.56669462 0.24705356 1317949
0.87569278 0.567568 0.24580288 1646656
0.87760043 0.57076985 0.24584571 1976648
0.87856519 0.57231557 0.24596861 1844798
0.87161183 0.56663656 0.24492911 1252416
0.8728528 0.56862992 0.24499327 1844545
0.87461281 0.57167441 0.24447703 1910852
0.86716187 0.5671373 0.24400938 1450052
0.86951894 0.56789243 0.24307358 1712967
0.87092304 0.57114744 0.24308914 2042193
0.8723228 0.572613 0.24302059 1844800
0.86538029 0.56726551 0.24241817 1515079
0.86682737 0.56841522 0.24238527 1910341
0.8684178 0.57163119 0.24178886 2107726
0.86159766 0.56707829 0.24035916 1384256
0.86344093 0.56821454 0.24053675 1712707
0.86525512 0.57073343 0.24018705 2173769
0.86603111 0.57235247 0.24070072 2041925
0.85965395 0.56722146 0.23965669 1383998
0.86122286 0.56956607 0.23863536 1975873
0.86258304 0.57182336 0.23910031 1976640
0.85672212 0.56797916 0.23742145 1515839
0.858459 0.57044083 0.23799777 2042182
0.8597672 0.57272625 0.23750231 1910589
0.85338622 0.56821835 0.23705119 1515333
0.85458958 0.56928599 0.23643112 1910340
0.8563059 0.57206136 0.23660928 2042179
0.85841918 0.57292002 0.23618793 1976127
0.85103679 0.56848025 0.23535055 1778500
0.85243511 0.57122278 0.23517269 2108237
0.85460305 0.57366282 0.23530984 1910591
0.84720039 0.56812125 0.23396015 1515333
0.84816533 0.56892431 0.23424476 1910337
0.84970605 0.57114983 0.23364815 2108234
0.85165823 0.5744009 0.23379245 1976126
0.84484935 0.56862533 0.23319614 1647166
0.84608495 0.57128984 0.23250684 2042442
0.84772563 0.57395267 0.23297167 1976126
0.84979701 0.57439709 0.2320509 1976128
0.8423636 0.56877184 0.23128077 1712957
0.84352016 0.57143146 0.23134255 2107725
0.84546894 0.57412052 0.23112804 1910333
0.8387388 0.56909752 0.23008287 1712449
0.84033477 0.57080865 0.23003459 2041676
0.84209937 0.57319754 0.23017684 1976133
0.84311306 0.57426697 0.22856975 1910082
0.83640903 0.5694207 0.22897568 1975367
0.83776826 0.57207012 0.2284438 2107466
0.83911681 0.57368046 0.22845277 1976127
0.83208489 0.56950665 0.22745815 1646655
0.83427233 0.5704447 0.22765449 1910088
0.83541572 0.57315505 0.22712088 2172997
0.83085573 0.56991512 0.22600716 1844028
0.83181489 0.57219917 0.2261478 2041927
0.8332004 0.57408679 0.22607112 2107457
0.82556605 0.57052505 0.2247861 1975349
0.82740915 0.57064772 0.22428566 1712697
0.82937127 0.57349455 0.22465211 1910337
0.82409 0.57029748 0.22360778 1580596
0.82544196 0.57257754 0.22306192 1910331
0.82674468 0.57457227 0.22279334 1909564
0.82133996 0.57053804 0.22207856 1646132
0.82267934 0.57310903 0.22200096 1713212
0.82449818 0.57503468 0.22206816 1778228
0.8182472 0.57045293 0.22051829 1514549
0.81958884 0.57247704 0.22084945 1712700
0.82133651 0.57577908 0.22018477 1646898
0.81547153 0.57132745 0.21959016 1580853
0.81658822 0.57321906 0.21909189 1647167
0.81761646 0.57562321 0.21880287 1646900
0.81181824 0.57095003 0.21823704 1514801
0.81340098 0.57236302 0.21778178 1646906
0.81456631 0.57479024 0.21812874 1646640
0.80945295 0.57138562 0.21675277 1514803
0.81081963 0.57367849 0.21661663 1646652
0.80490309 0.57148981 0.21512395 1383213
0.80707854 0.57288265 0.21521032 1646392
0.80820119 0.57437998 0.21598566 1646394
0.80305666 0.57157719 0.21398526 1383474
0.80459726 0.57341886 0.21409768 1581110
0.79892814 0.57110274 0.21259221 1317168
0.80069447 0.57290053 0.21270919 1515062
0.80224752 0.57460368 0.21277824 1646129
0.79673445 0.57207036 0.21137983 1448750
0.79844135 0.57378924 0.21109718 1646390
0.80116051 0.57513231 0.21056268 1646127
0.7926361 0.5717954 0.21020511 1382447
0.79494119 0.5724591 0.21010661 1449010
0.79630351 0.57465142 0.20999199 1515059
0.79109323 0.57251316 0.20881116 1514803
0.79257405 0.57413769 0.20857096 1515060
0.79352593 0.57545084 0.20885563 1449261
0.78865063 0.57288438 0.20736304 1448751
0.78987288 0.57482094 0.20691696 1449266
0.78462118 0.57286453 0.20639938 1514543
0.7863977 0.57366878 0.20618924 1449008
0.78742445 0.57519871 0.20730278 1449518
0.78238547 0.57317263 0.2045013 1449003
0.7837618 0.5748232 0.20461869 1449013
0.77797776 0.57250786 0.2034604 1383212
0.78005052 0.57386088 0.20355347 1449008
0.77545893 0.57294357 0.20194319 1449259
0.77726388 0.57458711 0.20186499 1383474
0.7727201 0.57261348 0.20078278 1382958
0.77395618 0.57441771 0.20068976 1383730
0.76669222 0.56969523 0.20045966 1052436
0.76838541 0.56975204 0.19901058 1052436
0.7697826 0.57309675 0.1995891 1645875
0.77164185 0.57457632 0.19941232 1449009
0.76632547 0.57285273 0.19760168 1447981
0.76742148 0.57458287 0.19806793 1580596
0.76947361 0.57514912 0.19843739 1515066
0.76149631 0.5706023 0.19711202 921106
0.76399487 0.57342005 0.19670498 1645870
0.76535767 0.57530761 0.1971457 1646131
0.75896859 0.57030654 0.19488531 855312
0.75978756 0.57141602 0.19629633 1052952
0.76120615 0.57424545 0.19588715 1711407
0.76302058 0.57614756 0.19528073 1580084
0.7561667 0.57016867 0.19415241 789518
0.75746226 0.57363451 0.1943332 1514284
0.75960064 0.57611281 0.19423336 1449263
0.75277746 0.57065427 0.19265079 789516
0.75324774 0.57078993 0.19382674 789516
0.75527573 0.57468045 0.19262251 1514284
0.75763291 0.57615042 0.1928277 1383208
0.75043941 0.57051969 0.19172168 658187
0.75146437 0.57390392 0.19133115 1579561
0.75320005 0.57548761 0.19134462 1514537
0.74602342 0.57061404 0.1906209 657932
0.74793875 0.57079411 0.19088781 657935
0.74899912 0.57451165 0.19024527 1448238
0.75109941 0.57592237 0.18962854 1383209
0.74380749 0.57025778 0.1894142 657933
0.74571359 0.57421911 0.1893056 1644842
0.74684966 0.57577688 0.1884445 1580334
0.7403636 0.57034189 0.18667707 592140
0.74118078 0.57220304 0.18790501 987162
0.74362767 0.57463181 0.18746212 1580078
0.74530172 0.57701373 0.18710983 1382949
0.73777348 0.57104498 0.18583304 592140
0.73930788 0.57351637 0.18632856 1381927
0.74068141 0.57556897 0.1862123 1711403
0.74282146 0.57692432 0.18653613 1448486
0.73497665 0.57113934 0.184953 592143
0.73717207 0.57502806 0.18510377 1908011
0.73863763 0.57676423 0.18444881 1382952
0.73135793 0.57083219 0.18403029 526352
0.73309267 0.57370752 0.18357876 1447719
0.73415279 0.5763225 0.18322122 1711404
0.73572695 0.57778382 0.18329042 1449008
0.7260071 0.56853461 0.18103144 1118487
0.72776061 0.56971657 0.18204328 657688
0.72957307 0.57334065 0.18203974 1446958
0.73028135 0.57450199 0.18253797 1381928
0.73224986 0.57692742 0.18178356 1580079
0.73394942 0.57838261 0.18150616 1515059
0.72363877 0.56908983 0.18095154 1184538
0.72565281 0.56964111 0.18222749 591896
0.72685844 0.57335418 0.18080527 1184310
0.72844827 0.57606566 0.18066683 1513517
0.72990423 0.57894146 0.18011737 1449263
0.71963346 0.56701696 0.17905742 3355197
0.72100246 0.56942356 0.18031842 1512994
0.72300732 0.5731616 0.17992651 1249858
0.72451079 0.57491696 0.17929479 1184311
0.72563016 0.57682872 0.1795935 1316655
0.72784716 0.57905728 0.17911118 1383216
0.716977 0.56643039 0.1775195 2828327
0.71719146 0.56834984 0.17915189 2829361
0.71913886 0.57120073 0.17737579 3686473
0.72031224 0.57355201 0.17833519 1579067
0.72212869 0.57603312 0.17819664 1250614
0.71175277 0.56578875 0.17640701 1578265
0.71387565 0.56655204 0.17743534 2499622
0.71498513 0.57121885 0.17662215 4410205
0.7169255 0.57203007 0.17790672 2895426
0.71841592 0.57481241 0.17640549 2172226
0.71942973 0.57647038 0.17735302 1250874
0.7094506 0.56613207 0.17639422 1643805
0.71158659 0.56856471 0.17607668 2960965
0.71318865 0.57084233 0.17558134 4278364
0.71472204 0.57393843 0.17523062 3357520
0.71604657 0.57551128 0.1763401 1909313
0.70645827 0.5651387 0.17443699 1183765
0.70709538 0.56605226 0.1766066 1577755
0.7090956 0.57003546 0.1743798 2830422
0.7109803 0.57261902 0.17445731 4081754
0.71242583 0.57437581 0.17480177 4015960
0.70223832 0.56452429 0.17287496 1184023
0.7040323 0.56482452 0.17391998 1184022
0.70516384 0.56914932 0.17283797 2170431
0.70667756 0.5715093 0.17347723 2962002
0.70836663 0.57308519 0.1732325 3817812
0.70932889 0.57500958 0.17470962 4476768
0.69955087 0.56518835 0.17235106 1052692
0.70115137 0.56838667 0.17090195 1973815
0.70269656 0.57012153 0.17202681 1973818
0.70454204 0.57235372 0.17177397 2567238
0.7057873 0.57367897 0.17328638 4805208
0.69562566 0.56517416 0.17076141 986649
0.69774574 0.56559205 0.17087936 1315618
0.69892299 0.56866455 0.17054504 1974329
0.70080817 0.57149982 0.17082316 2040378
0.70234954 0.57285047 0.17152125 2632772
0.69335604 0.56545264 0.16999051 789269
0.69507068 0.56756318 0.16931307 1645369
0.69690228 0.57017601 0.16901261 1909047
0.69839299 0.57160664 0.16929013 2434623
0.68983042 0.56490767 0.16815454 131610
0.69149053 0.56666279 0.16800088 724262
0.69283414 0.56906533 0.16762006 1645875
0.69458222 0.57077426 0.16837907 2171963
0.6852842 0.56409538 0.16715825 1908573
0.68776661 0.56478077 0.16660929 3224410
0.68898332 0.56760776 0.16668683 526644
0.69083583 0.57001746 0.16683066 1514291
0.68320173 0.56414831 0.16549134 7831450
0.6852361 0.56618071 0.16528612 4014964
0.68677115 0.56994516 0.1651389 593201
0.68803209 0.57059646 0.16467565 724786
0.67923719 0.56345731 0.16558141 10792120
0.68085635 0.56389874 0.16590339 8556435
0.68280059 0.56694311 0.16406441 6252692
0.68456399 0.57010919 0.16439694 659513
0.6795646 0.56673563 0.16298032 10726355
0.68095601 0.56995833 0.16243464 4674176
0.68225956 0.570508 0.1626634 3160668
0.67645454 0.56698608 0.16169101 11844843
0.67840564 0.57029438 0.16173357 6714014
0.67337668 0.56759751 0.16154617 12173547
0.67404169 0.56919026 0.15966213 11844835
0.67542756 0.57017386 0.16080707 10726348
1.1551542 0.55272186 0.37347189 3226456
1.1566427 0.55491185 0.37329572 2768754
1.152689 0.55153942 0.37273115 2373731
1.1545594 0.5535273 0.37246466 3030366
1.1550584 0.55581945 0.37188047 3294060
1.1501529 0.55238634 0.37124354 1977947
1.1516817 0.55496848 0.37113512 2700893
1.1528544 0.55695009 0.37083837 3226989
1.1478498 0.55378002 0.36964354 1186878
1.1491015 0.55693573 0.36969382 1910344
1.1504825 0.55863297 0.36900201 2370908
1.145905 0.55560338 0.36782914 858174
1.1464243 0.55678701 0.36840969 2106682
1.1484699 0.55956674 0.368085 1976402
1.1434733 0.55721378 0.36691689 1121101
1.1443859 0.55817723 0.36653471 2238270
1.146155 0.56111556 0.36653924 2174299
1.140803 0.55807447 0.36547732 1646922
1.1422596 0.56050265 0.36520243 2305104
1.143904 0.56196737 0.36542696 2305887
1.1372374 0.55712754 0.36402571 1318994
1.1389984 0.55901134 0.36444208 2107456
1.1405951 0.56205446 0.36395401 2371679
1.1345358 0.55724376 0.36300945 1318992
1.1359699 0.56061375 0.36274648 2239561
1.1379712 0.56210506 0.36263037 2305886
1.1312478 0.55784845 0.36223948 1318988
1.1325438 0.55893821 0.36110839 1647431
1.1344223 0.56200475 0.36113647 2437210
1.1284852 0.55825138 0.35984182 1252689
1.1303248 0.56093013 0.3605051 2239299
1.1316274 0.56247246 0.35981792 2437216
1.124681 0.55816191 0.35855395 1187153
1.1264863 0.55935121 0.35857591 1712714
1.1279373 0.56194341 0.35876235 2305363
1.1294488 0.56287378 0.35942402 2633821
1.1220245 0.55830985 0.35754681 1187152
1.1241089 0.56074166 0.35717931 1976649
1.1256831 0.56254727 0.357492 2371422
1.1197679 0.55970466 0.35555315 1647175
1.1217722 0.56212699 0.35611299 2305625
1.1235474 0.56307399 0.35668036 2568544
1.1171429 0.55904067 0.35510597 1187154
1.1177242 0.56110907 0.35429007 2173514
1.1193449 0.56303859 0.35466948 2502754
1.1138532 0.55921531 0.35372657 1252689
1.1155149 0.56208724 0.35325634 2305367
1.1169437 0.56357992 0.35388035 2568800
1.1102362 0.55907214 0.35189384 1187150
1.112062 0.56101424 0.35227966 1910594
1.1128461 0.56298792 0.35181606 2371683
1.1074662 0.55967635 0.35099909 1450062
1.1092175 0.56191909 0.35056821 2174288
1.1106669 0.5638504 0.35078475 2568802
1.1040249 0.5589301 0.35008946 1252690
1.1056881 0.56126374 0.34911704 2042445
1.107357 0.56353444 0.349749 2437218
1.1094824 0.56382126 0.34870505 2699363
1.0998354 0.55842078 0.34846923 1318477
1.1019824 0.559057 0.34810466 1515856
1.1031446 0.56189728 0.34847003 2174292
1.1048291 0.56444955 0.34768647 2502498
1.0980022 0.55857664 0.34664923 1318227
1.099426 0.56152833 0.34689975 2174028
1.1011117 0.56346595 0.34686136 2371683
1.1031165 0.5645839 0.34575477 2502754
1.0956166 0.55965322 0.3458018 1581392
1.0971751 0.56206226 0.34566265 2240085
1.0987997 0.56428486 0.34522131 2437475
1.0926288 0.55888319 0.34469074 1449554
1.0935982 0.56141901 0.34437254 2304837
1.094523 0.56312156 0.34395117 2371678
1.0965605 0.56448001 0.34401807 2502756
1.0890212 0.55997926 0.34301534 1582154
1.091208 0.56216043 0.34293145 2305617
1.0926168 0.564372 0.34279945 2437219
1.0858977 0.55962962 0.3420054 1318738
1.0866004 0.56086183 0.34140694 1976647
1.0888537 0.56357348 0.34116948 2371935
1.0901598 0.564632 0.34226614 2437477
1.0831301 0.56015301 0.34026554 1516111
1.0845377 0.56262887 0.34013397 2240343
1.0862935 0.56406224 0.34007794 2371685
1.0795333 0.55997062 0.33854824 1384530
1.0809124 0.56085038 0.33853441 1911113
1.0829583 0.56382036 0.33878154 2371934
1.0775404 0.56056964 0.33762333 1647692
1.0780678 0.56119347 0.33757395 2305347
1.079911 0.56438124 0.33727872 2437475
1.0722525 0.56032026 0.3370384 1450327
1.0747833 0.56094229 0.33616227 1844812
1.0763494 0.56463575 0.3360669 2437476
1.0711935 0.56067908 0.33461696 1647442
1.0720437 0.56161636 0.33502793 2370883
1.0737183 0.56456691 0.3344844 2437476
1.0686035 0.56121933 0.33360118 1910088
1.0703809 0.56444162 0.33318543 2371684
1.0720946 0.56465423 0.33344242 2437220
1.0650628 0.56067508 0.33211237 1384525
1.0660708 0.56201279 0.3322292 2173763
1.0677013 0.56456995 0.33212882 2240095
1.0627209 0.56148642 0.33094329 1647686
1.0640919 0.56450474 0.33061424 2108765
1.0654905 0.56515253 0.33149385 2173531
1.0588682 0.56140506 0.32986808 1450071
1.0601907 0.56203747 0.32966346 1845319
1.0614936 0.56495112 0.32963133 2174045
1.0565948 0.56176317 0.32815939 1845065
1.0574931 0.56439275 0.32797503 2305886
1.0594286 0.56571537 0.32828355 2173788
1.0521879 0.56163108 0.32650176 2042191
1.0537163 0.56245589 0.32717288 2108238
1.0556192 0.56507421 0.32666326 2240094
1.0504575 0.56161743 0.32558608 1976395
1.0518615 0.56486011 0.32477048 2306393
1.0531735 0.56582785 0.32604 2174045
1.0460781 0.56197327 0.32402056 1778526
1.0473912 0.5617792 0.32431999 2042187
1.049413 0.56522179 0.32434186 2305630
1.0439506 0.56195068 0.32283965 2107465
1.0456831 0.56484354 0.32294029 2437213
1.0467858 0.56571782 0.32290494 2304348
1.0404874 0.56169832 0.32139021 2174272
1.0414033 0.562437 0.32182798 1844816
1.0433578 0.56562984 0.32138672 2174039
1.0380304 0.56256264 0.32035339 2042440
1.0391492 0.56415701 0.32001114 1845337
1.0405707 0.56589645 0.31994975 2042454
1.0355259 0.56288338 0.31920499 1911122
1.037236 0.56576157 0.31882885 2042710
1.0306282 0.5626601 0.31762663 2371909
1.0330141 0.56358576 0.31772462 1977174
1.0349257 0.56566113 0.31742513 2108250
1.0294633 0.56324506 0.31612831 1976658
1.0314232 0.56584841 0.31607389 2174294
1.0253701 0.56323314 0.31492478 2568263
1.0269563 0.56424749 0.31486535 2042452
1.0288526 0.56599849 0.31543663 2108501
1.0231577 0.56340486 0.31366152 2174029
1.0251198 0.56594461 0.31363565 2173784
1.0189829 0.56294811 0.31252491 2372169
1.0204141 0.56397367 0.31188306 2042706
1.0223792 0.56629813 0.31227073 2173785
1.0150137 0.56236643 0.31079501 2437704
1.0171309 0.56311584 0.31087238 2174286
1.0184518 0.56572038 0.31081402 2107733
1.0203137 0.56689423 0.31104419 2107473
1.013468 0.56251281 0.30977961 2371907
1.0142817 0.56484818 0.30926085 1910614
1.0156074 0.56617534 0.30932733 2107731
1.010541 0.5632726 0.30792505 2174539
1.0122075 0.56583852 0.30825719 2042203
1.007488 0.56274122 0.30720291 2372171
1.0083247 0.56521457 0.30690855 1910621
1.0098791 0.56643498 0.30705896 2174298
1.004377 0.56254995 0.30570269 2372427
1.0059512 0.56614435 0.3053883 2174045
1.0081993 0.56645024 0.30591899 2173281
1.000723 0.56344032 0.30403519 2242124
1.0022722 0.564744 0.30467612 2174038
1.0035526 0.56705379 0.30406192 2305625
0.99855149 0.564008 0.3032141 2174801
1.0003188 0.56634557 0.30278885 2174042
1.0018464 0.56742358 0.30336016 2238812
0.99409699 0.56360424 0.30116454 2437971
0.99599409 0.56458104 0.30150539 2174545
0.99803102 0.56726873 0.30193204 2305114
0.99214137 0.56463552 0.30049554 2437456
0.99393725 0.56630707 0.3003256 2174043
0.99574929 0.56727064 0.2999095 2305116
0.99032474 0.56526637 0.29874051 2239823
0.99148428 0.56730556 0.29879183 2239836
0.98651105 0.56481421 0.29721349 2371917
0.98750484 0.56576478 0.29748979 2174038
0.98888707 0.56754839 0.29771742 2239578
0.9842056 0.56513345 0.29676038 2239830
0.98556083 0.56769228 0.29621804 2305114
0.97991568 0.56446397 0.29526666 2437967
0.98120773 0.56538326 0.29516169 2173785
0.9827733 0.56788146 0.29517704 2305628
0.9751569 0.56451488 0.29440373 2504022
0.97767806 0.56529129 0.29364425 1779545
0.97969466 0.56771052 0.29358214 2370905
0.97386909 0.56431413 0.29297623 1912147
0.97538066 0.56587183 0.29214281 1976664
0.97668397 0.56790578 0.29254889 2436700
0.97136956 0.56537211 0.29103965 1779794
0.97334671 0.56733823 0.29098773 2239319
0.96771944 0.56444764 0.29018581 2307162
0.96913666 0.56613952 0.28937909 1779796
0.97081971 0.56781065 0.29015261 2239315
0.96385121 0.56396341 0.28784513 2240844
0.9651587 0.56483257 0.28889245 1647957
0.96712089 0.56717467 0.28839457 1845073
0.96151829 0.56346184 0.28742737 2371405
0.96294057 0.56627476 0.28687406 1449812
0.96433687 0.56849384 0.286901 2173518
0.95930576 0.56586456 0.28618485 924236
0.96070719 0.5675351 0.28570187 1910350
0.95667231 0.56611896 0.28424788 1384272
0.95804226 0.56851226 0.28417099 1976397
0.95297492 0.56570029 0.28334597 1252940
0.95481718 0.56795472 0.28303564 1975886
0.95597339 0.5690791 0.28354749 2371155
0.94898713 0.56555068 0.28090465 990284
0.95110381 0.56634867 0.28166467 1581392
0.95230085 0.56914306 0.28172237 2173518
0.94683778 0.56607544 0.28057843 1318736
0.94833732 0.56752336 0.28025034 1844303
0.94964838 0.5696429 0.28042871 2239312
0.94450974 0.56683683 0.27902806 1516107
0.94610596 0.5688988 0.27861494 1976394
0.94784266 0.56988412 0.27904052 2436687
0.9408704 0.56593609 0.27775985 990784
0.94213605 0.56789947 0.27775341 1712971
0.94382155 0.57006264 0.27741483 2305103
0.93808937 0.56687385 0.27654675 1450317
0.9398334 0.56897825 0.27627736 1976141
0.94145828 0.57049334 0.2772634 2239313
0.93456167 0.56603634 0.27535015 1056075
0.93602782 0.56783926 0.27510154 1976143
0.9372282 0.56982851 0.27508092 2305357
0.93179798 0.56697422 0.27335075 1581901
0.93364644 0.56932676 0.27364603 2042186
0.92861629 0.56613207 0.27270585 1187404
0.92987597 0.56778359 0.27263182 2107736
0.93053675 0.57004476 0.27242061 2370902
0.92598236 0.56676298 0.27118674 1779281
0.92764741 0.56895721 0.27102146 2370901
0.92246228 0.56587577 0.27021676 1121604
0.92388254 0.56812698 0.26938826 2107984
0.92535126 0.57004869 0.26942104 2370899
0.91856945 0.56568611 0.26797956 1121602
0.92041528 0.56735843 0.26865771 1975889
0.92090958 0.56941426 0.26838437 2107980
0.92319995 0.5702877 0.26854318 2305360
0.91635549 0.56583256 0.26752901 1055811
0.91749823 0.5688765 0.26684946 2042185
0.91888237 0.56976962 0.26694679 2107977
0.91359806 0.56624359 0.26597068 1055550
0.9153682 0.56956375 0.26600808 1910599
0.91617322 0.57070518 0.26485544 2107719
0.90966535 0.56671566 0.26460072 989499
0.91154909 0.56828439 0.26458257 1581634
0.91299683 0.57054859 0.26439515 1844803
0.90743816 0.56760883 0.26310524 1318212
0.90946776 0.56969368 0.26293927 1844803
0.91046613 0.57113767 0.26308289 1844806
0.90399635 0.56669337 0.26147932 1055814
0.90504235 0.56808448 0.26222742 1778509
0.90704161 0.57074052 0.26180905 1910602
0.9014951 0.56714892 0.26066685 1581641
0.90316349 0.56976211 0.26041383 2107468
0.90400362 0.57125968 0.26058954 1976389
0.89802283 0.56629419 0.25941998 1121344
0.89855492 0.56755054 0.2593829 2107466
0.9004823 0.57090437 0.25888196 1976387
0.89360422 0.56630397 0.25778642 1187129
0.89524877 0.56704164 0.25828385 1647172
0.89710701 0.56956267 0.25774249 1976393
0.89770269 0.57207799 0.25818518 1844801
0.8911041 0.56633317 0.25671369 1318462
0.89273071 0.56885946 0.25637618 2042185
0.89430875 0.57081014 0.25683504 1976391
0.89655334 0.5717833 0.25594062 1976384
0.88926041 0.56711096 0.25555012 1581634
0.89047134 0.57004201 0.25515246 2042191
0.89202654 0.57202613 0.25515503 1976128
0.885315 0.56666297 0.25401425 1384007
0.88668263 0.56880718 0.25400126 2107723
0.88853085 0.57120919 0.25377491 2107464
0.88287425 0.56716359 0.25293016 1450306
0.88430285 0.57035363 0.25254273 2108241
0.88590938 0.572227 0.25251743 2042180
0.87895465 0.56681085 0.25162029 1252668
0.88074666 0.56820607 0.25141829 1779010
0.88175166 0.57096976 0.25142026 2042190
0.88343614 0.57269299 0.2505247 2041926
0.87671149 0.56756377 0.24966663 1449281
0.87821811 0.56980234 0.25007311 1976390
0.87998682 0.57245612 0.24972159 2041666
0.87341601 0.56678712 0.24881896 1252415
0.87425101 0.56876993 0.24882704 1844547
0.87628543 0.57155728 0.24841017 1976389
0.87702423 0.57303143 0.24818033 1910078
0.87037152 0.56756198 0.24716443 1384512
0.87160182 0.57020724 0.2474131 1910852
0.8735193 0.57227552 0.24720904 1910596
0.86683047 0.56743896 0.24569732 1384518
0.86797929 0.56819654 0.24653393 1712966
0.87012196 0.57159114 0.24604186 2042441
0.87154317 0.57341027 0.24584171 1844799
0.86388499 0.56790757 0.24477097 1581640
0.86518919 0.56928647 0.24424207 2107466
0.86745733 0.57220626 0.24473983 2042187
0.86941099 0.57357979 0.245296 1845060
0.85965109 0.56729305 0.24280301 1384000
0.86213529 0.56852937 0.24326292 1712708
0.86400986 0.57208055 0.2430599 2173516
0.86500549 0.57340121 0.24359208 2172996
0.85778081 0.5676949 0.2416155 1383747
0.85952789 0.57012033 0.24180669 1975875
0.86152124 0.5721035 0.24193364 2107975
0.85530806 0.5686301 0.24062124 1515587
0.85771346 0.57153654 0.24051678 2042181
0.85934335 0.57304943 0.24057829 1910845
0.85197437 0.56875885 0.23960003 1449795
0.85353518 0.56977868 0.23920387 1844804
0.85527259 0.57228971 0.23914856 2042180
0.8493644 0.56917095 0.23792487 1844038
0.85145962 0.57122272 0.23801297 2108234
0.85308647 0.57386088 0.23792309 1910846
0.84599108 0.56896287 0.23674476 1712454
0.8477205 0.57008994 0.23652214 2041671
0.84892964 0.57227141 0.23669785 2107975
0.85040653 0.57414734 0.2370317 1976383
0.84343064 0.56933028 0.23548222 1910079
0.84507298 0.57157272 0.23529828 2107983
0.84638727 0.57398784 0.23499531 2041925
0.83982152 0.56910467 0.23356584 1647167
0.84139478 0.56926727 0.23411542 1647168
0.84206927 0.57272708 0.23388013 2042186
0.84353769 0.5743494 0.23330978 1976379
0.83772546 0.56967282 0.23305982 1844290
0.83912337 0.57212627 0.23259154 2173518
0.84068608 0.57403564 0.23206443 1976123
0.83455586 0.56995094 0.23125115 1844039
0.83624363 0.57262826 0.23132026 2107727
0.83816087 0.57413322 0.23188391 1976384
0.83157098 0.56987828 0.23026335 1909824
0.83317661 0.57180101 0.22991061 2173260
0.83503413 0.57458401 0.22952372 2041923
0.8285979 0.57007742 0.22819945 1712189
0.83021522 0.57319546 0.2281341 2107461
0.8319416 0.5749172 0.22881943 2107453
0.82542217 0.57041442 0.22736421 1646135
0.82700622 0.57188743 0.22772837 1976386
0.82851899 0.57461894 0.2272602 1975868
0.82247913 0.57057548 0.22601584 1581107
0.82426637 0.57303107 0.22606918 1845058
0.82540452 0.57502592 0.22592872 1910074
0.81861508 0.57070822 0.22482821 1515065
0.8201009 0.5714547 0.22497761 1646648
0.82222784 0.5745489 0.22446486 1713209
0.81678015 0.57101095 0.22341764 1580597
0.81849825 0.57311976 0.22314399 1647422
0.81996828 0.57576287 0.22317445 1712693
0.81213653 0.57040989 0.22160113 1382962
0.81427407 0.57175767 0.22210085 1646649
0.81575125 0.57418883 0.22159797 1712700
0.81795216 0.5758782 0.22192168 1777972
0.81062961 0.57113886 0.22076619 1646131
0.8123647 0.57379138 0.22070834 1778246
0.81406987 0.57500029 0.22102109 1712438
0.80598032 0.57120073 0.2192972 1514288
0.80853224 0.57169801 0.21974346 1777972
0.80960071 0.57424343 0.21935254 1712443
0.80428714 0.57148421 0.21819249 1514543
0.80580741 0.57380033 0.21812063 1712441
0.80676889 0.57454741 0.21664411 1711924
0.80009669 0.5712148 0.21656358 1317168
0.80219436 0.57186306 0.21697807 1449007
0.80331957 0.57460177 0.21680138 1581112
0.79795229 0.57150924 0.21536911 1251635
0.79983151 0.57390404 0.21524221 1515573
0.80139828 0.57459712 0.21581572 1580852
0.79599166 0.57195777 0.21421331 1448755
0.79744965 0.57454348 0.2139771 1515318
0.79227823 0.57188094 0.21291289 1382704
0.79379624 0.57352948 0.21255344 1580600
0.79496026 0.57522213 0.21276534 1514799
0.78979754 0.57261467 0.21107718 1383470
0.79113781 0.57455224 0.21105039 1515316
0.79316306 0.57566535 0.21072775 1514794
0.78746629 0.57338679 0.21016103 1514803
0.78849041 0.57548237 0.21015698 1449264
0.7835269 0.57281905 0.20923185 1580338
0.78502989 0.57465851 0.20865569 1515061
0.78121579 0.57365173 0.20741802 1449008
0.78290957 0.57496017 0.20708099 1449006
0.77701402 0.5729025 0.20616323 1645614
0.77900517 0.57490671 0.20588467 1449522
0.77328259 0.57268322 0.20474756 1251625
0.77522409 0.57340229 0.20444721 1449004
0.77638221 0.57534951 0.20500344 1383471
0.7713356 0.57317388 0.20354834 1580337
0.77255982 0.57527363 0.20338407 1383475
0.76846474 0.57400978 0.20207274 1580340
0.77015448 0.57530993 0.20218581 1449267
0.76549482 0.57339847 0.20085657 1645873
0.76712346 0.5752095 0.20040008 1580596
0.76034629 0.57142782 0.19924763 920853
0.7625919 0.57407624 0.19954222 1646131
0.76403111 0.57570869 0.19953522 1515059
0.7569524 0.57127738 0.19751215 855058
0.75907379 0.5727911 0.19833773 1316389
0.76055276 0.57525706 0.19834477 1580849
0.75477004 0.5708549 0.19717097 723729
0.75674057 0.57390803 0.19722745 1580077
0.75791818 0.57576847 0.19691601 1449262
0.75123763 0.57147968 0.1967153 789516
0.75274992 0.57288003 0.19556892 1184797
0.75417352 0.57496297 0.19563982 1580588
0.75554883 0.57633835 0.19440067 1448741
0.74735707 0.57040489 0.19416082 723724
0.7494185 0.57092857 0.19447491 658186
0.75019228 0.57454568 0.19396979 1448235
0.75222027 0.57617736 0.19394174 1383205
0.74519503 0.57055759 0.19336241 723723
0.74594158 0.57421625 0.19257367 1512998
0.74816561 0.57525301 0.19288826 1645870
0.75046515 0.57616478 0.19274634 1448483
0.74233699 0.57030427 0.19175547 657933
0.74398112 0.57471985 0.1915231 1579816
0.7459718 0.57647705 0.19149593 1448492
0.73912597 0.57057077 0.1903615 657933
0.74242848 0.5751695 0.18995547 1580335
0.7425071 0.5774641 0.18977851 1317412
0.73568141 0.57124388 0.18898427 657932
0.73831415 0.57454562 0.18914905 1579819
0.73961115 0.57654089 0.18889043 1514540
0.73251218 0.57137573 0.18821695 657930
0.73404944 0.57335746 0.18733525 1119007
0.73588622 0.57569742 0.18765584 1645870
0.73693132 0.57703578 0.18685412 1448749
0.7300359 0.57143462 0.18623918 592139
0.73188537 0.57387823 0.18613598 1447720
0.73355019 0.57714689 0.18580517 1580081
0.72738039 0.57085413 0.1848129 526605
0.72750401 0.57454389 0.18507969 1512995
0.72972596 0.57626808 0.18481159 1580073
0.73105538 0.5776 0.18475091 1514544
0.72226304 0.57049143 0.18357229 526354
0.72446823 0.57084846 0.1840288 526350
0.72591972 0.57451707 0.18341792 1447718
0.7275492 0.57687986 0.18345064 1580331
0.72983313 0.57836354 0.18247867 1580850
0.72016823 0.57044154 0.18300846 526358
0.72188479 0.57404202 0.18228287 1250349
0.72327876 0.57662743 0.18202165 1580076
0.72517407 0.57749975 0.1822207 1317161
0.71624506 0.56987256 0.18064302 1119265
0.71812415 0.57030678 0.18153077 526876
0.71944749 0.5742985 0.18100604 1316148
0.72106314 0.57660007 0.18095043 1448240
0.71246064 0.56911922 0.17955571 2829367
0.71444988 0.56923234 0.1797809 2434605
0.71568799 0.5732007 0.17920667 1644349
0.71731061 0.57648408 0.17915654 1513783
0.71879649 0.57731545 0.17951351 1316149
0.70805979 0.56782472 0.17883116 3684674
0.71024823 0.56870556 0.17905754 3355197
0.71188051 0.57319409 0.17812699 2499905
0.71313751 0.57534397 0.17786518 1381951
0.71525013 0.57686615 0.17815539 1316153
0.70533311 0.56626952 0.17703342 2038820
0.70676625 0.56702948 0.17785436 3157822
0.7095468 0.5732109 0.17673269 3817558
0.71149611 0.57546526 0.17693025 1974594
0.71300554 0.57707858 0.17810687 1184816
0.70112884 0.5657264 0.17519116 1118228
0.70266557 0.56616223 0.17654425 1578013
0.70420396 0.57088816 0.17519832 4212317
0.705167 0.57211107 0.17604956 4607071
0.70708787 0.57445878 0.17565244 3817303
0.7091676 0.57601237 0.17613387 3092813
0.69874191 0.56646144 0.17498958 1249300
0.70142347 0.5703755 0.17429176 3355978
0.70344949 0.57360381 0.17415008 4147542
0.70566046 0.57511717 0.17549264 4146516
0.69576252 0.56674135 0.17388803 1118226
0.69810915 0.56954044 0.17367566 2171201
0.69931412 0.57199705 0.17344519 2896713
0.70121878 0.57419014 0.17383009 4607835
0.69289339 0.56617945 0.17256308 1249302
0.69398272 0.56863517 0.17179304 1974331
0.69545519 0.57115573 0.17188996 1974587
0.69782853 0.57288706 0.17205483 2961736
0.68841863 0.56523228 0.1703569 920597
0.69033682 0.5664705 0.17104346 1381406
0.69188762 0.56981498 0.17072505 1909050
0.69345963 0.57168704 0.17048731 2106427
0.68556178 0.56555808 0.16947216 591895
0.68761039 0.56808591 0.16937023 1711157
0.68987375 0.57115102 0.16917002 2040894
0.69168198 0.57260758 0.16977823 2369601
0.68281674 0.56486326 0.16865742 592423
0.68467647 0.56794024 0.16748917 921142
0.68551183 0.57005709 0.16860586 1843004
0.68721759 0.57152116 0.16796035 2172223
0.67838526 0.56355029 0.16632169 7830932
0.68046236 0.56551218 0.16635519 1909852
0.68109357 0.56791657 0.16693515 460859
0.68316531 0.57109594 0.16637176 1514554
0.67651474 0.56394887 0.165739 8685725
0.6776824 0.56729883 0.16553897 1976161
0.6793555 0.57063496 0.16485053 659251
0.68120545 0.5711661 0.1655913 1185333
0.67282367 0.56415594 0.1650089 11252682
0.67387867 0.56600875 0.16458571 8357538
0.67511165 0.56845963 0.16421801 3292264
0.67713106 0.57002604 0.16429597 725567
0.66977251 0.56465667 0.16392928 12568283
0.67160809 0.56726515 0.16350365 7766955
0.67369533 0.56963772 0.16315615 4082297
0.67532825 0.57035613 0.16285813 1648737
0.67008626 0.56867164 0.16175824 10068940
0.67068398 0.57020569 0.16174561 7042976
0.66618782 0.56802285 0.16027778 12502515
0.6678074 0.5691275 0.15993625 12634096
0.6683619 0.57125169 0.15994984 10990292
1.1527928 0.55143255 0.37593424 2045542
1.154696 0.55372822 0.3763538 3095126
1.1563628 0.55552506 0.37595791 3097199
1.150918 0.55256206 0.37511739 2110041
1.1531615 0.55470586 0.37465441 2832990
1.1540673 0.55634844 0.37508374 3359338
1.1492918 0.55357939 0.37351358 1713231
1.1499583 0.55618083 0.37363452 1845584
1.1520448 0.55761576 0.37376404 2832490
1.146775 0.55510497 0.3722752 792376
1.1486096 0.55691606 0.37222323 1910083
1.1494249 0.55945253 0.37198082 2304857
1.1448529 0.55646825 0.3706449 989508
1.1456013 0.55866104 0.37083244 1975618
1.1473655 0.56018221 0.37010863 1976918
1.142638 0.55792058 0.36997712 1186894
1.1433083 0.55955935 0.36961114 2041666
1.1450069 0.56155634 0.36912146 2239835
1.139832 0.5587945 0.36799312 1581387
1.1411602 0.56231916 0.36806935 2305630
1.1431413 0.56243539 0.36780325 2568289
1.136322 0.55818069 0.3664718 1318482
1.1375432 0.55986321 0.36665469 2172987
1.1389904 0.56239802 0.36639383 2305886
