# .PCD v0.7 - Point Cloud Data file format
VERSION 0.7
FIELDS x y z rgba
SIZE 4 4 4 4
TYPE F F F U
COUNT 1 1 1 1
WIDTH 1179
HEIGHT 1
VIEWPOINT 0 0 0 1 0 0 0
POINTS 1179
DATA ascii
0.464055 0.5815239 0.40299705 1185309
0.46500772 0.58463973 0.40241194 2041663
0.4674859 0.58542305 0.40274155 1975872
0.45967436 0.5802784 0.40118989 791068
0.46094161 0.58270764 0.40119737 2106166
0.46320736 0.58403921 0.40166718 1975872
0.45578128 0.57910258 0.4005681 593947
0.45776895 0.58150011 0.40044394 2040370
0.45964202 0.58279866 0.40023914 2172738
0.4520427 0.57811683 0.39882877 594203
0.45362502 0.58011198 0.39879698 1974314
0.45577025 0.58191925 0.39889443 2107204
0.44823688 0.57729971 0.39825276 594460
0.45029145 0.57819843 0.397973 1514019
0.45126134 0.58104151 0.39750704 2107459
0.44462746 0.57600826 0.39597684 660252
0.44634035 0.57771444 0.39669147 2039847
0.44765478 0.5802545 0.39635366 2107204
0.44037536 0.57466739 0.39550009 594461
0.44229332 0.57651061 0.39506203 1645602
0.4437595 0.57907844 0.39529973 2107197
0.44649798 0.57985622 0.39458701 2501440
0.43783575 0.57509589 0.39350992 659998
0.4393951 0.57787353 0.39366776 2172469
0.44127151 0.57886875 0.39354575 2239040
0.43438253 0.57453257 0.39289191 659997
0.43610254 0.57665408 0.39215338 2040622
0.43753839 0.57823992 0.39251244 2107459
0.43023288 0.57321322 0.39057234 660512
0.43209004 0.57489544 0.39120507 1580067
0.43368888 0.57721627 0.39139912 2238786
0.42631081 0.57199395 0.39028797 725789
0.42799833 0.57370442 0.39019039 1842981
0.42991865 0.57622814 0.38988185 2304322
0.4228673 0.57051462 0.38815549 791583
0.42433858 0.57248133 0.38897711 1974313
0.42596287 0.57526338 0.38857147 2370116
0.42802811 0.57598102 0.38898125 1976908
0.41873956 0.56983632 0.38777581 791840
0.42078057 0.57134497 0.3881928 1711909
0.42245504 0.5741607 0.38738737 2501443
0.42398497 0.57540524 0.38823697 2041934
0.41512474 0.56923699 0.38608903 792096
0.4168669 0.56967294 0.38691795 791840
0.41844472 0.57339644 0.38637328 2566718
0.42037532 0.57419211 0.38612479 2173260
0.41297415 0.56915414 0.38488922 857630
0.41423187 0.57185513 0.38487703 2434862
0.41610998 0.57341594 0.38477725 2304584
0.40891898 0.56842899 0.38397029 792094
0.4106521 0.57016236 0.38403386 1843237
0.41204557 0.57300508 0.38309628 2305099
0.40467462 0.56762123 0.38219514 857634
0.40656734 0.56934315 0.38221708 1843493
0.40865329 0.57199442 0.38210982 2501442
0.40093398 0.56633997 0.38153964 857890
0.40316308 0.56744981 0.38120666 1712166
0.40440071 0.5711019 0.38079309 2436165
0.40613505 0.57180524 0.38127896 2370636
0.39653718 0.56540918 0.38007843 989218
0.39906418 0.5660404 0.37956572 989219
0.40032426 0.56889904 0.38012716 2829619
0.4020769 0.57140011 0.38004953 2436429
0.39379996 0.56426245 0.37814638 1055013
0.39512041 0.56477892 0.37913829 989220
0.39681095 0.56814682 0.37834346 3157805
0.39809394 0.570095 0.37852338 2436426
0.400316 0.57094342 0.37777552 2699080
0.38926789 0.563232 0.37756509 1120550
0.39147106 0.56363183 0.37724295 1055014
0.3928687 0.56766921 0.37666744 3224110
0.39432579 0.56904817 0.37710932 2501960
0.39596766 0.57006431 0.37767723 2174286
0.38722083 0.56290913 0.37634408 1120808
0.3889209 0.56588656 0.37580952 2763570
0.39040548 0.56818962 0.37602031 2567758
0.39242786 0.56907749 0.37614554 2173780
0.38359836 0.56210947 0.37498182 1120807
0.38439655 0.56541401 0.37434655 3421233
0.38661811 0.56695282 0.37445143 2633545
0.38853922 0.56793046 0.37525228 2502227
0.38001966 0.56144035 0.37363452 1186342
0.38175359 0.56288457 0.37278086 2303790
0.38245979 0.56565785 0.37324139 2830404
0.38442421 0.56673396 0.37318397 2633295
0.37553754 0.56023896 0.37216648 1186600
0.37760487 0.56080568 0.37326199 1186343
0.37876245 0.56456262 0.37182429 2830406
0.38073689 0.56565875 0.37259886 2370899
0.37340242 0.55970603 0.37094641 1186858
0.37519738 0.56345904 0.37105489 3027520
0.37667415 0.56494176 0.37105328 2436690
0.36951095 0.55935502 0.37011033 1186857
0.37070221 0.56182027 0.36945987 3027258
0.37294474 0.56355858 0.36958951 2633808
0.36592963 0.55820286 0.36833048 1252650
0.367268 0.56140929 0.36844668 3684153
0.36899897 0.5630272 0.36802173 2699599
0.36128083 0.55764043 0.36704129 1252908
0.36338395 0.55926341 0.36689162 2501425
0.36462745 0.56194639 0.3674472 2830670
0.36626273 0.56337392 0.36678323 2568020
0.35831368 0.55662388 0.3659324 1318699
0.35966974 0.55726188 0.36687258 1253162
0.36088967 0.56059486 0.36593583 3093320
0.36337677 0.56205457 0.36565229 2633814
0.35589209 0.55700696 0.36438426 1318700
0.35679132 0.55950052 0.36452618 3224904
0.35923582 0.56109434 0.36463198 2305875
0.35183632 0.55632997 0.36378005 1384492
0.35389575 0.55787063 0.36372158 2699071
0.35552874 0.56007493 0.36300927 2633814
0.35728893 0.56126279 0.36255014 3027537
0.34954751 0.55704731 0.36174545 2370878
0.3515318 0.55899465 0.36191663 2765395
0.34531257 0.55632502 0.36108211 1844537
0.34727055 0.5580582 0.36059618 2896714
0.34164029 0.55515456 0.35970336 1779774
0.34373653 0.5567795 0.35951877 2765130
0.33801579 0.55327362 0.35836315 1516083
0.33917767 0.55568588 0.35804036 2830926
0.34124824 0.55700219 0.35794166 3618630
0.33420148 0.55239326 0.35713378 1450284
0.33580104 0.55488569 0.35637492 2896456
0.33745784 0.55604804 0.35696092 3618377
0.32972902 0.55217069 0.35564172 1516075
0.33162734 0.55341786 0.35561875 2568000
0.33336529 0.5548802 0.35582402 3027792
0.32772422 0.55212122 0.35425109 2370358
0.32940641 0.55403262 0.35430124 2896466
0.32409394 0.55153877 0.35364941 1910844
0.32560161 0.55291784 0.35296914 2896717
0.32030243 0.5496949 0.3516829 1581618
0.32193795 0.551943 0.35142627 2699334
0.32396081 0.55343896 0.35153949 2240343
0.31672165 0.54919213 0.35196131 1581870
0.31783172 0.55099511 0.35067156 2633281
0.3193756 0.55218381 0.35057682 2699603
0.31403115 0.5499391 0.3491075 2567997
0.31612352 0.55132622 0.34903583 2830676
0.31006846 0.54903448 0.34833217 2042168
0.31197935 0.55040234 0.34794909 2568018
0.31446767 0.55191129 0.34708121 2895954
0.30609602 0.54717207 0.34604552 1516589
0.30787563 0.54954875 0.34639937 2699594
0.30912974 0.55134773 0.346122 2895952
0.30265936 0.54614979 0.34549737 1516331
0.30377933 0.5483852 0.34567085 3355711
0.30576932 0.54992586 0.34567291 2765133
0.29871559 0.54557854 0.34465808 1516332
0.30022332 0.54764545 0.34373668 2895936
0.30201656 0.54931813 0.34418166 2502488
0.29639411 0.54643404 0.34271938 2435900
0.29823467 0.54777586 0.34278461 2634067
0.29239011 0.54518932 0.34146839 1844792
0.2940422 0.54671425 0.34162983 2765131
0.28904366 0.54410195 0.34022069 1450542
0.29022652 0.5453853 0.34039146 2633541
0.28456807 0.5432781 0.33925813 2502738
0.28659749 0.54433453 0.33898494 2370628
0.28071976 0.54211158 0.3375617 2370635
0.28284317 0.54330367 0.33801985 2304318
0.27472392 0.53853226 0.33669239 1187633
0.27693036 0.53972399 0.33632377 1450557
0.27859876 0.54196608 0.33635959 2370111
0.27307081 0.53913617 0.33548024 1187377
0.27490589 0.54086363 0.33556646 2173243
0.27587843 0.54216903 0.33478206 2435399
0.26923159 0.53805953 0.33371383 1055794
0.27091169 0.54010862 0.33394703 2041660
0.27274102 0.54143542 0.33373731 2370387
0.26491591 0.53711563 0.33285743 1121326
0.26725301 0.53833067 0.33263886 1516092
0.26866376 0.54054976 0.33235523 2435390
0.26320064 0.53726512 0.33164158 1318449
0.26449651 0.53977722 0.33139634 2435393
0.26653302 0.54050136 0.3314501 2303301
0.25990516 0.53643256 0.33060345 1450299
0.26092046 0.53891313 0.33015427 2304576
0.26331037 0.53999519 0.32941937 2435650
0.25537658 0.53576446 0.32892731 1384247
0.25704196 0.53750604 0.32893112 1844542
0.25867653 0.53889298 0.32856283 2566201
0.25107282 0.5346964 0.32807761 1054758
0.25329325 0.53600067 0.32757726 1646903
0.25476256 0.53758556 0.32766736 2238006
0.24749547 0.53382051 0.32655129 1515583
0.24933742 0.53500819 0.32623261 1712441
0.25131941 0.53659844 0.32624444 2172479
0.24333563 0.53240198 0.32472318 988963
0.24521084 0.53381068 0.32529956 1646903
0.24707334 0.53572726 0.32484853 2040624
0.24140701 0.53217548 0.32354078 1186607
0.2432225 0.53419447 0.32376567 2237751
0.24472404 0.53593171 0.32339925 1974592
0.23580675 0.53044569 0.32327467 988963
0.23808059 0.53163069 0.32243109 1120548
0.23918366 0.53355211 0.32256538 2172218
0.24106494 0.53464681 0.32253426 1974843
0.23384131 0.53069371 0.32165217 1252143
0.2352583 0.53224546 0.3211996 1843766
0.23666808 0.53437269 0.32061902 2107988
0.23016597 0.52911818 0.32016495 988708
0.23153278 0.53138852 0.31990021 1975091
0.23314981 0.53224403 0.31947827 2435390
0.22645624 0.52833527 0.31835455 922916
0.22766045 0.53003365 0.3187201 1646123
0.22919479 0.53106076 0.31828523 1909035
0.23160718 0.53405982 0.317509 1976659
0.22245729 0.52737451 0.31749675 922914
0.223772 0.52918237 0.31743738 1711659
0.22519869 0.53045011 0.31743053 2105895
0.21794523 0.52585411 0.31577766 988706
0.21976581 0.52757293 0.31632659 1645606
0.22157319 0.52912301 0.31639513 2040366
0.21586746 0.52680945 0.31495252 1777190
0.2175023 0.52839726 0.31437048 1777711
0.21229863 0.52570713 0.31325269 988704
0.21393217 0.52708328 0.31367993 1974569
0.20792472 0.5245443 0.3125543 1120291
0.21011356 0.52564853 0.31243622 1777190
0.21123379 0.52812839 0.31238869 1842742
0.2038509 0.52315378 0.31109357 1383717
0.20605762 0.52495414 0.31081465 1842984
0.20806125 0.52678716 0.31127676 2171439
0.20075518 0.52234447 0.30969435 1251877
0.20250905 0.52372891 0.30990973 1711658
0.20397243 0.52535534 0.31044546 1842996
0.1963778 0.52090847 0.30879822 1580839
0.19806346 0.52245915 0.30825815 1317160
0.20018825 0.52455509 0.30824101 2171437
0.194732 0.52119648 0.30738389 1251619
0.19554165 0.52365553 0.30672026 2105391
0.19752961 0.5248509 0.3070727 2696487
0.19094512 0.52025247 0.30629957 1448997
0.19223516 0.52271014 0.30648771 1645612
0.1933997 0.52440214 0.30659086 2631207
0.18646222 0.51994509 0.30508479 1449000
0.18853036 0.52167416 0.30475259 1382699
0.19093658 0.52445877 0.30405316 2696743
0.19273637 0.52535868 0.30407983 2696487
0.18291897 0.51840591 0.30358562 1317668
0.18476626 0.51966453 0.30323541 1383209
0.1869815 0.5221259 0.30322552 1711410
0.18787789 0.52418619 0.30368793 2630949
0.17900705 0.51716208 0.30246797 1317669
0.18075749 0.51876181 0.30240753 1251111
0.18265392 0.52109003 0.30201593 1974062
0.18367544 0.523655 0.30239001 2696487
0.17506307 0.51623517 0.30044329 1383459
0.17691952 0.51708931 0.30126342 1251620
0.17769933 0.51898688 0.30140716 1580079
0.17926231 0.5221017 0.30079892 2565414
0.1727065 0.51601142 0.29986113 1251619
0.17530201 0.51891065 0.29927939 1579827
0.17644359 0.52092534 0.29950958 2368296
0.16730236 0.51402181 0.29788339 922402
0.16916513 0.51525867 0.2981694 1185828
0.17020512 0.51808435 0.29767591 1514031
0.17236453 0.51976967 0.29849282 2039596
0.17422172 0.52079928 0.29833281 2565159
0.16146606 0.5092333 0.29811168 857132
0.16342917 0.51142567 0.29754627 988707
0.1654574 0.51319242 0.29720372 1054496
0.16700047 0.51588583 0.29659641 1449000
0.16801983 0.51884055 0.29759106 2236711
0.17014581 0.51996607 0.29686385 2564902
0.15629122 0.50579208 0.29623055 1449004
0.15884034 0.50741601 0.29638356 1514801
0.16014054 0.50991064 0.29612485 1252155
0.16195184 0.51221186 0.29652241 594233
0.16360989 0.51482463 0.29632175 1053993
0.16401549 0.51735026 0.29565382 1842469
0.1658625 0.51879138 0.29541522 2499618
0.15571778 0.50819725 0.29486361 1974838
0.15675762 0.51148707 0.29431689 2632242
0.15921839 0.51415479 0.29470438 1777448
0.16153099 0.51608336 0.29428259 2039840
0.15469375 0.51001823 0.29318872 2763054
0.63105667 0.59846956 0.47238463 8883118
0.62985742 0.59996343 0.4701542 2765649
0.63014531 0.60291672 0.46956444 14540774
0.62745464 0.60262293 0.46964553 2568018
0.62764317 0.60511214 0.46910432 9672639
0.62681669 0.60460299 0.4668766 5462657
0.62730128 0.60977536 0.46719366 12504038
0.62436557 0.60789591 0.46588558 1909574
0.62607795 0.61063516 0.46587169 8687034
0.62162006 0.60959691 0.4650178 659239
0.62319255 0.61091381 0.46406507 1581638
0.61787689 0.60863048 0.46298259 1053468
0.61945027 0.6098569 0.46307921 1185843
0.62062871 0.61137676 0.46339345 1448761
0.61551952 0.60915786 0.46178612 1251890
0.61735916 0.6108104 0.46184301 1580350
0.61099011 0.60868096 0.46079195 1448233
0.61302948 0.60952246 0.46068573 1514810
0.6144557 0.61105645 0.45996374 1909314
0.60944003 0.60923243 0.45926541 1317168
0.61065376 0.61040366 0.45900685 1646395
0.60721421 0.61008072 0.45823866 1053995
0.60794002 0.61128354 0.45632735 1317174
0.602319 0.61075103 0.45693624 1120053
0.60471153 0.61115742 0.45652273 856614
0.60616958 0.61291623 0.45584786 1054257
0.60061336 0.61126691 0.45508432 922148
0.60211736 0.61216909 0.45527881 922668
0.6041519 0.61389339 0.45462245 1120050
0.59643698 0.6107772 0.45442593 789782
0.59856784 0.61151463 0.45402741 922407
0.59996039 0.61420399 0.45347679 1120049
0.60217339 0.61485457 0.45353192 1185843
0.59452784 0.61065346 0.45278978 987940
0.59622484 0.61248285 0.45269901 988462
0.5976423 0.61449289 0.45199126 1120306
0.59070706 0.61021376 0.45143169 987943
0.59222853 0.61125666 0.45121521 1054253
0.59396541 0.6131134 0.45101452 1120308
0.5859983 0.60884386 0.45023212 856094
0.58848542 0.60998815 0.44999227 1054251
0.59005338 0.61225986 0.4496088 1185844
0.58263379 0.6073705 0.44822192 724246
0.58445632 0.60902494 0.44852796 1054253
0.58654189 0.61136413 0.44871688 1251636
0.58048558 0.60825688 0.44749063 988201
0.58246607 0.60992587 0.44768617 1186100
0.5849123 0.61110944 0.44670063 1251634
0.57689846 0.60673696 0.44610503 921370
0.57843089 0.60867077 0.44636059 1251893
0.58033228 0.60970187 0.44519985 1317178
0.57336104 0.60634834 0.4448629 921629
0.57452589 0.60807592 0.4446229 1251895
0.57668173 0.60929972 0.44547325 1186358
0.56928796 0.60519671 0.44378322 790038
0.57070196 0.60667795 0.44373202 1186097
0.5725829 0.60820037 0.44422066 1251894
0.56666517 0.60544443 0.44212246 1120303
0.56846207 0.60730469 0.44236833 1317430
0.56304985 0.60482162 0.44132444 1185838
0.56456155 0.60620368 0.44113997 1317687
0.55892789 0.60398716 0.43975544 1185839
0.56085336 0.6048969 0.43986973 1251376
0.55527604 0.60263848 0.43822101 1318202
0.55697417 0.6037879 0.4385429 1185580
0.5586431 0.60558516 0.43909401 1382967
0.55058002 0.60215849 0.43799889 1383989
0.55292845 0.60275429 0.43746483 1251631
0.55493212 0.60504049 0.43714514 1383221
0.54749113 0.60083461 0.43540737 1318460
0.54909706 0.60207254 0.43601784 1251631
0.55127436 0.60349506 0.43571815 1251114
0.54358327 0.5992043 0.43505588 1384254
0.54530776 0.60068637 0.43444654 1317683
0.54702717 0.60235715 0.43477756 1317167
0.54122621 0.59980345 0.43340987 1317682
0.54336846 0.60166848 0.43348572 1316907
0.54550737 0.60307169 0.43305993 1580602
0.535887 0.59674042 0.43222558 1450303
0.53738475 0.59826565 0.43229294 1383988
0.53896427 0.59993351 0.43209189 1317164
0.54070467 0.60259402 0.43162173 1646396
0.53338832 0.59694695 0.43053091 1383993
0.53502983 0.59893215 0.43110147 1382702
0.53659379 0.60172826 0.43023321 1711931
0.52809542 0.59417635 0.42870721 1449796
0.5296523 0.59561294 0.42980605 1383735
0.53145331 0.59768879 0.42969847 1382960
0.53309858 0.60046917 0.42960519 1712192
0.52605164 0.59516031 0.4283177 1317937
0.52742708 0.5969705 0.42798775 1448492
0.52910036 0.59907317 0.42822927 1712447
0.5311178 0.6002354 0.4275009 1777983
0.52197802 0.59396434 0.42668197 1450044
0.52363825 0.59568632 0.42719594 1383472
0.52504265 0.59809798 0.42702556 1778237
0.52763081 0.59966218 0.42755851 1843519
0.51963824 0.59565252 0.42558414 1316903
0.52130985 0.59640479 0.42554033 1646133
0.51741791 0.5953666 0.42466673 1514547
0.51966822 0.5962252 0.42435813 1909309
0.51134974 0.59354913 0.42342529 1448490
0.51407444 0.59448802 0.42342049 1448748
0.50961566 0.59335834 0.42211524 1514286
0.51210594 0.59384733 0.42138767 1778237
0.50579888 0.59279454 0.42087531 1514283
0.50778943 0.59322619 0.42037171 1646388
0.50158709 0.59183568 0.41998699 1184535
0.50351268 0.59282321 0.41922408 1580337
0.49980295 0.59207845 0.41827124 1514541
0.50094903 0.59299451 0.41719598 1975102
0.49613449 0.59099329 0.41692662 1645872
0.49749917 0.59222925 0.41636804 2040637
0.48998109 0.58797491 0.41627732 658965
0.4918021 0.58950311 0.41531041 1579819
0.49393746 0.59083211 0.41598776 1842998
0.48592699 0.5871824 0.4142386 396565
0.48848799 0.58854657 0.41425273 1449006
0.48981759 0.58998775 0.41447344 2040636
0.48267958 0.58579195 0.41284633 527637
0.48415333 0.58751988 0.41307837 1251366
0.48615229 0.58860028 0.41312891 1711922
0.47852081 0.58478457 0.41252971 462355
0.48045945 0.58642513 0.41189879 1251369
0.48211414 0.58796066 0.41136295 1712178
0.47625768 0.58512092 0.41049775 725530
0.47814548 0.5868234 0.41039819 1646125
0.47989464 0.58786947 0.41145423 1447708
0.47271407 0.5843004 0.4089002 922394
0.47446117 0.58553421 0.40945294 1580333
0.47601962 0.58749449 0.40890604 1779008
0.46873498 0.58261114 0.40773156 922395
0.47064421 0.58433306 0.40862727 1514281
0.47245041 0.58643472 0.40781903 1844288
0.46485567 0.58162296 0.40692934 988185
0.46636605 0.58324176 0.40673172 1317416
0.46822515 0.58544105 0.40648586 1910079
0.46035743 0.58073688 0.4051843 528158
0.4623692 0.58204776 0.40574917 1448487
0.46429649 0.58462727 0.40519872 1910082
0.45792165 0.57952827 0.40430593 528158
0.45911443 0.58124626 0.4042531 1448491
0.4602246 0.58329225 0.40394765 2041152
0.46183017 0.58428735 0.40309715 2369601
0.45520005 0.57981318 0.40321335 1053981
0.45619124 0.58210081 0.40255406 2106942
0.45857209 0.58357024 0.40307137 2435396
0.44858095 0.57740003 0.40214139 593950
0.4512412 0.57839537 0.40172529 988189
0.45291281 0.58097154 0.40184113 2041144
0.45513046 0.58205414 0.4015232 2435394
0.44725397 0.57759935 0.40047568 1119775
0.44881433 0.57972884 0.40034556 2237750
0.4506126 0.58108491 0.40047559 2172738
0.44344521 0.5760684 0.39905375 857119
0.44517252 0.57850456 0.3993592 2040626
0.44645566 0.58029431 0.39899108 2041666
0.43941584 0.57454818 0.39846992 659741
0.44074348 0.57777733 0.39794362 2237741
0.44228819 0.579175 0.39754176 2107457
0.43547803 0.57432532 0.39652604 659997
0.43727037 0.57574397 0.39567703 1514273
0.43884492 0.57816517 0.39632732 1975869
0.43195719 0.57380998 0.39655089 725534
0.43304813 0.57453001 0.39550287 659997
0.43496168 0.57728201 0.39518133 2238009
0.43719184 0.57831997 0.39485314 2107455
0.42966232 0.57324135 0.39375514 660252
0.43121916 0.5765273 0.39387047 2238264
0.43309331 0.57730287 0.39399916 2239045
0.42389262 0.57152551 0.39395982 726044
0.42574528 0.57213008 0.39310646 725788
0.42677334 0.5751422 0.39301664 2369333
0.42909279 0.57625008 0.39284241 2304322
0.420026 0.57023233 0.39182031 791840
0.42207161 0.57112503 0.39147827 1120289
0.42366129 0.57356316 0.39158329 2566190
0.42472273 0.57573664 0.39124778 2173511
0.42735183 0.57648629 0.39057103 2633282
0.41793516 0.56996995 0.39067468 791584
0.41979009 0.57229322 0.39057425 2303278
0.42086565 0.57475954 0.39008746 2239051
0.41462311 0.56916159 0.38856041 791840
0.41595519 0.57149529 0.38920611 2303018
0.41725981 0.57363439 0.38859367 2370119
0.40977997 0.56838495 0.38808692 791837
0.4123666 0.56921571 0.38809285 791839
0.41344276 0.57273591 0.38749641 2435650
0.41515377 0.57339674 0.38738334 2370379
0.40751451 0.56818217 0.38615924 857632
0.40916997 0.57157826 0.38654828 2632247
0.41088253 0.57276332 0.38601044 2370373
0.40340346 0.56763971 0.38527927 857630
0.40585807 0.56971657 0.38486317 2237735
0.40691116 0.57226318 0.38459602 2304588
0.40978852 0.57295346 0.38422301 2107982
0.3996501 0.56648397 0.38332546 857887
0.40204835 0.56884873 0.38388833 2566185
0.40305713 0.57137471 0.38369825 2435913
0.40450251 0.57247531 0.38325876 2042445
0.3954868 0.56554949 0.38287055 923169
0.39767763 0.56727391 0.38220704 1974566
0.39944503 0.57039785 0.38222066 2436165
0.40066171 0.57104981 0.38309708 2698570
0.39248681 0.56416732 0.38086373 989221
0.39433208 0.56668162 0.3819063 2040614
0.39532244 0.56900507 0.38085312 2764093
0.39706731 0.57033896 0.38137895 2305100
0.38814631 0.56280684 0.3801387 1055013
0.39048803 0.56359673 0.38040248 989478
0.39168033 0.56835002 0.37952343 2829883
0.39358443 0.56961828 0.38011137 2305099
0.38515782 0.56210899 0.3797403 1120294
0.38599291 0.56237388 0.37893566 1120550
0.38720655 0.56712884 0.3786954 2895676
0.38930428 0.56827259 0.37863922 2633032
0.38000089 0.56151414 0.37813202 1186084
0.38235733 0.56218046 0.37745073 1120549
0.38389161 0.56525517 0.37735251 2501691
0.38572681 0.56705499 0.3772538 2567754
0.37869647 0.56104529 0.37662232 1186085
0.38006857 0.56457663 0.37647039 3420981
0.38193706 0.56609893 0.37606421 2502222
0.38434449 0.56728745 0.37576696 2961486
0.37500465 0.56024212 0.37465614 1186343
0.37633336 0.56345177 0.37522021 3158842
0.37802988 0.56484258 0.37456569 2568012
0.37920091 0.56630099 0.37559095 2830413
0.37110531 0.55999321 0.37398243 1186601
0.37259692 0.56130815 0.37340638 2369583
0.3738541 0.56377566 0.37372923 2699084
0.3757593 0.56478482 0.37404275 2830669
0.36709359 0.55836868 0.37069765 1318186
0.36819035 0.5598858 0.37260675 1186857
0.36990076 0.56269884 0.37215087 2896198
0.37219915 0.56396556 0.3721661 2502226
0.36451504 0.55855638 0.37115458 1186858
0.36576363 0.56167191 0.3708936 3224640
0.36753368 0.56307739 0.37097332 2502482
0.36153364 0.55750459 0.37078679 1187115
0.36248732 0.56074905 0.36997449 3552827
0.36381108 0.56214648 0.36973429 2502482
0.36607021 0.56366783 0.36857805 2239829
0.35723487 0.55719525 0.36846218 1252908
0.35866392 0.55885679 0.36831549 2895670
0.36012328 0.56116486 0.3683838 2633551
0.3532069 0.55624944 0.36755896 1318697
0.35489738 0.55748022 0.36743391 2567219
0.3564043 0.55999315 0.36723092 2764880
0.34834111 0.55518758 0.36599651 1318700
0.35057971 0.55663365 0.36590034 2304303
0.35215044 0.55891675 0.36561388 2699345
0.35445043 0.55993605 0.36640665 3027285
0.34662339 0.55573529 0.36475208 1450549
0.34840941 0.55777937 0.3647489 2896717
0.35053539 0.55858213 0.36471874 2174553
0.34304458 0.55528361 0.36473206 1384488
0.3447116 0.55655199 0.3633585 2436416
0.34554175 0.55846989 0.36304539 2896467
0.33876041 0.55394638 0.36152312 1384745
0.34072679 0.5556553 0.36222073 2305083
0.34255007 0.55707556 0.36201468 3028043
0.33669284 0.55353785 0.36111319 1516086
0.33851805 0.55623931 0.36115834 2896461
0.33276898 0.55298883 0.359411 1713468
0.33474374 0.55525416 0.35955927 3027786
0.33711621 0.55561143 0.35893583 4078141
0.32885596 0.55197507 0.35854053 1450284
0.33032069 0.55398798 0.35796517 2896201
0.33252686 0.55510664 0.35872921 2961490
0.32455632 0.55127352 0.35667038 1581612
0.32653093 0.55299819 0.35712683 2436422
0.32842097 0.55387151 0.35709223 3355723
0.3231281 0.551992 0.35569608 2436417
0.32512376 0.55274069 0.35561514 2962508
0.31871614 0.55064613 0.35485461 2173498
0.3205685 0.55215746 0.35443839 2633805
0.31536895 0.54955685 0.35281736 1516335
0.31652507 0.55155569 0.35300878 2765135
0.31893417 0.55238974 0.35347116 3881273
0.31147024 0.54914939 0.3517791 1581871
0.31310013 0.55049831 0.35190785 2699077
0.31518543 0.55127037 0.35151538 2896205
0.30913976 0.54961932 0.35065106 2567486
0.31072441 0.55098134 0.35112873 2436951
0.30556279 0.5482949 0.34897175 2173748
0.30709869 0.54971153 0.34964389 2765132
0.30914447 0.5507949 0.34879488 2830667
0.30095533 0.5465216 0.34852657 1975855
0.30312744 0.5488503 0.34821221 2370889
0.30536288 0.5504986 0.34852597 2764620
0.29737905 0.5458191 0.34687203 1713974
0.29909357 0.54799139 0.34654284 2830669
0.30141026 0.54917276 0.34692639 2568020
0.29321036 0.54514682 0.34585026 1779258
0.29509494 0.54659694 0.34548551 2371151
0.2967726 0.54779345 0.34629786 3158336
0.29035148 0.54401278 0.3442021 1516079
0.29125604 0.54549658 0.34436223 2502214
0.2935752 0.54707891 0.34397605 3289657
0.28591421 0.54291832 0.34351167 1910853
0.28780556 0.54446822 0.34292716 2304831
0.28939283 0.54588622 0.34325543 3026750
0.28139332 0.54181856 0.34188154 2371680
0.28365067 0.54352272 0.34193525 2436162
0.28575861 0.54442054 0.34157157 2304840
0.27695951 0.53927946 0.34057611 1449518
0.27984396 0.54230851 0.34020343 2567491
0.28138146 0.54337078 0.34060943 2435650
0.27456698 0.53879803 0.33956048 1318447
0.27571106 0.54106987 0.33888471 1910593
0.27745602 0.54235733 0.33928818 2107451
0.27200079 0.53957915 0.33830363 1581359
0.27335611 0.54120094 0.33804765 2238787
0.27615586 0.54239923 0.33754429 2435656
0.26783076 0.53875387 0.33620343 1581887
0.26997975 0.54011393 0.33674753 2041403
0.27095395 0.54160988 0.33614859 2239588
0.26369867 0.53734893 0.33551127 1252915
0.26592565 0.53905714 0.33543438 1779261
0.26737997 0.54067564 0.33515173 2763827
0.26094514 0.53661376 0.33442268 1121068
0.26273626 0.53777486 0.33389464 1779258
0.26384136 0.54025728 0.33418387 2632764
0.25778836 0.53736937 0.33253306 1712436
0.25984377 0.53869838 0.33288026 2238784
0.25241998 0.53361201 0.33148628 2042961
0.2543081 0.53589892 0.33143985 1647423
0.25622162 0.53782201 0.33166459 2304060
0.2487815 0.53347063 0.33134219 2108251
0.25056729 0.53440416 0.33038175 1384763
0.25187859 0.53662628 0.330235 1777967
0.25367069 0.53784508 0.33072942 2500408
0.24646673 0.53377938 0.32897621 1581372
0.24799789 0.5355314 0.32942539 1777707
0.24975659 0.5371573 0.3284339 2237496
0.24265701 0.53255558 0.32727289 923427
0.24403267 0.53426337 0.32768637 1646644
0.24611223 0.53631669 0.32780194 2171705
0.23901451 0.53164828 0.3265214 923430
0.24049798 0.53358889 0.32645714 1778232
0.2422636 0.53489107 0.32608014 2106418
0.23512819 0.5307653 0.32565844 923431
0.23670675 0.5324856 0.32540098 1712694
0.23842116 0.53389347 0.32521567 2238279
0.23279102 0.53080547 0.32373437 1317934
0.23465872 0.53297901 0.32406029 2237749
0.22883454 0.52980769 0.32275733 1054756
0.23060626 0.53148323 0.32252377 1843249
0.23242639 0.53269297 0.32259437 2828583
0.22502327 0.5285235 0.32185757 988452
0.22676377 0.53085303 0.32158822 2040364
0.2287153 0.53165585 0.32043964 2762791
0.22065824 0.5277825 0.31977212 988707
0.22305377 0.52982163 0.32013488 1908781
0.2248719 0.5307017 0.32029691 2106150
0.21702015 0.5265035 0.31823477 988708
0.21864912 0.52866185 0.31876248 1711917
0.22091433 0.52950031 0.31876892 1646385
0.21298194 0.52596462 0.3181603 988707
0.21509299 0.52729791 0.31757298 1514537
0.21720901 0.52883011 0.31791532 2237229
0.20935787 0.52496642 0.31557727 988709
0.21081883 0.52619386 0.31641716 1448743
0.21276878 0.52778906 0.31598541 2171438
0.20697056 0.52485025 0.31550449 1317671
0.20860885 0.52648646 0.31509632 1974573
0.2106331 0.52791733 0.31518176 1777210
0.20371154 0.5235889 0.3135379 1185829
0.20481111 0.52574539 0.31375149 2040365
0.2074503 0.52731925 0.31299901 1711926
0.19950727 0.52222288 0.31238651 1251878
0.20140752 0.52462405 0.31275719 1776939
0.19389153 0.51977551 0.31064826 1580838
0.19597057 0.521191 0.31155828 1449253
0.19689435 0.52315444 0.31145549 1251368
0.19890232 0.52516836 0.31132984 2302763
0.19189486 0.52042544 0.3100453 1251877
0.19373891 0.52233487 0.3097699 1317161
0.19462451 0.52445084 0.31007254 2236971
0.19756085 0.52541846 0.30905688 2696740
0.18773365 0.51956552 0.30922794 1646630
0.1893651 0.52095389 0.30842921 1185830
0.19059828 0.52298653 0.30854386 2039854
0.18372449 0.51844919 0.30663189 1646632
0.1858362 0.51937068 0.3077468 1185829
0.18742903 0.52149111 0.30746728 1711403
0.18887496 0.52441543 0.30590737 2565669
0.18190612 0.51838589 0.30669379 1120034
0.18322791 0.52080685 0.3062374 1645619
0.18566805 0.52394354 0.30559903 2565412
0.17808153 0.51728523 0.30484414 1317412
0.17920938 0.5197711 0.30539507 1842989
0.18048576 0.52249086 0.30408287 2630693
0.18249871 0.52344352 0.30520236 2696486
0.17392403 0.51643223 0.30361369 1251619
0.17551953 0.51857251 0.30369693 1580079
0.17779168 0.52047986 0.30316088 2236969
0.17006472 0.51585072 0.30202481 1383206
0.17151012 0.51707125 0.30250829 1185319
0.17271411 0.51991737 0.30159503 2105132
0.17448397 0.52090043 0.30271471 2565413
0.16463783 0.51096129 0.3029311 791070
0.16647291 0.51398468 0.30159578 1251874
0.16845208 0.51539654 0.30142277 1185828
0.16973451 0.51896536 0.30046031 1579569
0.17092849 0.52044606 0.30078062 2499623
0.15902844 0.50745672 0.29977944 1580597
0.16093096 0.50973994 0.30034599 1186104
0.16259176 0.51191455 0.30042171 857130
0.16420418 0.51473367 0.30007565 1120036
0.16563636 0.51782078 0.29963574 1579817
0.16717105 0.51903236 0.30002797 2499365
0.15631361 0.50620133 0.29940292 1580333
0.15737407 0.50775868 0.29870799 1515062
0.15902096 0.51015544 0.29898638 1580867
0.16178839 0.51253927 0.29838684 725558
0.16193996 0.5159592 0.2988362 1645605
0.16325927 0.51820189 0.29732588 2302753
0.15482391 0.51026946 0.29742903 2763311
0.15641952 0.5122202 0.29728013 2500916
0.15855327 0.51397836 0.29742137 1974577
0.63043439 0.59953821 0.47480896 7436179
0.62875718 0.60085446 0.47291291 2831441
0.62940449 0.60344535 0.47285539 12896471
0.62776786 0.60494643 0.47153115 10133957
0.62766892 0.60776925 0.47070509 12239585
0.62503183 0.60766053 0.47001418 2567764
0.62643945 0.60961807 0.46953785 9212860
0.62313122 0.60899925 0.46818572 593455
0.62449956 0.61072326 0.46830478 3093344
0.6205529 0.61030143 0.46743935 922410
0.62172288 0.61135697 0.46714869 725296
0.61639655 0.60906768 0.46604741 1185834
0.61825591 0.61027133 0.4657473 1383478
0.61424237 0.60948724 0.46454102 1449016
0.6158002 0.61103541 0.46480703 1843522
0.61058819 0.60884458 0.46342862 1383219
0.61202383 0.60985833 0.46324462 1646401
0.60654038 0.6085428 0.46243417 922404
0.60835105 0.60933203 0.46190217 1251635
0.60459787 0.60907257 0.46096772 856613
0.60573244 0.61028409 0.46031046 988459
0.60192823 0.60982943 0.4596568 922663
0.60364747 0.61109579 0.45936185 1054514
0.59763139 0.61011076 0.45837265 987940
0.59968728 0.61087829 0.45780408 922408
0.60137719 0.61250603 0.45761958 1120051
0.59573025 0.61011559 0.45696232 988198
0.59740704 0.61180055 0.4562116 988718
0.59916764 0.61384135 0.45602879 1185842
0.59182566 0.60965133 0.45603022 1053738
0.59303313 0.61078149 0.45494387 922664
0.59496772 0.61327577 0.4548372 1120052
0.59753323 0.61459285 0.45492482 1186097
0.58964437 0.61009306 0.45406091 987942
0.59112823 0.61175489 0.45382416 1120307
0.59275532 0.61340863 0.45417467 1251125
0.5857017 0.6090073 0.45315352 922146
0.58758938 0.61080116 0.45277774 1120306
0.5895946 0.61265528 0.45256013 1316916
0.58146971 0.60816014 0.45158017 856093
0.58360302 0.60970789 0.45128363 1120047
0.58547741 0.6113283 0.45123059 1186100
0.57797939 0.60716116 0.44936568 789782
0.57965314 0.60832602 0.4502866 1054510
0.58112592 0.61048251 0.45034665 1186103
0.57360357 0.60622722 0.44904667 789782
0.57573986 0.60748088 0.44900209 1053993
0.57749856 0.60960197 0.44905049 1186102
0.57199734 0.60660332 0.44782871 1053734
0.5734303 0.60835183 0.44754285 1186357
0.57539821 0.60971385 0.44819233 1186103
0.56801885 0.60594857 0.44575953 1053735
0.56961882 0.60727459 0.44639605 1186098
0.56359005 0.60481304 0.44512355 790294
0.56582665 0.60585696 0.44514036 1185839
0.56028575 0.60351586 0.44373396 789781
0.56179053 0.6049757 0.44382918 1251635
0.5637157 0.60614657 0.44420582 1317684
0.55778861 0.60380822 0.4426468 1119787
0.55942726 0.60556549 0.44241005 1317430
0.55424678 0.60323822 0.44107729 1185582
0.55578864 0.60423201 0.44114053 1251377
0.55680752 0.60619313 0.44140345 1382967
0.55025625 0.60186166 0.44029069 1317684
0.55189514 0.603239 0.439872 1251374
0.55351484 0.60504055 0.44059569 1382967
0.54606068 0.60061371 0.43875107 1252155
0.54813689 0.60231102 0.43882787 1251115
0.54964137 0.60402232 0.43808281 1448757
0.54222882 0.59967768 0.43745422 1317687
0.54408783 0.60139787 0.43723834 1317168
0.54608083 0.60303217 0.4369396 1448759
0.5385077 0.59858549 0.43682995 1383997
0.54029995 0.60001057 0.43602777 1317427
0.54169279 0.60233349 0.43586123 1515065
0.53410673 0.59713435 0.43445677 1384511
0.53639364 0.5990929 0.43499947 1383477
0.53831255 0.60085177 0.43502176 1316651
0.54062223 0.60249662 0.43456143 1580604
0.53023517 0.59579527 0.43346202 1384507
0.53251696 0.59783155 0.43338907 1317683
0.53419232 0.59992796 0.43375885 1580343
0.53621614 0.60181886 0.43331784 1646395
0.52618647 0.59500933 0.43306524 1318974
0.5286051 0.59653443 0.43247703 1384249
0.53014117 0.59865898 0.4323923 1514806
0.53252959 0.60064852 0.43114042 1843264
0.52478349 0.59552073 0.43103212 1317680
0.52654231 0.59711784 0.43103203 1448751
0.52823699 0.59966844 0.43056947 1777728
0.52256405 0.59403265 0.42889094 1450046
0.52241153 0.59641951 0.43004078 1448494
0.52440107 0.59883124 0.42984545 1777981
0.51854664 0.59575582 0.42843339 1382955
0.52066064 0.5969013 0.428415 1580597
0.51449597 0.59491473 0.42706105 1514286
0.51636672 0.59534651 0.42708272 1645877
0.51085836 0.59388185 0.42629963 1316643
0.51238757 0.59448534 0.42580211 1580339
0.50671935 0.59295583 0.4247579 1250592
0.50867766 0.59370685 0.42472312 1580594
0.51080698 0.59446579 0.42443156 1712444
0.5029791 0.59143543 0.42353696 1250072
0.5046804 0.59291703 0.42330846 1580336
0.50640786 0.59351677 0.4226355 1909303
0.50074756 0.59192145 0.42230868 1514539
0.50298846 0.59239227 0.42199132 1580078
0.49677455 0.59129673 0.42086634 1448745
0.49853638 0.59190798 0.42057696 1712183
0.49245316 0.59036505 0.41917324 1645353
0.49445432 0.59106517 0.41947365 1580077
0.48913595 0.58819699 0.41852212 658966
0.49091458 0.59000224 0.41804188 1711922
0.48523137 0.58741581 0.41724902 658966
0.48700219 0.58890641 0.4169786 1712181
0.48140016 0.5855813 0.41593558 396563
0.48336434 0.5879811 0.41589075 1448748
0.48585123 0.58941418 0.415535 1975099
0.47738811 0.5849275 0.41469148 396562
0.47936329 0.58699805 0.41442639 1317158
0.48120174 0.58802366 0.41459367 1777716
0.47432259 0.58395123 0.41276371 462099
0.47533476 0.58590931 0.41318053 1514798
0.47721666 0.58705306 0.41322118 1777457
0.46931455 0.58273149 0.41300261 462102
0.47142676 0.58447152 0.41198933 1119774
0.47321838 0.58594489 0.4117623 1777716
0.4656285 0.58156508 0.41089958 528151
0.46766159 0.58285093 0.41036907 1053982
0.46938229 0.58520848 0.4107722 1777972
0.46362522 0.58183783 0.40955037 922392
0.46554673 0.58424109 0.40950477 1843766
0.467556 0.58529329 0.40955329 1844283
0.45997083 0.5809204 0.40826124 922397
0.46141076 0.58302987 0.4077827 1711923
0.46316063 0.58461761 0.40845507 1975616
0.45602018 0.58000129 0.40721902 528154
0.45778343 0.58126581 0.40709162 1645608
0.45951995 0.58361799 0.40698826 2041409
0.45168385 0.57839501 0.40525851 528409
0.45399368 0.58062553 0.40550694 1514278
0.45606512 0.58259875 0.40545583 2106941
0.44757965 0.57673019 0.4049477 593691
0.44957256 0.57900685 0.40448678 1316901
0.45128509 0.58129925 0.40431672 2106686
0.45337746 0.58249545 0.40482658 2304319
0.44411364 0.57655448 0.40237805 593949
0.44586709 0.57822865 0.40312961 1579812
0.44790864 0.58051896 0.40269181 2106944
0.44045958 0.57519591 0.40229344 528411
0.44251266 0.57669562 0.40185976 1382688
0.44374824 0.57928717 0.40145591 2172477
0.44567716 0.58114815 0.40201709 1844804
0.43670124 0.57405645 0.39990583 725277
0.43803048 0.57447994 0.40090275 659740
0.43985036 0.57814604 0.40080726 2172214
0.44206065 0.57955062 0.40026942 2172995
0.43434864 0.57383704 0.39937118 659739
0.43603984 0.57735634 0.39914173 2303539
0.43785501 0.57850188 0.39897227 2107202
0.43093327 0.57375824 0.39802831 659996
0.43273515 0.57655787 0.39849937 2368295
0.43383014 0.57769221 0.39778683 2041665
0.42675695 0.57258987 0.39646277 659997
0.4280178 0.57448143 0.39715269 1251879
0.42993528 0.57666045 0.39657754 2304059
0.43277696 0.57772416 0.39588195 2501185
0.42276624 0.57128805 0.39487708 725789
0.42454669 0.57304132 0.39559609 1580066
0.42596215 0.57588148 0.39526719 2304061
0.42779905 0.57642102 0.39502788 2566981
0.41899231 0.57050747 0.39442572 726047
0.420744 0.57200712 0.3943243 1842979
0.42254254 0.57453638 0.39435336 2369591
0.42400837 0.57594323 0.39456743 2173255
0.41660497 0.57066917 0.39311346 1383203
0.4180226 0.57196909 0.39268059 2565932
0.42007089 0.57517493 0.39308646 2173511
0.41282612 0.56944942 0.39179191 791581
0.41450104 0.57210821 0.39174983 2172467
0.41639051 0.57405114 0.39156517 2304839
0.40931162 0.56868207 0.39092579 791838
0.41115868 0.57083613 0.39019644 2106152
0.41230786 0.5729028 0.38999826 2370371
0.40505117 0.56796473 0.38919061 791838
0.4067224 0.56893361 0.38906515 1448995
0.40840611 0.57219976 0.3891961 2370109
0.40976802 0.57309318 0.38932154 2567239
0.40117311 0.56690502 0.38757586 857632
0.4029274 0.56842381 0.38808841 1646374
0.40433168 0.57118559 0.38768828 2632508
0.40595415 0.57243669 0.38758713 2173513
0.39679843 0.56647444 0.38687086 923425
0.39920378 0.56662726 0.38643011 857633
0.40007889 0.56991214 0.38657916 2763836
0.40199375 0.57159495 0.38617003 2239307
0.39470217 0.5660612 0.3854312 923425
0.39653441 0.56842357 0.38510117 2566446
0.39839926 0.57042378 0.38513911 2370376
0.39146909 0.56441319 0.38405889 923428
0.39225644 0.56849134 0.38424119 2895416
0.39457229 0.56957096 0.38369426 2370631
0.38745898 0.56329763 0.38334179 989218
0.38984796 0.56389439 0.38280958 989218
0.39063939 0.56853831 0.3823024 2633026
0.39218375 0.56955451 0.38364586 2108240
0.38379845 0.56212032 0.38141161 1054756
0.38637733 0.56734896 0.38096318 2633024
0.38842431 0.56821173 0.38176584 2698563
0.37949479 0.56173199 0.38056493 1120549
0.3810291 0.56215447 0.380687 1055012
0.38281229 0.56620491 0.37990737 2830141
0.38459131 0.5675931 0.38033608 2436426
0.37489256 0.56080353 0.37901559 1186598
0.37720743 0.5620715 0.37866884 2040876
0.37928966 0.56497794 0.37873423 2698820
0.38053468 0.5665319 0.37865132 2502223
0.37344453 0.56048352 0.37775412 1121062
0.37486041 0.56376743 0.37769753 3092800
0.3767617 0.56535548 0.3775551 2502223
0.36968285 0.56017923 0.37571478 1121319
0.37121546 0.5624674 0.37613004 3486780
0.37286872 0.56426835 0.37635788 2502228
0.3654629 0.55923212 0.3751266 1186600
0.36764592 0.56104368 0.37522268 2501171
0.36913848 0.56313848 0.37489948 2567761
0.36170933 0.55840135 0.37337887 1186856
0.3635008 0.55939263 0.3743636 1778474
0.36523885 0.56204545 0.37352058 2830663
0.35929355 0.55773485 0.3722989 1252392
0.36124089 0.56127208 0.37229544 3158849
0.36322489 0.56217527 0.37286171 2436687
0.3559905 0.55723 0.37170345 1187113
0.35726824 0.55994833 0.3712669 3093064
0.35910583 0.56146014 0.37120211 2502223
0.35173601 0.5566479 0.37007123 2172719
0.35363409 0.55871493 0.36971211 3027008
0.35535017 0.56020474 0.36961001 2502232
0.34783772 0.55575526 0.36843252 1318698
0.34992743 0.55748886 0.36844489 2567482
0.35141203 0.559412 0.36877447 2502484
0.34459451 0.5548355 0.3671189 1384231
0.34579849 0.55667025 0.36725548 2830135
0.34715879 0.55822057 0.36727214 2699345
0.34174475 0.55508399 0.36582774 1384229
0.34324616 0.55721313 0.36574438 2896461
0.33794764 0.55515945 0.36475471 1384488
0.33962372 0.55618668 0.36486939 2501958
0.34125426 0.55757201 0.36522451 2568018
0.33349076 0.55292761 0.363455 1450026
0.33574373 0.55514199 0.3638652 2042435
0.33725083 0.55641764 0.36328 3224647
0.33038479 0.55244225 0.36296746 1450025
0.33202237 0.55353093 0.36180365 1976383
0.33368066 0.55567706 0.36237887 2961997
0.32826686 0.55276322 0.36136603 2304829
0.3299776 0.55459857 0.36114016 3093322
0.32403505 0.55169827 0.35914424 1975864
0.3256065 0.55328882 0.35975063 2699083
0.31973559 0.55077446 0.35813737 1582122
0.32186604 0.5524199 0.35849655 2567744
0.32445067 0.55304933 0.35787258 3881786
0.31698614 0.54946983 0.35736367 1582122
0.31759715 0.55160975 0.35690564 2830923
0.31987259 0.55241662 0.35759825 2633805
0.31213996 0.54856575 0.35570282 1516332
0.31434828 0.55025995 0.35601875 1976384
0.31579158 0.55159926 0.35568804 3158853
0.31012177 0.5495941 0.35434768 1910329
0.31216693 0.55112386 0.35442004 2830666
0.306633 0.54824632 0.3531788 1516075
0.30817401 0.55004501 0.35313907 2699079
0.31000853 0.55093342 0.35404357 2961989
0.30263132 0.54740059 0.35225496 1515820
0.3038632 0.54894865 0.35169899 2633285
0.30575132 0.55029517 0.35252059 2502734
0.29790288 0.54579365 0.350811 1647148
0.3002454 0.54741096 0.35089195 2502218
0.30192101 0.54885346 0.35071734 2501972
0.29456696 0.54544759 0.34933212 1450536
0.29667073 0.54625511 0.34948599 2436156
0.29782152 0.54843122 0.34951344 2698573
0.29992443 0.54945725 0.34835517 2830162
0.29270968 0.54540461 0.34874827 1845308
0.29405043 0.54711735 0.34800142 2830149
0.28880435 0.54429334 0.34690812 1713725
0.290402 0.54611242 0.3471919 2633292
0.28480336 0.5436452 0.34586513 1845574
0.28668535 0.54470778 0.34585616 2567235
0.28846687 0.54636377 0.34576678 2895424
0.28095052 0.5420472 0.34464926 2108495
0.28240365 0.54379433 0.3438572 2304576
0.28380075 0.54492342 0.34480593 2960702
0.27493143 0.53884423 0.34307864 1252662
0.2771925 0.53989071 0.34387767 1449264
0.27861616 0.54286259 0.3430858 2173245
0.28037858 0.54372323 0.34384492 2895164
0.27360621 0.53811991 0.34297162 1383986
0.27479196 0.54173386 0.34179723 2436166
0.27677491 0.54282838 0.34221905 2238265
0.26882786 0.53907114 0.34069332 990001
0.27095324 0.54036427 0.34052324 1909817
0.27260399 0.54178464 0.34067279 2173766
0.26727399 0.53921342 0.33939016 1581626
0.26839522 0.54034346 0.3391991 2238785
0.26309848 0.53805745 0.33850765 1252659
0.2648536 0.53981364 0.33819044 2369856
0.25945067 0.53731799 0.33658245 1186601
0.26105669 0.53899503 0.33669484 2107456
0.26144838 0.54029411 0.33512756 3223087
0.25473624 0.53598255 0.33590731 1055272
0.25705788 0.53779298 0.33561951 1909554
0.25874996 0.53906256 0.33544686 2238013
0.25118592 0.53491449 0.33388749 1582143
0.25308618 0.53658772 0.33422923 1646896
0.25485784 0.53827256 0.33408761 2041931
0.24742249 0.53345287 0.332921 1977947
0.24945453 0.53535491 0.33329406 1647416
0.25105006 0.53691894 0.33290952 2435132
0.24417566 0.53217691 0.33149254 2042971
0.24558392 0.53381836 0.33167055 1384509
0.24719547 0.53629601 0.33178869 2171955
0.24944901 0.53715324 0.33113497 2105919
0.24156836 0.53300864 0.33044621 1449781
0.24337654 0.53515929 0.33053306 1909038
0.23780406 0.53211105 0.32932687 1449783
0.23931281 0.53409398 0.32932422 1712438
0.2412819 0.53546965 0.32906413 2565681
0.23395735 0.53117812 0.32802957 1383987
0.23560855 0.53257263 0.32820386 1843769
0.23746665 0.53441793 0.32756793 2565939
0.22972858 0.5308457 0.32701585 989222
0.23145972 0.53146237 0.32650322 1580846
0.23336178 0.53307909 0.32649273 2171698
0.22563112 0.52902102 0.32539997 1054244
0.2275957 0.53037143 0.32582057 1448999
0.22953296 0.53213859 0.32508755 2237231
0.22369716 0.52918959 0.32424068 1252133
0.22565579 0.53119373 0.32391116 2105905
0.21767193 0.52691948 0.32302198 988712
0.21991019 0.52847332 0.32276314 1448488
0.22150609 0.53033555 0.3226614 2040365
0.22261351 0.53155267 0.32138687 2762794
0.21578395 0.52663475 0.32193199 1054246
0.21808201 0.52893102 0.32163516 1711918
0.21901739 0.53010899 0.3214483 2697000
0.21246417 0.52608728 0.32084483 1054500
0.21400954 0.52834022 0.32014072 1777452
0.21536937 0.5290789 0.3200542 2762281
0.2086432 0.52548456 0.31895822 1054501
0.20928574 0.52683395 0.3189913 1711912
0.211371 0.52834678 0.31896618 2040367
0.20374838 0.52418816 0.31808075 1054243
0.20594776 0.52532327 0.31770116 1645863
0.20766689 0.52787548 0.31766975 2105905
0.20112231 0.52294493 0.31566045 988709
0.20248112 0.52389669 0.31665307 1448998
0.20400414 0.52636439 0.31670526 2171439
0.19652228 0.52170336 0.31477776 1646632
0.19881269 0.52294141 0.31589633 1514536
0.20005609 0.52501017 0.31507134 2039856
0.20147803 0.5264315 0.31685486 1843250
0.19343451 0.52021837 0.31342676 1581095
0.19468048 0.52189499 0.31363147 1185828
0.19624302 0.52429074 0.31406298 2039851
0.19749644 0.52521354 0.31283095 1645881
0.19055879 0.52015793 0.3129814 1449254
0.19207102 0.52302176 0.31216335 1448487
0.19369392 0.52442157 0.31288049 2171181
0.18639421 0.51994658 0.31131104 1251877
0.18834777 0.521918 0.31171757 1251369
0.19017589 0.52367234 0.31142968 2236971
0.18329751 0.5186376 0.30987203 1317412
0.18438695 0.52084297 0.31031385 1514029
0.18683806 0.52259099 0.30958366 2171180
0.1788767 0.51768017 0.30821091 922911
0.18047628 0.51911235 0.30880815 1514792
0.18157941 0.52183622 0.30917183 2105644
0.18365911 0.52357644 0.30845603 2565413
0.17549156 0.51676834 0.30853277 988450
0.17676756 0.51781678 0.3073459 1251621
0.1786387 0.52032149 0.30783629 1908525
0.18049574 0.52255517 0.30723694 2631206
0.17308226 0.51686883 0.3066268 1383207
0.1744521 0.51964515 0.30623263 1842734
0.17671892 0.52131778 0.30596706 2565414
0.16675738 0.51374561 0.30441958 1580585
0.16917469 0.51556176 0.30527821 1449254
0.17084092 0.51803279 0.3049449 1645352
0.17240235 0.52085739 0.30535293 2499621
0.17453659 0.52098274 0.30463573 2565158
0.15939441 0.50741953 0.30473247 1448757
0.16193092 0.50976068 0.30377871 922923
0.16372804 0.5116843 0.30382392 988708
0.16509035 0.51397282 0.30381942 1054242
0.16705367 0.51696163 0.30399895 1514025
0.1683951 0.51844066 0.30356729 1973802
0.15676275 0.50579667 0.3037515 1317680
0.15834787 0.507833 0.30274692 1515063
0.16032444 0.50970405 0.30274138 1580866
0.16168186 0.512568 0.30320102 791353
0.16314098 0.51543081 0.30238339 1317157
0.16439398 0.51836497 0.30279523 2368289
0.16617906 0.51898712 0.30194142 2433827
0.15584104 0.50676644 0.30210763 1843764
0.15683356 0.50812107 0.30153313 1646906
0.15664777 0.51221585 0.30151129 2631987
0.15913054 0.51388758 0.30130011 1908779
0.16121569 0.51648504 0.30175775 1973794
0.15429164 0.51016814 0.30014089 2763565
0.63009697 0.602171 0.47623461 2633807
0.62855124 0.60264057 0.47622043 3357525
0.62617719 0.60603154 0.47352895 4278383
0.62412363 0.60847098 0.47255939 1777734
0.62570697 0.61026984 0.47235918 7040402
0.62181389 0.61029232 0.47105837 988472
0.62340927 0.61120474 0.47051859 1064
0.61914116 0.61048889 0.46979281 1449016
0.62122685 0.61184853 0.47021592 856623
0.61374772 0.60831678 0.46970448 1250846
0.61555606 0.6092574 0.46853301 1251629
0.61701047 0.61071587 0.4686932 1515066
0.61145568 0.6088841 0.46725845 1515064
0.61323333 0.60980314 0.46744698 1646654
0.60711575 0.60778236 0.46586448 1449008
0.60922772 0.60879278 0.46601707 1580857
0.60546178 0.60802972 0.46482751 1383219
0.60688806 0.60966319 0.46463197 1777982
0.60104579 0.60765201 0.46392399 1382965
0.60320348 0.60861599 0.46306735 1251636
0.59699225 0.60729194 0.46256328 1251896
0.59928727 0.60830033 0.46201399 1054252
0.60076177 0.60992485 0.46181265 1251121
0.59527194 0.60768676 0.46147954 987941
0.59700167 0.60885262 0.46058518 922403
0.59777313 0.61112577 0.45948786 1185588
0.59338754 0.60833454 0.46001923 988717
0.59476888 0.610412 0.45915395 1120307
0.59624368 0.61151016 0.45886612 1251380
0.58858311 0.60784227 0.4588114 1186103
0.59064049 0.60938466 0.45817727 988460
0.59278798 0.61146539 0.45761794 1054255
0.5943079 0.61314476 0.45673054 1251636
0.58652681 0.60876143 0.45671043 988457
0.58834296 0.61003816 0.45664126 988460
0.59012926 0.61263621 0.45605823 1251125
0.58341873 0.60784787 0.45638639 1186101
0.58454353 0.6093297 0.45547545 922663
0.58643425 0.61172074 0.45519263 1185844
0.58102274 0.60821944 0.45424893 922662
0.58224285 0.61066246 0.45402917 1120566
0.58475888 0.61182338 0.45320192 1251637
0.57695502 0.60766989 0.45287263 987942
0.57845479 0.60906446 0.45273331 1120307
0.57989174 0.61058193 0.45254517 1251893
0.57276607 0.60702658 0.45196518 1054251
0.57463408 0.60801858 0.45163816 1120304
0.57570964 0.60988617 0.45098737 1251383
0.56846374 0.60640883 0.45082206 1053735
0.57070684 0.60696429 0.45017308 1120047
0.57236332 0.60857767 0.45062149 1251637
0.56700182 0.60608053 0.4488003 1054251
0.56832576 0.60777843 0.44879955 1251638
0.56283689 0.60509288 0.44785047 1120046
0.56469148 0.60639304 0.44775057 1185841
0.55921721 0.6039933 0.44636589 988200
0.56122744 0.60517454 0.44649971 1251891
0.55528277 0.60331476 0.44506654 1053473
0.55682939 0.60423249 0.44519594 1251633
0.558496 0.60618395 0.4456912 1317426
0.55027282 0.60148335 0.44419691 1318459
0.55296147 0.60311562 0.44414234 1185581
0.55484527 0.60535437 0.44370371 1382963
0.54795462 0.60088432 0.44294828 1318202
0.54892224 0.60236841 0.44247881 1185580
0.55087936 0.60415238 0.44257337 1383223
0.5451135 0.60123271 0.44145408 1251634
0.54714763 0.60304302 0.44112632 1317169
