# .PCD v0.7 - Point Cloud Data file format
VERSION 0.7
FIELDS x y z rgba
SIZE 4 4 4 4
TYPE F F F U
COUNT 1 1 1 1
WIDTH 1181
HEIGHT 1
VIEWPOINT 0 0 0 1 0 0 0
POINTS 1181
DATA ascii
1.5149237 0.22700596 0.012284696 5061170
1.514303 0.22796196 0.012169719 6179138
1.5131968 0.22997385 0.011059761 5257264
1.5776664 0.19169635 0.051555276 1052180
1.5760038 0.19451904 0.050516963 1052694
1.5735283 0.19544905 0.050323248 855577
1.5622603 0.18238431 0.048867583 13421018
1.5642685 0.18462056 0.047878742 12698586
1.5650735 0.18676937 0.048896909 7633832
1.5663707 0.18890953 0.04888165 1120553
1.5686411 0.19180715 0.049549043 988468
1.5702909 0.19397831 0.048409641 1513763
1.5718625 0.19607449 0.049393356 921885
1.5574138 0.17852682 0.046786666 7770025
1.5589116 0.18029457 0.047484577 5729413
1.5599272 0.18281037 0.048351049 7831692
1.5616946 0.18503731 0.048293233 4935277
1.5633525 0.18771738 0.048380971 2895687
1.5652032 0.18988341 0.048075557 2500404
1.5663396 0.19243687 0.048285127 2236973
1.5678391 0.19471949 0.047319889 1381932
1.5696552 0.19766921 0.047365069 725027
1.5719414 0.2005263 0.046992779 132622
1.5718527 0.20244312 0.046798587 132621
1.554863 0.17877418 0.046557069 8033173
1.5565571 0.18107432 0.047378778 6518655
1.5577059 0.18377072 0.046665788 5133398
1.5597947 0.18608338 0.046152353 2829905
1.5608923 0.18877852 0.046722412 2697537
1.5632057 0.1912412 0.046567738 1778241
1.5639338 0.19389659 0.046780825 1383487
1.5656385 0.19670033 0.04583919 725294
1.5674902 0.19894433 0.045186996 395552
1.5689895 0.20184523 0.045912325 198420
1.5696803 0.20365834 0.047016919 132369
1.5521932 0.17775172 0.045435011 5202289
1.5519278 0.17950958 0.046669304 6781310
1.554354 0.18234843 0.045515895 6318438
1.5554302 0.18510395 0.045763016 4869976
1.5572976 0.18764204 0.045606256 2699355
1.5584801 0.19014591 0.046207905 1779031
1.5604976 0.19305903 0.044875741 989509
1.562196 0.1950112 0.044487178 660280
1.5631852 0.19781083 0.044867277 527916
1.5649469 0.20097202 0.045423269 395553
1.5671101 0.20268923 0.045835257 264217
1.5486072 0.17874312 0.044519186 4146524
1.550921 0.18161285 0.043515682 5000011
1.5519512 0.18398029 0.044541121 5725529
1.5530744 0.18592739 0.044654846 4345189
1.555095 0.18897319 0.043781936 2109040
1.5564797 0.19162709 0.043584108 1121643
1.5579479 0.19350964 0.044138551 923733
1.5593448 0.19644165 0.044668853 725822
1.5616106 0.19919562 0.045172572 462126
1.5446115 0.17850262 0.041688383 2632764
1.5459621 0.17925429 0.043495715 3224901
1.5481871 0.18283844 0.042548239 4275264
1.5491605 0.18453938 0.043388784 5002336
1.5509729 0.18731785 0.042417228 3427717
1.5525455 0.18959183 0.042755663 2374274
1.5537057 0.19238561 0.043634951 1648500
1.5559878 0.19504929 0.044098675 1055840
1.5437436 0.1794585 0.041015327 2369328
1.5434766 0.18060297 0.04226464 2500914
1.5455427 0.18412066 0.04145354 3552315
1.5470831 0.18590516 0.041688979 3950186
1.548828 0.18876171 0.041353285 3361411
1.5493003 0.19135785 0.042257547 2966405
1.5407808 0.18216133 0.040933967 2172202
1.5431826 0.18510908 0.040242195 3157551
1.5453014 0.18783528 0.040185392 2832226
1.5463941 0.19042063 0.040447295 3491961
1.5391111 0.18443769 0.039500177 2303518
1.5410578 0.18630767 0.038918495 2697256
1.5432886 0.18929124 0.038194656 1910859
1.5434293 0.19122815 0.039206982 2503267
1.5374539 0.18542033 0.037614822 3157541
1.5387795 0.18773437 0.037537575 2368545
1.5405432 0.18991405 0.036783576 1384246
1.541217 0.19223684 0.038332164 1975891
1.5361683 0.186993 0.035171747 3617318
1.5365736 0.18936419 0.036435962 2696738
1.537961 0.19186276 0.035745203 1317411
1.5392933 0.1928665 0.037804365 1580092
1.5347126 0.19009531 0.034377873 2763043
1.535831 0.19269723 0.034394562 2236440
1.536173 0.1949029 0.03492409 725016
1.5333352 0.19164097 0.033168614 3682845
1.533486 0.19439316 0.033170998 2828060
1.5344436 0.1964004 0.033340573 1184794
1.5319252 0.19589031 0.031512678 2959394
1.532434 0.19806397 0.031344652 2301722
1.530267 0.1995585 0.030114353 2959136
1.5314902 0.20122093 0.029961705 1906967
1.5294664 0.20116222 0.028987169 3221536
1.5293137 0.20329702 0.028658926 2564381
1.525944 0.20162541 0.02771908 2041668
1.5276849 0.20521235 0.027270377 3484448
1.5282273 0.20629215 0.026419938 1644315
1.5248291 0.20356774 0.02666539 2237763
1.5249166 0.20579982 0.025691152 2565697
1.5263315 0.20852059 0.025528073 2630173
1.5232942 0.20763016 0.024796665 1908805
1.5245305 0.21025962 0.024565697 2170400
1.5245173 0.21183723 0.023649573 2366738
1.5226448 0.21164274 0.023244977 2892574
1.5230898 0.212942 0.022719443 1907226
1.5210791 0.21272439 0.022159696 2435120
1.5211892 0.21464944 0.021241665 2630435
1.5195062 0.21397716 0.01928097 6121310
1.5189383 0.2165795 0.019931793 4603198
1.5199561 0.21838146 0.0196293 7033873
1.5168451 0.21769351 0.018637896 4144992
1.5176764 0.22013837 0.018497348 6836269
1.5142345 0.22050202 0.018021762 2635884
1.5160329 0.22172201 0.01701194 6179900
1.5159945 0.22387713 0.01690501 8677957
1.5145986 0.22549188 0.015684724 7364952
1.5149486 0.22752309 0.014338911 10124118
1.5115931 0.22668582 0.014253199 3556222
1.5140513 0.22890151 0.013575733 10583904
1.5104425 0.22735655 0.013777077 3490685
1.5125514 0.23105597 0.012026429 9399630
1.5100875 0.2329039 0.010843873 7361087
1.5732369 0.19659263 0.052394629 921624
1.5668103 0.19273281 0.050683975 989226
1.5687996 0.19422126 0.051509976 857120
1.5707202 0.19784796 0.050834477 987421
1.5715823 0.19903594 0.051757872 855571
1.5607723 0.18675089 0.049960315 1319229
1.5621879 0.18835992 0.050107718 857145
1.5635158 0.19107199 0.050172806 1646645
1.5654718 0.19349742 0.05014652 1646638
1.567064 0.19598722 0.05038029 1514021
1.5684662 0.19863921 0.049949825 1184801
1.569586 0.20048285 0.050439179 592660
1.5544347 0.18232 0.04861629 6387584
1.5568273 0.18444496 0.049034119 3688036
1.5579945 0.18685943 0.049348116 3028309
1.5597923 0.18927169 0.049636662 3092806
1.5615101 0.19230789 0.048989058 2763833
1.5631026 0.19473535 0.049240291 2368816
1.5647762 0.1973536 0.049001098 1710635
1.5661345 0.19925547 0.049051225 1185063
1.5680659 0.20209157 0.049488902 330006
1.5679535 0.20437312 0.047961056 132625
1.5510695 0.18042839 0.047446489 6716286
1.5527595 0.18306971 0.048542917 6518656
1.5542489 0.18554378 0.047738969 5463140
1.5556699 0.18779564 0.04791075 4803405
1.5576608 0.19079703 0.047941148 3355458
1.5594109 0.19340128 0.047739089 2172225
1.5610919 0.19635975 0.048004627 1514555
1.5627661 0.19868344 0.04836309 1119539
1.5637932 0.20215255 0.047255754 527655
1.5656242 0.20412815 0.045991421 264473
1.5665513 0.20593727 0.046971262 263958
1.5491006 0.18015373 0.046356618 5331046
1.5490485 0.18219352 0.047290146 6056557
1.5521965 0.1872015 0.046523154 5725013
1.5535245 0.1891768 0.046661079 4212053
1.5552021 0.19217664 0.046871245 2830672
1.5570745 0.19550014 0.047021866 1450321
1.5587565 0.19776058 0.045735538 857409
1.5599995 0.20045567 0.045473754 527665
1.5619421 0.20227307 0.045807242 395814
1.5629998 0.2058031 0.046357989 330011
1.5651071 0.20737964 0.047115684 263702
1.5455015 0.18131673 0.044908822 3487302
1.5463349 0.1827054 0.04623723 4672082
1.5489452 0.18626672 0.045117438 6184787
1.5496652 0.18855137 0.045583308 5462107
1.5519797 0.19053507 0.045451522 3292262
1.5530428 0.19354427 0.044852793 2042727
1.5544001 0.1964128 0.044405282 1055835
1.5563672 0.19828916 0.044664502 857927
1.5575027 0.20137995 0.045363426 659768
1.5597043 0.20367604 0.04588151 462380
1.5607823 0.20537961 0.046138167 461858
1.5433195 0.18273222 0.04379493 2829108
1.5442425 0.18440175 0.044524968 3420732
1.5463428 0.18711942 0.044092953 5263181
1.5469387 0.18933254 0.044331133 5660263
1.5489247 0.19242656 0.044079125 3162229
1.5513047 0.19437373 0.043510199 1846389
1.5519264 0.19744045 0.044300139 1253470
1.553992 0.19947243 0.044900954 923468
1.541391 0.18332696 0.042634606 2369323
1.5422688 0.18638957 0.042355359 3223081
1.5437065 0.18846726 0.042993426 4671044
1.5443866 0.19058365 0.043564856 5661048
1.5468333 0.19369674 0.042106628 3295106
1.5483099 0.19633096 0.043369293 2109305
1.5496672 0.19747245 0.043923497 1582440
1.5395049 0.18551683 0.041475952 2106399
1.5394151 0.18758965 0.041430056 2237988
1.5412685 0.18967855 0.041809022 3947580
1.5436237 0.19260973 0.04029423 3230076
1.5444021 0.19492573 0.041549683 3887496
1.544873 0.1966539 0.042257547 3492224
1.5371774 0.18670577 0.039994895 2237984
1.5384027 0.18871123 0.03960681 2106158
1.5386856 0.19063473 0.040255547 2171422
1.5406702 0.19399607 0.03934449 3293798
1.5417011 0.19572949 0.040607691 7963555
1.5356079 0.18952817 0.038588643 2565926
1.5368396 0.19212443 0.038755834 2302236
1.5383294 0.19513077 0.038127661 1449784
1.5395825 0.19680208 0.039959967 9804976
1.5335814 0.19161636 0.037244022 3222818
1.5348399 0.19404507 0.037027895 2433565
1.5357779 0.19642812 0.037020981 1578790
1.5370872 0.19774479 0.038202584 726044
1.5325216 0.19547403 0.035793483 2500130
1.5335287 0.19754428 0.03558284 2301722
1.5347847 0.19891572 0.036341608 724005
1.531806 0.19666654 0.034091175 2696739
1.5315646 0.19916815 0.034091413 2564636
1.532277 0.20099306 0.03433156 1512988
1.5297203 0.20090574 0.032852888 2893343
1.5308027 0.20276296 0.032601476 1907226
1.5258895 0.2011711 0.031671107 1976376
1.5285566 0.20409912 0.031320155 2695965
1.5287597 0.20585328 0.030384719 921115
1.5245833 0.2027958 0.029561341 2041918
1.526904 0.2060793 0.030146301 3024929
1.5269072 0.20742339 0.029788435 2499102
1.5236257 0.20495105 0.028770745 2238021
1.5244298 0.20677149 0.028194547 3156521
1.5252637 0.20942193 0.028559089 2498847
1.5224138 0.20841646 0.027380288 2238271
1.5237694 0.21122122 0.026929498 3287585
1.5236666 0.21250236 0.026803195 2433055
1.5210603 0.21272379 0.025407135 3090472
1.5221384 0.21418256 0.025487006 2433312
1.5189236 0.21456116 0.023150027 2303545
1.5202589 0.21579999 0.023915589 2433318
1.5202038 0.21754879 0.023424327 3877136
1.5178466 0.21748048 0.022540331 3025978
1.518455 0.21946472 0.022675276 3286570
1.5157267 0.21897274 0.021336198 2896461
1.5165886 0.22127444 0.021562755 4536354
1.5143695 0.21992928 0.019619823 2635109
1.5145978 0.22240365 0.019722998 5194550
1.5151865 0.22439378 0.019312561 7889694
1.5127326 0.22410727 0.017991841 3685231
1.5135393 0.22610933 0.01786834 8482361
1.5119596 0.22767991 0.01698035 6313307
1.5129219 0.23011827 0.016195834 11242314
1.5105793 0.22898716 0.015015364 5001082
1.5112402 0.2314977 0.014484406 9007700
1.5116174 0.23431116 0.014670491 10714940
1.5076702 0.23073077 0.013299108 3358852
1.5638114 0.19407755 0.051528394 1120556
1.5651217 0.19686377 0.052993 857120
1.5674067 0.19957495 0.052839041 856347
1.5687094 0.20142782 0.052039981 921110
1.5572964 0.18806744 0.050384402 2896724
1.5591705 0.19010246 0.051214159 1976904
1.5601705 0.19326299 0.051269054 1910331
1.56215 0.19565958 0.051507771 1646381
1.5630965 0.19789296 0.051257133 1449001
1.5649796 0.20083892 0.050091445 1776163
1.5665855 0.20293677 0.051043689 921625
1.5678539 0.20515674 0.049613357 197642
1.5523708 0.18455791 0.049404681 6123641
1.5532837 0.18691266 0.05006367 4938089
1.5554137 0.18962091 0.050873101 3226199
1.5567123 0.1915291 0.050422788 2962507
1.5578959 0.1945799 0.050348639 2632764
1.5599179 0.19689381 0.050641656 2172468
1.5613141 0.19982898 0.049645841 1842735
1.5623797 0.20218813 0.049832284 1776679
1.5640745 0.20450163 0.050143898 1184802
1.5659447 0.20690978 0.049744189 132362
1.5496838 0.1847896 0.049009085 6254450
1.5509665 0.18779194 0.050043881 5399148
1.552348 0.18995458 0.048902571 5067605
1.5543809 0.19271088 0.049434721 4013637
1.5558516 0.19549692 0.049248338 3223610
1.5573549 0.19838035 0.048671186 2171707
1.5593567 0.20056212 0.048742414 1448760
1.5602603 0.20374852 0.048840642 1579820
1.5620519 0.20581043 0.049117029 1053478
1.5637619 0.20873302 0.047924817 264212
1.5638565 0.21052599 0.047848165 197903
1.5462894 0.18512666 0.047089994 5726297
1.5470312 0.18652195 0.048575521 6187880
1.5490186 0.18883795 0.0482319 6121315
1.5500697 0.1919148 0.047823787 5461326
1.5522227 0.19435364 0.047134042 3421773
1.5532787 0.19697011 0.047742307 2632519
1.5545921 0.19931942 0.048129797 1712711
1.5574477 0.20306075 0.047947705 1317437
1.5580642 0.2044822 0.046625793 725553
1.5597222 0.20696402 0.046587646 527654
1.5618976 0.21000445 0.046652257 264216
1.562251 0.21240765 0.047331393 198159
1.5437875 0.18584871 0.046475768 4408138
1.5446898 0.18836325 0.047249079 5725275
1.5467756 0.19067878 0.04632473 7237470
1.5479562 0.19276923 0.04642123 5527116
1.5496591 0.19575322 0.046730757 3421774
1.5507659 0.19790459 0.047310412 2567244
1.55313 0.20112711 0.045004725 923462
1.5545852 0.20310384 0.04569751 791352
1.5560517 0.20629257 0.045675635 593964
1.5574515 0.2093333 0.04576695 461604
1.5586332 0.21120763 0.046013474 330013
1.5599763 0.21305758 0.046185493 263960
1.5414245 0.18637079 0.044908285 3223606
1.5418384 0.18895859 0.045375288 3815228
1.5442355 0.19172186 0.045207083 7564895
1.5457238 0.19444281 0.045289576 4935766
1.5471807 0.19737589 0.045462787 2765143
1.5493442 0.19959676 0.044167519 1253722
1.5500104 0.20209068 0.044809461 923719
1.5515375 0.20450288 0.045315087 791605
1.5536573 0.2072956 0.045470536 594218
1.555133 0.2105304 0.045494676 527398
1.5392181 0.18813747 0.044200778 3026477
1.5411696 0.19115102 0.043393672 4274216
1.5418119 0.19304085 0.043813586 8090990
1.5431657 0.19524997 0.04455328 6120552
1.545241 0.19838107 0.042884111 2372471
1.5466348 0.20158696 0.044213116 1121370
1.5369279 0.18967599 0.042737603 2237728
1.5385144 0.19250089 0.042174935 3222825
1.5394382 0.19465458 0.042760849 8878714
1.54079 0.19657212 0.043009341 10787485
1.5426508 0.1996485 0.042333722 3030395
1.5445517 0.20162839 0.043823242 1450087
1.5348501 0.19110614 0.04096514 2303008
1.5360147 0.19344825 0.040697157 1908248
1.5369344 0.19581884 0.041384399 4405814
1.5389156 0.198304 0.040670812 12368077
1.5398648 0.20061994 0.041244328 8489921
1.533209 0.19290107 0.039281428 2894622
1.5335879 0.19493586 0.039607286 1842460
1.5347121 0.19718373 0.039813638 2696735
1.5367571 0.19964826 0.038929164 6581876
1.5373262 0.20177323 0.040420651 13751283
1.5328549 0.1963163 0.037932038 2039839
1.5325732 0.19875383 0.038331389 2236186
1.5340775 0.20128596 0.038331807 3159610
1.5309538 0.20010018 0.036826551 2762271
1.5314596 0.20247281 0.036803246 1250078
1.5328262 0.20395839 0.038094997 2831931
1.5264354 0.20025122 0.036554813 1778745
1.5290234 0.20153677 0.035359979 2565413
1.5293064 0.20370448 0.034938931 2433310
1.5301912 0.20584244 0.035469413 592671
1.5253732 0.20202845 0.034315348 1910070
1.5277982 0.20522416 0.033766508 3024926
1.5282182 0.20742399 0.033863366 1118494
1.5237936 0.2041409 0.032128513 2041409
1.525775 0.20668012 0.032713234 2959652
1.526396 0.20885742 0.032466531 2170398
1.5264452 0.21116894 0.033088863 921631
1.5223086 0.2073139 0.030912876 2041657
1.5245769 0.21035373 0.030942857 3024928
1.5250036 0.21171498 0.030830204 921630
1.5210949 0.20969987 0.029581606 2172471
1.5221415 0.21178997 0.029777527 3025188
1.5228466 0.21377969 0.029307902 1908001
1.5193759 0.21264839 0.028111339 2171708
1.5209601 0.21559584 0.027861476 2433569
1.5179812 0.21473956 0.026372194 2041151
1.5191361 0.21740818 0.026613712 2761763
1.5195717 0.21864378 0.026515424 3287070
1.5171375 0.21540183 0.024953604 2303561
1.517151 0.21846092 0.024915576 3156010
1.5175517 0.22021019 0.025130033 2104879
1.5145652 0.22015774 0.023887753 2698047
1.515677 0.22185123 0.02364105 2828075
1.5130467 0.22150439 0.022745788 2567504
1.5135863 0.22355998 0.022661626 2959923
1.5135417 0.225447 0.023175061 3876623
1.5118251 0.22478467 0.020768285 3618377
1.5124297 0.22705877 0.021005929 4800037
1.5109195 0.22872376 0.019640684 5392968
1.5111383 0.2312361 0.019142747 7362325
1.5092287 0.23044097 0.019753158 5460285
1.5096064 0.23187041 0.017534673 10850131
1.5548307 0.19267732 0.051493526 2634319
1.5565788 0.19496852 0.051735342 2107717
1.5589302 0.19812858 0.052552044 1186606
1.563643 0.20603222 0.052406251 921111
1.5632772 0.20785844 0.051582098 592656
1.5498514 0.18907005 0.050295651 5398896
1.5517564 0.19091111 0.0514642 4016732
1.5528867 0.19443417 0.051331043 3160399
1.5550026 0.19680327 0.05131942 2633282
1.5566564 0.19896382 0.051743865 1975608
1.557482 0.20192665 0.050898612 2106415
1.5590141 0.20372188 0.051423192 1843498
1.5612582 0.20665056 0.050706148 1645090
1.561892 0.20928168 0.050985813 723989
1.5473027 0.18996567 0.049832523 5662064
1.5491521 0.19202024 0.0509004 4740453
1.5508248 0.19496888 0.050419867 4014412
1.552394 0.19774634 0.0507707 3224643
1.5541778 0.20006466 0.050353885 2829625
1.5555536 0.20353442 0.049369276 2303027
1.556899 0.20569605 0.049616635 2105644
1.5590268 0.20793217 0.049788475 1776678
1.559291 0.20998204 0.049853146 921889
1.5617929 0.21287328 0.049167991 132361
1.5444983 0.18937558 0.048034728 6580588
1.5446348 0.19127679 0.049385011 6450290
1.5469218 0.19376355 0.049388111 5726045
1.5481709 0.19693118 0.049482524 4342340
1.5499305 0.19922179 0.048053622 3223614
1.5518382 0.20143092 0.048443198 2303551
1.5535277 0.20444483 0.048416197 2039862
1.5544721 0.20708472 0.048573315 1908269
1.5562881 0.20955759 0.048423946 1382441
1.5573674 0.21143419 0.049045086 922147
1.5598252 0.21512467 0.047751248 197901
1.5422933 0.19025129 0.04712981 5395035
1.5428756 0.19300216 0.048116505 7567476
1.5445118 0.19558406 0.047765493 7237473
1.5460371 0.19795573 0.046981096 4013628
1.5474479 0.20081079 0.047183275 2894906
1.5491761 0.20337909 0.047611594 1909055
1.5509095 0.20563293 0.048057079 1974067
1.5521868 0.20811415 0.046679616 856878
1.55348 0.21079552 0.046858609 725289
1.5553869 0.21238929 0.045861006 330015
1.5572768 0.21515411 0.046154141 263959
1.5580219 0.2178902 0.047073305 132623
1.5393647 0.19166142 0.046418428 4078146
1.5412282 0.19403583 0.046370089 8156778
1.5420656 0.19698024 0.046087027 7828579
1.5441661 0.19886971 0.046246946 4079677
1.5449233 0.20254505 0.046090305 2435144
1.5468986 0.2042073 0.046153069 1383489
1.5486958 0.20653182 0.044989765 659762
1.5502549 0.20914674 0.045293689 527912
1.5516465 0.21159989 0.04559648 527394
1.5525602 0.21396554 0.045459747 395805
1.5546101 0.21696717 0.045622945 395802
1.555881 0.21993637 0.045823693 395799
1.5370456 0.19270706 0.045164347 3025969
1.5391562 0.19545931 0.044545829 5983790
1.5398865 0.1980142 0.044487715 8223090
1.541634 0.20092118 0.045033574 3882559
1.5430739 0.20334607 0.044479072 1909590
1.544664 0.20563662 0.04440856 791878
1.5461439 0.20854217 0.044748545 593967
1.5480006 0.21074629 0.045222819 462114
1.549387 0.21277785 0.045280099 527646
1.550096 0.21498615 0.045332611 461342
1.5523691 0.21878493 0.045092046 527134
1.5347128 0.19437188 0.043586195 2039842
1.5365211 0.19774681 0.042961955 5655105
1.5375885 0.1993643 0.043631554 9272939
1.5388381 0.20195246 0.044104278 4211522
1.5410082 0.2034508 0.042868793 1449569
1.5417569 0.20662737 0.04351747 1120854
1.5431254 0.20884174 0.044169486 725823
1.5331798 0.1957705 0.041923404 1908507
1.5336933 0.1977303 0.042300165 1776661
1.5349921 0.20024365 0.041988015 6773845
1.5366683 0.2030378 0.042158961 6185588
1.5380678 0.20570624 0.042222142 1516134
1.5391974 0.20716548 0.042842805 1450080
1.5321687 0.19974256 0.040929079 2368800
1.5328709 0.2023322 0.040951908 4209202
1.5346075 0.20415395 0.040205777 10988982
1.5359775 0.20700556 0.041240931 2174819
1.5274072 0.19879967 0.03980732 1581612
1.5291491 0.20136905 0.039731562 2303265
1.530766 0.20299524 0.039345026 2367772
1.5323956 0.20593256 0.03898263 7305339
1.5332847 0.2083891 0.040051937 6515845
1.5269864 0.20004201 0.038667321 1581612
1.5264788 0.20198369 0.038060665 1712434
1.5288132 0.20452708 0.037920594 2564893
1.5301325 0.20729178 0.037573814 2369590
1.5304058 0.20926011 0.038493931 8228000
1.524888 0.20374191 0.036598742 1712946
1.5269679 0.20660472 0.036541164 2959647
1.5271219 0.20795369 0.036368668 2301472
1.5287446 0.21012866 0.037115037 2830933
1.5239625 0.20514667 0.034513056 1844031
1.5230889 0.20659685 0.035529792 1713204
1.5251774 0.20960599 0.035225809 2696739
1.5267811 0.21178746 0.035101473 724007
1.5216259 0.20858127 0.033927679 1778997
1.5237654 0.21156174 0.033598006 2959395
1.5245535 0.21354288 0.033768952 1052959
1.5206056 0.21004933 0.032432675 1910325
1.5216125 0.21274555 0.03240025 3090979
1.5221511 0.21470052 0.032157779 2170914
1.5192623 0.21361667 0.030425429 2631467
1.5200644 0.21631968 0.030718982 2893857
1.5206594 0.21808314 0.030826688 1776413
1.517162 0.21590185 0.029673755 2041396
1.5178678 0.21777654 0.029227138 3090979
1.5189171 0.21976477 0.028940976 1447710
1.5156946 0.21876734 0.027898252 2697778
1.516652 0.22135645 0.027649701 2367779
1.5134593 0.22100371 0.026420534 2173755
1.5149083 0.2228781 0.026441097 2958626
1.5154305 0.2245273 0.026346624 724769
1.5127225 0.22440231 0.025149584 3090474
1.5134007 0.22615981 0.024855673 1316137
1.5103326 0.22577542 0.023494661 3156803
1.511342 0.22794932 0.023441017 2301995
1.5096942 0.22980511 0.021914601 2959925
1.5103946 0.23093259 0.022198737 2433322
1.5115992 0.23392236 0.019768238 5717261
1.5077579 0.23117459 0.021007836 2698313
1.5551056 0.20076716 0.052435815 1647417
1.556092 0.20206952 0.052894473 1449008
1.5490499 0.19579238 0.051724195 3752789
1.5506864 0.19916111 0.052198827 2502474
1.5525877 0.20127952 0.052079439 2238780
1.5544295 0.2040357 0.052422643 1777967
1.5570132 0.20882308 0.052543581 1382691
1.5591314 0.21108085 0.052251518 986903
1.5598917 0.21334487 0.050813615 197895
1.5455867 0.19552255 0.050884068 5002334
1.5473405 0.19703597 0.051564157 3818070
1.5487674 0.20023322 0.051607788 2765125
1.5501521 0.20274317 0.051217854 2698298
1.551573 0.20492065 0.051226556 2434865
1.5536875 0.20706981 0.05133903 2105900
1.5557233 0.21020782 0.051028311 2039589
1.5565565 0.21310586 0.050810635 1184284
1.5582142 0.21560705 0.050702035 197639
1.5584067 0.21693301 0.048701763 197898
1.5419164 0.19371337 0.049294055 7962748
1.5435001 0.19632965 0.050362825 5923682
1.5447721 0.19919902 0.050539136 3751499
1.5465784 0.20091617 0.05025214 3355714
1.5476352 0.20354474 0.05041343 2960702
1.5491393 0.20651734 0.049768627 2500143
1.5511177 0.20905298 0.049432218 2236456
1.5529902 0.21173269 0.0493415 1842214
1.5546073 0.21447587 0.049063563 1316134
1.5550678 0.21655178 0.04955399 724776
1.5569983 0.21904361 0.048790574 132361
1.5396752 0.19476521 0.04868573 8290424
1.5411146 0.19672149 0.049657404 7963510
1.5425527 0.19977427 0.048374295 5462077
1.5440999 0.20316488 0.049285054 3684156
1.5462773 0.20525908 0.048430443 2959926
1.5476584 0.20781082 0.047527492 1711157
1.5492016 0.20989323 0.048071206 1645101
1.5503803 0.21286392 0.04833591 1710373
1.5519118 0.21580112 0.048427522 1579044
1.5533082 0.21761781 0.048523247 922409
1.5559587 0.2210393 0.047431052 132366
1.554679 0.22264463 0.047565162 132620
1.5370889 0.19427365 0.046836019 3551783
1.5372818 0.19620198 0.04734689 6578779
1.538871 0.19889992 0.047482371 9999489
1.5406364 0.20130891 0.048203528 5593147
1.5421081 0.20454913 0.046308875 3289921
1.5434986 0.20601112 0.046681046 2500930
1.5451427 0.20902753 0.04721415 1974326
1.5466325 0.21203279 0.046971917 1119535
1.5478545 0.21424639 0.04693532 1119271
1.5491838 0.21656024 0.047116339 1250338
1.5507624 0.21875989 0.046643317 790819
1.5536585 0.22173572 0.045495272 395805
1.553674 0.22390455 0.04617101 263956
1.5351921 0.1976555 0.0461092 4274995
1.5363564 0.20050633 0.046445608 10721145
1.5382329 0.20287043 0.046265841 6118215
1.5396825 0.20515543 0.045513749 3290436
1.5407581 0.20771575 0.046366155 3026755
1.5430113 0.21006578 0.0458529 1383226
1.5440648 0.21276873 0.04592514 922422
1.5460517 0.21510732 0.045460761 593447
1.5477092 0.21812266 0.044986367 396063
1.5497845 0.2210331 0.044674516 395800
1.5505657 0.22315985 0.044746041 330263
1.5515978 0.22487622 0.045733869 264210
1.5305959 0.198277 0.045858741 1449058
1.5329599 0.19958019 0.044638515 1446928
1.5344843 0.20115268 0.044787109 6639671
1.5359938 0.20428711 0.044458091 5592132
1.5373137 0.2068162 0.044813335 3093324
1.5389781 0.20917821 0.044562817 2107472
1.5405874 0.21167922 0.044005036 791618
1.5422326 0.21429783 0.04405582 527915
1.5435936 0.21640122 0.044079423 461605
1.5447969 0.21940511 0.04433471 330013
1.5465297 0.22285926 0.044105947 198679
1.5479079 0.22488058 0.044238508 263961
1.549386 0.22621942 0.044743657 329752
1.5289778 0.19861436 0.044195116 1186361
1.5315059 0.20095283 0.043017626 1119503
1.5318463 0.20278853 0.043541372 2564371
1.5332694 0.2051717 0.043041527 7038034
1.5346617 0.20757496 0.043783665 3225413
1.5367392 0.20991963 0.042652488 1581406
1.5378876 0.21336681 0.043116868 923209
1.5395594 0.21594977 0.043544829 528177
1.5410094 0.21799612 0.043511212 461610
1.5427346 0.22026759 0.043843687 330013
1.5446378 0.22428876 0.043563962 198677
1.5498447 0.23431331 0.042705834 197900
1.5276177 0.19904375 0.04212141 1384235
1.5272048 0.20099527 0.043137133 1383982
1.5299149 0.20406508 0.041950166 2170388
1.5311173 0.20653713 0.041972876 5656897
1.532739 0.20947456 0.041965663 2502473
1.5342002 0.21185887 0.041659653 1449559
1.5353427 0.21399307 0.042429686 1318227
1.5370631 0.21649867 0.042704701 857667
1.5264984 0.2030282 0.041048884 1581356
1.5271623 0.20591533 0.040724933 2170912
1.5288643 0.20792121 0.040452659 3880750
1.5307641 0.2106871 0.040211916 5198953
1.5320729 0.213552 0.040816784 1448537
1.5328596 0.21568733 0.04128772 1515354
1.524942 0.2045716 0.038792312 1581621
1.524539 0.20652366 0.038934529 1909552
1.5266186 0.20961374 0.039046347 3091236
1.5283045 0.21166039 0.039067686 5660774
1.5291426 0.2142092 0.039270759 2896713
1.5306191 0.21620089 0.040171623 1383256
1.5226327 0.20743299 0.037711978 1712947
1.524731 0.21109456 0.037580252 2958877
1.5258628 0.21310043 0.037510872 3488838
1.5268776 0.21557623 0.037940681 5002329
1.5205057 0.21004808 0.037100554 1713205
1.5230863 0.21225834 0.036144733 3156509
1.5233492 0.2144689 0.036270976 2500138
1.5249367 0.21716571 0.036768377 5266775
1.5195295 0.21080488 0.035131454 1778995
1.5187312 0.21264231 0.034887195 1778744
1.5213618 0.21562332 0.034701645 2630944
1.5228399 0.21837759 0.034741282 2240054
1.5176227 0.2143091 0.033206582 1844538
1.5195166 0.21756566 0.033237576 2696479
1.5201187 0.21970916 0.033276558 1382689
1.5206447 0.22199517 0.033747315 1844280
1.5165319 0.21595079 0.031937718 1976120
1.5173576 0.21869904 0.031426787 2762785
1.5181532 0.22079062 0.03168565 2236445
1.5188292 0.22335535 0.032656133 922923
1.5138427 0.21961111 0.030555069 1976375
1.5161008 0.22235048 0.030342877 2499357
1.5168729 0.22474241 0.030719817 922142
1.5123634 0.22168422 0.02913475 2041656
1.514142 0.22390741 0.029230058 3156510
1.5144823 0.22581065 0.028884828 1710618
1.511884 0.22270942 0.027189672 2172988
1.5114695 0.22523397 0.027317941 3287596
1.5126663 0.2277028 0.027399182 2039328
1.5137123 0.22940558 0.028443217 527130
1.5087763 0.22631204 0.026477695 2500676
1.5105546 0.22854674 0.025983393 3417889
1.5117486 0.23081774 0.026220858 790302
1.5113617 0.23363638 0.026325047 461075
1.5077223 0.22791958 0.025008976 2630980
1.5089085 0.22994298 0.02453059 2761525
1.5097926 0.23237884 0.02443099 2367010
1.5061285 0.23129076 0.024051964 2237017
1.5541832 0.21087748 0.052962661 988449
1.545339 0.20239872 0.051687956 2632775
1.5471896 0.20490277 0.052283108 1713215
1.5485756 0.20732933 0.052457273 1449008
1.5496305 0.2097947 0.052966654 923692
1.5515509 0.21228021 0.052614331 1119519
1.5536315 0.21506178 0.051590443 1775904
1.5543213 0.21686625 0.05199945 986902
1.5399995 0.19843656 0.050034523 7897454
1.5418555 0.19994211 0.050968051 4475217
1.5427144 0.20360738 0.051244199 2435918
1.5449014 0.20601755 0.051597059 1449806
1.5458492 0.20832545 0.051493108 1449265
1.547917 0.21070886 0.050633848 2039849
1.5493871 0.2134093 0.05048573 1842469
1.5513071 0.21543092 0.050405204 2039073
1.5525451 0.21901286 0.050557554 1315865
1.553949 0.22272062 0.049268484 197641
1.5373552 0.19974482 0.049456239 8752524
1.5394166 0.20209759 0.050151467 4476245
1.5407286 0.20486557 0.050452411 2568019
1.5430058 0.20698667 0.049841106 2698562
1.5446864 0.20944858 0.049962103 2172211
1.5451726 0.21256435 0.048876643 2237229
1.5471539 0.21488333 0.049010754 2039591
1.548418 0.21744055 0.049764156 1907745
1.5505909 0.22038794 0.048958898 1644573
1.5513327 0.22226834 0.048820257 987417
1.5529807 0.22528452 0.048343718 132106
1.5337892 0.20010155 0.049071431 7767467
1.5355146 0.20159024 0.048981309 9804191
1.5372738 0.20360583 0.049524844 5529430
1.5382895 0.20605254 0.047848821 4276533
1.5401437 0.2082842 0.048664153 3750720
1.5418977 0.21104568 0.048144281 2961206
1.5432615 0.21441489 0.047475576 2039600
1.5445874 0.21676004 0.047784805 1842473
1.5465256 0.21898019 0.048111141 1644834
1.5484664 0.22156823 0.047901273 1316125
1.5492653 0.22409421 0.047768056 1118744
1.5508173 0.22673774 0.047175467 198415
1.531639 0.20016265 0.047692478 5791868
1.5334826 0.20250529 0.046959817 12233095
1.5347488 0.20480633 0.047565281 9079155
1.5356883 0.20759887 0.046458304 4144432
1.5377059 0.20974052 0.046937823 3947070
1.5388646 0.21264285 0.046831548 2961471
1.5406739 0.21511728 0.046976566 2170932
1.5422812 0.2176891 0.046810567 1645359
1.5439689 0.21992689 0.046618998 1250343
1.5456311 0.22218996 0.046493471 1053473
1.5475471 0.22490233 0.046168983 725022
1.548681 0.22823858 0.045296431 330004
1.5501238 0.22996247 0.045943499 132361
1.5512066 0.23269451 0.045158327 132359
1.5284467 0.19951814 0.044776559 1120838
1.5291667 0.20098495 0.04625833 1252142
1.530763 0.20354265 0.046143174 7759459
1.5320466 0.20606887 0.045924008 11576201
1.5338092 0.20847863 0.04534173 4999478
1.5355811 0.21155965 0.045644581 3421509
1.5367739 0.21450728 0.045667827 2435907
1.5382907 0.21681666 0.04516387 1317445
1.5401008 0.21927607 0.044925749 1054013
1.5417253 0.2217986 0.044045031 527397
1.5434611 0.22441387 0.04497683 724769
1.5452785 0.22670305 0.044609129 592923
1.5463421 0.22885102 0.044442773 330262
1.5474143 0.23124695 0.044627964 329747
1.5502408 0.2345112 0.044170022 197897
1.5527415 0.2367354 0.044073999 263176
1.5275049 0.20296431 0.04463923 857126
1.5290525 0.20467305 0.045056343 2499108
1.5294974 0.20712918 0.044276178 5194289
1.5317907 0.20992303 0.044200122 5196600
1.5328481 0.212825 0.044389188 3289668
1.5347414 0.21411061 0.044174552 2437462
1.535912 0.21814102 0.043787837 1318211
1.5380538 0.22034603 0.043578982 725046
1.5391238 0.22209805 0.043650925 593193
1.541007 0.22499698 0.043606043 461600
1.542763 0.22771114 0.043546855 461594
1.5444832 0.23052168 0.042875826 264211
1.546293 0.2335546 0.042266548 198158
1.5471618 0.2359674 0.042623937 329233
1.5489171 0.23774344 0.042315423 197897
1.5262043 0.20428187 0.042874575 1317152
1.5263337 0.20590144 0.043456554 790815
1.5278677 0.20894819 0.042982221 2827806
1.5294787 0.21157831 0.042942166 5459255
1.5309403 0.21382737 0.042942107 2566983
1.5324957 0.216497 0.042649388 2239320
1.534269 0.21865392 0.041872859 1055556
1.5353892 0.22157907 0.042415977 593723
1.5369419 0.22378981 0.042260587 461609
1.5382961 0.22572815 0.042390406 330017
1.5403603 0.22931212 0.041987777 263709
1.542375 0.23206466 0.040884614 263964
1.5430239 0.23373711 0.041657627 395560
1.5452654 0.23717648 0.040791392 132377
1.5457312 0.23925251 0.040405154 197912
1.5241776 0.2074815 0.041825771 1317943
1.5251498 0.21024567 0.042160988 1315606
1.5271955 0.21251702 0.041358054 4143406
1.5283196 0.21502501 0.041888237 2895161
1.5303289 0.21781743 0.041142046 1778265
1.5319541 0.2205233 0.041290402 1187144
1.5332869 0.22390348 0.041311264 659769
1.5345616 0.22586471 0.041343391 461866
1.5364997 0.22841483 0.040979803 263972
1.5383335 0.23177749 0.040087223 264486
1.5400348 0.23418778 0.039874911 2505281
1.5411906 0.23601943 0.040124059 4408440
1.5433404 0.23889393 0.039502203 3095866
1.5438926 0.2401768 0.040121853 395074
1.5222269 0.20925784 0.040212631 1515573
1.5233319 0.21124148 0.04043138 2105381
1.5249722 0.21415275 0.039923251 3354410
1.5259026 0.21677142 0.040248454 2829622
1.5283766 0.2190519 0.039987087 1382739
1.5289574 0.22173136 0.039857984 1252422
1.530443 0.22397757 0.040597022 923702
1.5307504 0.2264294 0.040146589 660011
1.5332496 0.22880715 0.039661407 461606
1.5348997 0.23113787 0.039565802 197918
1.5372546 0.23416984 0.038754642 396594
1.5387115 0.23627257 0.038762629 5600439
1.5397167 0.23952913 0.038777947 12370938
1.5420896 0.24116731 0.039341927 7238332
1.5198478 0.21135545 0.038771629 1778487
1.5208098 0.21235168 0.039411366 2040880
1.5229523 0.21544063 0.038708806 2762274
1.5233829 0.21798187 0.038694799 2829618
1.5254194 0.22006148 0.038431048 1448250
1.5266511 0.22294909 0.038905263 923198
1.5280225 0.22579026 0.038962901 857644
1.5298426 0.22838205 0.039083183 593699
1.5312926 0.23042828 0.039049506 461344
1.5327737 0.23349184 0.038385034 132372
1.5347886 0.23621911 0.037846982 133143
1.536163 0.23831719 0.037915528 4022143
1.5368454 0.24058688 0.038069487 12900855
1.5182261 0.21343917 0.038042367 1712697
1.5205569 0.2167362 0.036724091 2696476
1.5214237 0.21877754 0.037048936 2697771
1.5227067 0.22147208 0.037149608 1975860
1.5244867 0.22428954 0.037369847 659250
1.5259314 0.22705561 0.037897587 659753
1.5300379 0.23190904 0.03832823 461343
1.5311863 0.23549384 0.037450969 132370
1.5325894 0.23848003 0.036985338 67084
1.5344099 0.24019951 0.037213266 4218227
1.5167747 0.21548647 0.036462724 1844028
1.5184088 0.21810305 0.035590172 2368545
1.5192356 0.22062093 0.035811543 2368547
1.5210645 0.22292918 0.035686016 2173494
1.5222089 0.22553229 0.035915256 725547
1.5225561 0.22754359 0.036250114 462119
1.5158966 0.21694231 0.034239471 1975860
1.5148376 0.21856046 0.034218311 1778998
1.5173565 0.22196311 0.034005821 2170656
1.5185138 0.22439879 0.034426391 2172215
1.5201278 0.22746623 0.034279406 923185
1.5213513 0.22893178 0.035466313 527401
1.5134224 0.22031605 0.032997906 1778744
1.5151556 0.22389019 0.032527447 2630169
1.5161351 0.22553051 0.032805264 2105640
1.5179784 0.22829705 0.033025682 1383737
1.5179009 0.23095721 0.033298254 725300
1.5117469 0.22274464 0.031309426 1779003
1.5129139 0.22532845 0.030531764 3157022
1.5140949 0.22731256 0.031545997 2105118
1.5155865 0.22968221 0.031228244 1515065
1.5158906 0.23166716 0.031594753 1252411
1.5096641 0.22506875 0.030794382 1844536
1.5118001 0.22805005 0.029995799 3287319
1.5131083 0.23069167 0.030112684 1447717
1.5143439 0.23353058 0.02989167 1383222
1.5154809 0.23562026 0.030843318 791611
1.5078281 0.22718579 0.029023528 2107450
1.5097793 0.23004985 0.0286538 3615521
1.5108259 0.23170686 0.02846545 1710628
1.5119615 0.2345826 0.028336346 1119539
1.5067385 0.22892171 0.02721566 2369611
1.5072708 0.23119557 0.027549624 3287606
1.5437518 0.20800215 0.05221343 858187
1.5452933 0.20897126 0.052730858 858172
1.547138 0.21165067 0.052607298 857135
1.5487314 0.21456647 0.052762568 922407
1.5501134 0.21718597 0.052951396 1184551
1.5519071 0.22217059 0.052650869 723724
1.536763 0.20116717 0.051073372 3556222
1.5379411 0.20268524 0.051205099 2898804
1.5397551 0.20632219 0.05110383 2041175
1.5415404 0.20815456 0.051496029 1252941
1.542583 0.21058804 0.051670671 1121078
1.5443953 0.21294564 0.051853895 792112
1.5462186 0.21576452 0.052024543 988201
1.5472168 0.21842569 0.052088559 922413
1.5482035 0.22044569 0.052303076 1053736
1.5504936 0.22348154 0.051459253 723728
1.5499452 0.22588724 0.05176729 1315603
1.5343548 0.20214713 0.049850643 5665695
1.5365033 0.20434481 0.050632179 3096161
1.5375863 0.20670187 0.05039221 2304857
1.5391488 0.20944381 0.050858676 1581649
1.5400977 0.21227813 0.050998271 1318204
1.5420251 0.2146858 0.051090479 857651
1.5434864 0.21713501 0.05138129 922408
1.5447758 0.22010535 0.051066458 725286
1.546193 0.22172809 0.050870419 1119005
1.5494208 0.22521579 0.049568594 987157
1.5493881 0.22686702 0.049746931 1053203
1.5326052 0.20304281 0.049501181 7310279
1.5333393 0.20514566 0.050163984 4150917
1.5351901 0.20798695 0.049431741 2831958
1.5364408 0.21117574 0.049944043 1976410
1.5378392 0.21381307 0.050523341 1384005
1.5396492 0.21597832 0.050149024 1120570
1.5419196 0.21882719 0.049550056 1579557
1.5430956 0.22082829 0.048423648 1842211
1.5445633 0.22268844 0.048400104 1579293
1.5471749 0.22587913 0.04795903 1381655
1.5475394 0.22865957 0.04844749 1052436
1.5479562 0.23095673 0.048234284 461584
1.5303261 0.20486164 0.048104525 10727892
1.5316522 0.20720887 0.048450947 7371159
1.5327007 0.20971149 0.048596859 2832215
1.5341823 0.21231079 0.048584819 2634327
1.5360808 0.2148602 0.047805667 2633036
1.5380822 0.21721089 0.0471012 2763312
1.5394905 0.21931714 0.047257185 2303022
1.5404429 0.22231829 0.047368824 1908006
1.5419874 0.22490126 0.047148347 1579040
1.5440056 0.22759956 0.046488643 1381151
1.5456696 0.23072851 0.046552956 1184281
1.5465518 0.23211735 0.047007561 658454
1.5491688 0.23546326 0.047261059 328968
1.527244 0.20566517 0.046217322 5133147
1.5291948 0.20797086 0.047050297 10592665
1.5303632 0.21124589 0.047487617 3752785
1.5320584 0.21394956 0.046566188 2961997
1.5337768 0.21542984 0.046326399 3421759
1.5354186 0.21854764 0.046313167 3158322
1.5364865 0.22076106 0.046765924 2565934
1.538002 0.22374624 0.046442866 1710887
1.539593 0.22620636 0.046441436 1381148
1.5411899 0.22871888 0.045406878 1183769
1.5431947 0.23127574 0.045054495 789265
1.5444587 0.23372221 0.045293331 658201
1.5461464 0.23586667 0.045828402 725015
1.5456569 0.23928726 0.046136916 526607
1.5254946 0.20768797 0.044962287 2369870
1.5269758 0.20980108 0.046048224 9342862
1.5277066 0.21241486 0.045910418 7763292
1.5300083 0.21439171 0.044879913 3552302
1.5311898 0.2171725 0.044936359 3486517
1.532968 0.2197414 0.044901431 2566968
1.5345161 0.22264063 0.045297921 2171437
1.5361599 0.22492194 0.044936478 1184803
1.537465 0.22745323 0.044847488 724507
1.5394607 0.23065746 0.044092953 2368569
1.5415349 0.23278785 0.043807387 6313572
1.5421844 0.23519069 0.04398042 5856623
1.5431094 0.23735785 0.0440135 5988957
1.5438437 0.23960018 0.044700146 463156
1.524459 0.21114796 0.044464707 5725548
1.5256045 0.21359307 0.044777632 7894875
1.5277412 0.21607256 0.043290794 3880750
1.5293783 0.21853554 0.043770313 2960180
1.5303022 0.22140205 0.044115543 2566194
1.531811 0.22338504 0.044112861 1842990
1.5331774 0.22614413 0.043986976 1315873
1.5351129 0.22881019 0.04368788 658458
1.5364041 0.23097342 0.043796241 1513514
1.5386572 0.23381913 0.042655587 10393519
1.5399525 0.23630452 0.043111145 12958150
1.541249 0.2390995 0.042283535 10921916
1.5431604 0.24170214 0.043514848 3160677
1.5222856 0.21272862 0.043003261 2764353
1.5237935 0.21474671 0.043023705 5986384
1.5251185 0.21734017 0.0425421 5131831
1.5269921 0.21974462 0.04257226 2763056
1.5277982 0.22248 0.04282099 2171440
1.529958 0.22510076 0.04320395 1579301
1.531911 0.22812283 0.043045819 1250334
1.5330389 0.23039442 0.042039216 395286
1.5349097 0.23284626 0.041800976 1581112
1.5358729 0.23456782 0.041512668 3946814
1.5377829 0.23765492 0.041796625 14340573
1.5383384 0.24066275 0.041794121 11184064
1.5396924 0.24227864 0.040441096 4674224
1.5196577 0.21356654 0.041509211 1316913
1.522063 0.21675587 0.041563928 3815467
1.523158 0.21854496 0.040800631 4144184
1.5244188 0.22101039 0.041213751 3091758
1.5257891 0.22351539 0.04150188 2039602
1.5267022 0.22629744 0.040900767 1185839
1.5282503 0.22863561 0.040872812 922921
1.530292 0.23146695 0.040388584 330013
1.5322264 0.23450232 0.040756047 197897
1.5338446 0.23679179 0.040727913 3814712
1.5360146 0.23936385 0.040539086 13618643
1.5368981 0.24154669 0.039315403 14146812
1.5381498 0.24351275 0.040015399 6714783
1.5176501 0.21564275 0.040153921 1317181
1.520318 0.21723539 0.039027572 1710357
1.5206616 0.21985227 0.039821863 2960169
1.522143 0.22265065 0.039497912 3092271
1.5233837 0.22518659 0.040040493 2105649
1.5253971 0.22880417 0.039190352 791338
1.5269481 0.23061913 0.038593829 593441
1.5290084 0.23354226 0.038201451 330011
1.529689 0.23568654 0.038526535 197905
1.5310981 0.23805994 0.039315104 2106673
1.532968 0.24042273 0.039048135 8618638
1.5347376 0.24264145 0.038614452 12831723
1.5357904 0.24529082 0.039216638 7568509
1.5162647 0.21690089 0.039277852 1449531
1.5158759 0.21823633 0.038065314 1515314
1.5188684 0.22150838 0.038199186 2368290
1.5198922 0.22430056 0.037987769 3420723
1.5209587 0.22636116 0.038465679 2171443
1.5229561 0.22851139 0.037895977 856622
1.5244997 0.23145401 0.037543714 462112
1.5248126 0.23404139 0.038541496 790823
1.527132 0.23613709 0.037390053 330010
1.5290622 0.23889595 0.037504077 856609
1.5311058 0.24163204 0.036748767 3029062
1.532926 0.24444371 0.036789834 11386576
1.5331373 0.24686295 0.037271261 8224641
1.5143695 0.22016853 0.037433088 1252400
1.5164088 0.22243607 0.036636353 1645589
1.5172913 0.22495699 0.036636293 3157291
1.5186182 0.22794789 0.036755085 2698293
1.5212107 0.23048586 0.036195755 790833
1.5223018 0.23311406 0.036371768 724777
1.5239059 0.23576367 0.036079884 461854
1.5257417 0.23790556 0.036179841 395803
1.5263813 0.24023128 0.035327733 329752
1.5288546 0.24298966 0.035265326 724758
1.5126758 0.22189367 0.036141753 1384242
1.5141331 0.22436219 0.035603404 1514267
1.5152748 0.22685039 0.03526032 2499359
1.5164943 0.22895658 0.035770118 3092014
1.5186313 0.23174423 0.034623146 988214
1.5195823 0.23444593 0.034863293 856625
1.521346 0.23621655 0.035111248 527650
1.5228176 0.23937672 0.034989476 461854
1.5111367 0.22316939 0.033858657 1647416
1.5102583 0.22529364 0.034338355 1384238
1.5131644 0.22737259 0.033974051 1842454
1.5147349 0.23015112 0.033894897 2565932
1.5155612 0.23309028 0.033691406 2172220
1.5178269 0.2357226 0.033544779 856629
1.5188235 0.2380656 0.033214629 593450
1.5087868 0.22652286 0.033576548 1450033
1.5109173 0.22973686 0.032555401 1908501
1.5123745 0.23142344 0.032595456 2104604
1.5131129 0.2341187 0.032626271 2829115
1.5070024 0.22890329 0.031840026 1647668
1.5093642 0.23113918 0.030911267 2697242
1.5098574 0.23297924 0.031187236 2366749
1.5058775 0.22958666 0.030261219 2041655
1.5435767 0.22071207 0.051382601 856345
1.5461835 0.22340161 0.052315891 790818
1.5473591 0.22565633 0.052825868 460813
1.5478003 0.22764397 0.05250442 789775
1.5359976 0.21343565 0.050584793 2108227
1.5386405 0.2177766 0.050102651 725821
1.5404212 0.21917588 0.050845623 725550
1.541786 0.22163773 0.050628543 790816
1.5433414 0.22432101 0.050847054 659487
1.5452302 0.22678524 0.051539421 527121
1.5467043 0.22973818 0.051160216 658190
1.5467701 0.23165679 0.050847352 723726
1.5338751 0.21291721 0.049733341 2831694
1.5348197 0.21585649 0.049710453 1647439
1.5364362 0.21740121 0.049979866 1252415
1.5382082 0.22034431 0.050121725 791343
1.5394608 0.22316688 0.049964786 856353
1.5410112 0.22612476 0.049872935 593183
1.5426583 0.22824025 0.049901247 527384
1.5445487 0.23011243 0.048977971 592656
1.5456073 0.23321933 0.049488127 723986
1.5281082 0.21057802 0.04802388 4675449
1.5318794 0.21413445 0.048633397 2962774
1.5327342 0.21718073 0.048701584 1845082
1.5340669 0.21931338 0.049253821 1712961
1.5353416 0.22193015 0.049473882 857405
1.5368686 0.22456384 0.049357057 790824
1.5388715 0.22724789 0.049200237 462116
1.5396523 0.22945464 0.048972487 461600
1.541868 0.23219675 0.04851979 395543
1.5440069 0.2344892 0.048092365 657935
1.5443257 0.23752207 0.048169851 330252
1.5452374 0.2392121 0.048473239 1052436
1.5272056 0.21248829 0.047287524 3689330
1.5289564 0.21498191 0.047211349 2962771
1.5302422 0.21781576 0.047717988 2240096
1.5313904 0.22076112 0.048463881 1976389
1.5334336 0.2235086 0.047990561 1448487
1.5346555 0.22701579 0.048527956 724525
1.5357907 0.22884977 0.04827702 527402
1.5378538 0.23073429 0.047981799 724009
1.5392433 0.23320055 0.047041774 1842208
1.5411432 0.23614901 0.046605349 1447210
1.5430701 0.23866773 0.047384739 198421
1.5433865 0.24086571 0.046537578 66322
1.5251527 0.21400231 0.046357512 4807552
1.5264199 0.2168414 0.046572983 2765143
1.5283072 0.2197122 0.047035575 2436952
1.5284705 0.2225706 0.047026813 2239550
1.5309657 0.22517109 0.044827402 2368297
1.5324906 0.22716105 0.044617116 2171168
1.5334663 0.23066491 0.046522617 197641
1.5354333 0.23265517 0.045905888 1972784
1.5371555 0.23556012 0.045856655 7302560
1.539114 0.23780751 0.045371473 7697829
1.540222 0.23987412 0.045803964 4805991
1.541204 0.24293268 0.045537233 2039626
1.522631 0.21560198 0.045433223 5662333
1.5238911 0.21851766 0.045536816 2896210
1.5258284 0.22067684 0.045485914 2369611
1.5262731 0.22285366 0.046087205 1976907
1.5286444 0.22553009 0.043895721 2170918
1.5301543 0.22846663 0.043689549 1578778
1.5323766 0.23216385 0.042865276 1249813
1.533524 0.23351359 0.044283032 328707
1.5350924 0.23658526 0.044483364 9472656
1.5363855 0.23902625 0.043578207 15524052
1.5379995 0.24116808 0.044319808 11515062
1.5395801 0.24456346 0.044224501 3224131
1.5405755 0.24765807 0.044371784 132121
1.5202603 0.21462172 0.043740034 3817812
1.5200073 0.21692187 0.043712735 5792106
1.5217786 0.21976686 0.044109046 3948621
1.5233594 0.22203106 0.044352949 2171966
1.5253408 0.22445881 0.042378068 2368296
1.5264454 0.22693372 0.04248029 2039334
1.5279846 0.22962272 0.042936981 1710365
1.5298911 0.23211414 0.042248428 1184024
1.5309461 0.23461765 0.04292047 526347
1.5328829 0.23751056 0.042988956 3682081
1.5338197 0.24043614 0.042483509 13613985
1.5356145 0.2423963 0.04253 12628359
1.5369766 0.2442295 0.043534398 9604425
1.5384381 0.24669474 0.043768883 99
1.54013 0.25067222 0.043224275 132104
1.5183172 0.21619195 0.042414308 1974596
1.5179428 0.21878392 0.04238224 3950939
1.5198692 0.22121811 0.042314827 4014912
1.5208236 0.22328252 0.043151557 2303793
1.5224977 0.22623175 0.041831732 2303021
1.5243912 0.22847885 0.041828573 2170918
1.5256109 0.23093253 0.041699708 1775904
1.5277399 0.23371428 0.041668296 1249814
1.5288348 0.23665202 0.041771948 591882
1.5304639 0.23889875 0.041524529 525572
1.5318341 0.24169099 0.040716052 8940372
1.5331558 0.24371141 0.041352034 12496269
1.5161673 0.21939886 0.040395558 1383482
1.5168511 0.22202307 0.041567683 3754322
1.518661 0.22508943 0.040893137 3158839
1.5196621 0.22708654 0.040372849 2698288
1.5219984 0.22931188 0.040262997 2434089
1.5230749 0.23223257 0.040613413 2105124
1.5247954 0.23488051 0.040163994 1710110
1.5265615 0.23723531 0.039685547 1381144
1.5283091 0.23990321 0.039263904 1710623
1.5297158 0.24229228 0.039231241 4010290
1.5308279 0.24516851 0.039856255 7099973
1.5146937 0.22175795 0.039896429 1515586
1.5150735 0.22327584 0.040141702 2568776
1.5168241 0.22617054 0.039324641 3487548
1.5184186 0.22890401 0.039521039 2632237
1.519603 0.23111719 0.038602233 2697261
1.5215091 0.23369563 0.039369047 2170918
1.5221119 0.23661995 0.038554549 1908005
1.5242479 0.23864108 0.038707495 1644320
1.5258765 0.2415964 0.037894726 1052697
1.5272617 0.24356174 0.038182855 1512218
1.5124571 0.22472996 0.038657129 1515569
1.5147688 0.22739726 0.03764534 2960686
1.5154139 0.23021042 0.038676739 2961713
1.5173296 0.23222381 0.036740124 3158066
1.5188491 0.23469776 0.037631929 2631473
1.5197903 0.23746789 0.037637055 2302766
1.5216655 0.24033701 0.037069857 1513509
1.5104752 0.22635639 0.03669709 1055019
1.5128123 0.22908443 0.035521984 1776668
1.513249 0.23100191 0.036768317 3223857
1.5149901 0.23332131 0.036422729 3421236
1.5167269 0.23579699 0.036034882 3289656
1.5083019 0.22855574 0.034733832 989479
1.5086563 0.22940654 0.035916209 1186609
1.5111439 0.2330085 0.034725606 2105375
1.5130047 0.23521084 0.034966648 3618109
1.5067738 0.23089385 0.03382194 1055271
1.5467513 0.23289424 0.052257597 1118480
1.5429405 0.22925168 0.051567972 395800
1.5430106 0.23183864 0.052643657 395022
1.5449959 0.23438239 0.052260697 723726
1.5449761 0.23613268 0.051152527 1117976
1.5409451 0.23302859 0.050367832 329757
1.5423006 0.23470277 0.050997257 329228
1.543505 0.23757714 0.051218629 460811
1.5436692 0.24113095 0.050932765 263689
1.5313936 0.22199947 0.049716115 857680
1.5325574 0.22422659 0.049144804 725572
1.5337141 0.22574043 0.04898572 856620
1.5348318 0.2280913 0.048713982 396603
1.5367812 0.23248351 0.047920763 263206
1.5381522 0.23422962 0.047949016 132383
1.5412258 0.23707646 0.049068511 263974
1.5417818 0.23965102 0.048788548 329240
