# .PCD v0.7 - Point Cloud Data file format
VERSION 0.7
FIELDS x y z rgba
SIZE 4 4 4 4
TYPE F F F U
COUNT 1 1 1 1
WIDTH 983
HEIGHT 1
VIEWPOINT 0 0 0 1 0 0 0
POINTS 983
DATA ascii
1.0683905 0.20048371 0.00045835972 9143417
1.0673187 0.20189109 4.5716763e-05 9143676
1.0676676 0.20097858 0.0027109385 9602152
1.0638003 0.20000875 0.0017968416 9405295
1.0651667 0.2025654 0.0012229681 9273708
1.0669689 0.20491114 0.0010470748 8813415
1.0598222 0.19876221 0.00054991245 9406073
1.0611789 0.20143268 0.00054246187 8879984
1.0629048 0.20389637 0.00049728155 8748400
1.0641098 0.20639995 0.00072920322 7827810
1.0661315 0.20816535 0.00082987547 7565149
1.0582564 0.20016485 0.00058919191 9011050
1.0667949 0.20233786 0.0048325658 8551277
1.0624421 0.20052737 0.0041306615 9010535
1.064276 0.20311141 0.0036336184 8484445
1.0658658 0.20603448 0.0034734607 7892826
1.0672779 0.20846337 0.0039402843 7235676
1.0586424 0.1991761 0.002951324 9075811
1.0604234 0.20188257 0.0027539134 8812636
1.0618911 0.20463973 0.0024238229 7760720
1.0632361 0.20753068 0.0023115873 6775120
1.0652238 0.20975104 0.0019264817 6512982
1.0549521 0.19841924 0.0017086864 9141346
1.0566094 0.20066082 0.001517415 8681310
1.0580989 0.20362362 0.0013738871 7827033
1.0598412 0.20552322 0.0014849901 7038807
1.0611941 0.20742276 0.0019378662 6249555
1.050869 0.19697994 0.00061041117 9076589
1.0522234 0.20006835 0.00071436167 9142639
1.05449 0.2020863 0.0007314682 8419177
1.0558711 0.20410743 0.0011520982 7235675
1.0473602 0.19628784 0.00041347742 9208175
1.0490386 0.19785851 0.00062817335 9142381
1.0604925 0.20058671 0.0049163103 8551263
1.062638 0.20482659 0.0059304833 6185046
1.0643082 0.20716387 0.0057508349 5921627
1.0656414 0.20976871 0.0060420632 5264478
1.0563933 0.19819307 0.004876852 8353634
1.0578377 0.20055261 0.0053668022 7564885
1.0595461 0.20288089 0.0050157309 6512460
1.0605606 0.20524207 0.0050917864 5460811
1.0628586 0.2078042 0.0046665668 5396566
1.0642449 0.21049479 0.0039858818 4607844
1.0661721 0.21306646 0.0038749576 4739682
1.0522082 0.19695154 0.0039631128 8879205
1.0536014 0.19959316 0.0040619969 7892305
1.0552902 0.20194221 0.0036814809 7168582
1.0568755 0.20439273 0.003798306 5788481
1.0584903 0.20608386 0.0032230616 5592392
1.0611174 0.20852819 0.0029975772 4933944
1.0501179 0.1980055 0.002795577 9141342
1.0517945 0.20016629 0.0028424263 8286289
1.0528712 0.20321476 0.0026344657 6577221
1.054963 0.2048142 0.002777338 5657931
1.0457709 0.19679022 0.0018473864 9338723
1.0475866 0.19928831 0.0017638803 9273187
1.0492051 0.20150581 0.0016034245 8484703
1.0506881 0.20323905 0.0019029975 6972505
1.0424529 0.19568267 0.00075864792 9405292
1.0436466 0.1981281 0.00081056356 9405290
1.045294 0.20074096 0.00080263615 9340018
1.0471154 0.20253104 0.0014386773 7893088
1.0384656 0.19426128 0.00057655573 9668724
1.04 0.19648808 0.00050246716 9537393
1.041364 0.19899878 0.00051122904 9471342
1.0625421 0.20377696 0.010548472 4212827
1.0643456 0.20634404 0.0110659 4806277
1.0600336 0.20346591 0.0092406273 3556950
1.0618397 0.20507482 0.0087804794 4345952
1.0640888 0.20681989 0.0092201829 4016220
1.0657634 0.21060571 0.0085593462 4542063
1.0666382 0.21175835 0.0083103776 5331333
1.0540892 0.20036104 0.0086047053 4081198
1.0562027 0.20137572 0.0078548193 4212283
1.0582788 0.20317939 0.0076794624 3950150
1.0527135 0.20068559 0.0071012378 4473904
1.0543809 0.20213491 0.0065151453 4277047
1.0568452 0.20430151 0.0064865351 2437444
1.0470041 0.19605258 0.0046393871 8748649
1.0488026 0.19905162 0.0054764152 7235657
1.0505712 0.20110562 0.0056055188 5327666
1.0518618 0.20308915 0.0049331188 4407084
1.0445428 0.19742465 0.0044332147 8879716
1.0465724 0.20006451 0.0039488077 7694659
1.0482044 0.20259076 0.003883183 5392946
1.0411341 0.1961697 0.0029749274 9338976
1.0424968 0.1990419 0.0028680563 9272926
1.0445013 0.20120344 0.002404511 8286287
1.0453361 0.20340079 0.0026507974 5919035
1.0373201 0.19496396 0.0016774535 9667429
1.0388155 0.19757009 0.0014775991 9601892
1.040176 0.19991916 0.0016833544 9535842
1.0418971 0.20258528 0.001676321 8155222
1.0426618 0.20441476 0.0023988485 5130295
1.0335534 0.19394043 0.00098562241 9996653
1.0349662 0.19649145 0.0009239316 9865582
1.0366663 0.19856259 0.0010533929 9602150
1.037807 0.20134112 0.0010049939 9273444
1.0395058 0.20331436 0.0012362599 8616291
1.0312262 0.19482428 0.00045055151 10194804
1.032779 0.19714248 0.00078946352 10194805
1.034817 0.19994158 0.00071012974 9339238
1.0635742 0.20247221 0.014912188 3953024
1.0635998 0.20300612 0.014300406 5661596
1.0661802 0.20676443 0.01471293 7240106
1.0591458 0.20063001 0.013953626 5794719
1.0613539 0.20216191 0.013733745 5859480
1.0631177 0.20458004 0.013328135 7306926
1.0645124 0.20671245 0.01371187 8556728
1.065891 0.20980138 0.012096226 7634095
1.0562373 0.19967249 0.012567818 3097968
1.0575635 0.2008791 0.012175322 5202313
1.0594654 0.2030398 0.012254298 7570611
1.0607245 0.20485458 0.01305598 9280963
1.0517405 0.19851571 0.01170212 2109502
1.0540507 0.19971415 0.011276245 3425884
1.0555593 0.20157057 0.011653602 7176357
1.0502295 0.19852898 0.010772169 2041897
1.051425 0.2003451 0.0095469952 2766396
1.0540751 0.20189014 0.0085656643 1978695
1.0476527 0.20000815 0.0086883903 2632738
1.0491543 0.20112452 0.0074800849 2960938
1.0440798 0.19949335 0.0068193674 5262126
1.0457122 0.20042038 0.0067774653 4341284
1.0462116 0.20252001 0.0058130622 2761488
1.038667 0.19519114 0.0044804215 8880491
1.0403233 0.19756874 0.0047405958 8814442
1.0414689 0.19993159 0.0056940317 6511672
1.0429966 0.20196268 0.0052535534 4340001
1.0444763 0.20333987 0.0051540732 3025697
1.0361143 0.19587019 0.0038128495 9077093
1.0378127 0.1986402 0.0041427016 8879200
1.0391612 0.20058313 0.0045134425 7562816
1.0412031 0.20405421 0.0038461089 4076833
1.0319189 0.19462827 0.0030960441 9471336
1.0337007 0.19716054 0.0031217933 9141855
1.0352587 0.19971225 0.0029408932 9140566
1.0370212 0.20212469 0.0022557974 8614479
1.0384843 0.20491636 0.0027683377 5326640
1.0299414 0.19626689 0.0017856956 9865060
1.0315051 0.19864348 0.0013762116 9536097
1.0330887 0.20109394 0.0017108321 9140570
1.034785 0.20389566 0.0014820099 8680792
1.0359504 0.20590711 0.0022776723 6313527
1.0288239 0.1996361 0.00052750111 9865843
1.0301849 0.2020466 0.00085890293 9404780
1.0322089 0.20433727 0.0012945533 9141090
1.033408 0.20641643 0.0016192794 8286802
1.0674069 0.20643985 0.018338382 1518447
1.0628603 0.202674 0.016921997 9281733
1.063912 0.20384011 0.01739496 10069183
1.0655826 0.20695105 0.016918719 6844582
1.0665791 0.20907113 0.017192364 1120600
1.0587299 0.20091221 0.016027033 9675468
1.0606914 0.20302385 0.01610595 10333129
1.0618749 0.20557156 0.015877903 11647946
1.063663 0.20758274 0.016168773 10331331
1.0530095 0.19795534 0.014910936 5794209
1.0549023 0.19910493 0.014897823 7570100
1.056554 0.20166188 0.014892161 10134986
1.0581629 0.20409125 0.014802754 10990794
1.0599661 0.20611247 0.015232086 11188679
1.0511314 0.19793561 0.013875663 5135495
1.0525657 0.2004593 0.013609231 9147323
1.0543301 0.20228991 0.013755322 10201032
1.0473137 0.19742888 0.013017774 2897740
1.048641 0.19933107 0.012464404 6580866
1.0503607 0.20112267 0.01248306 9016241
1.0450007 0.19841507 0.011493921 2764590
1.0463463 0.2001065 0.011040688 5198942
1.0426428 0.19952753 0.0096619725 2696984
1.0442641 0.20034149 0.0098664165 2435108
1.0398766 0.19890097 0.010269523 1906692
1.0404985 0.20025918 0.0084322095 3420704
1.042284 0.20186764 0.0079162717 1381387
1.0366167 0.20081377 0.0061802268 6775372
1.0380056 0.20134109 0.0065792203 4801061
1.0397686 0.20410338 0.0063055158 2038028
1.031301 0.19682515 0.0039981008 8683113
1.0329225 0.19925305 0.004255712 8287845
1.0343527 0.2012319 0.0051409006 7564377
1.0353706 0.20240819 0.0057661533 5524011
1.0376419 0.20538348 0.0050393939 2300429
1.0305458 0.19966134 0.0038368702 8418915
1.0318851 0.20243323 0.0045123696 8023895
1.033586 0.20438173 0.0037004352 6970424
1.0349125 0.20717213 0.0036302805 3747101
1.0363014 0.20900309 0.0037488341 2235922
1.0295285 0.20322704 0.0027566552 9074775
1.0313647 0.2057474 0.0017554164 8746068
1.0324049 0.20838046 0.0027282834 4931372
1.0334496 0.2118226 0.0033153892 2563857
1.027478 0.20460048 0.0012969375 9469792
1.0287647 0.20736822 0.0013890862 8746322
1.0300149 0.20951059 0.0014569163 6970698
1.0266763 0.2082994 0.00030857325 9273452
1.0289727 0.2139017 0.00022941828 6839909
1.0297579 0.21536922 0.00061768293 4407370
1.0653895 0.20510647 0.020621419 1191074
1.0664231 0.20547828 0.019697487 795281
1.0630225 0.2046414 0.019943595 10397895
1.0642426 0.20869693 0.019241571 1646446
1.0662298 0.20996538 0.01954776 1448526
1.0564775 0.20000741 0.017205894 9479124
1.0572785 0.20113879 0.018409789 10662866
1.0594348 0.2036415 0.018658638 12108496
1.0605912 0.20622721 0.018213868 9015222
1.0626458 0.20813403 0.018768847 3883662
1.0520957 0.19874799 0.017591536 8754626
1.0539012 0.19974983 0.017257988 9806794
1.0555727 0.20304257 0.017299831 11779787
1.0572735 0.20454726 0.017460167 10464198
1.0587119 0.2061722 0.0176121 7175601
1.049809 0.1985862 0.016169429 9147581
1.0515722 0.20150638 0.016165018 10265799
1.053401 0.20311007 0.01628232 11253962
1.046442 0.1977751 0.015199363 7436437
1.0474252 0.20067066 0.01469183 9278387
1.0493075 0.20187166 0.015044749 9674183
1.0422819 0.19756165 0.013303578 3092793
1.0437255 0.19838095 0.013591111 6316390
1.0454116 0.20110071 0.01363188 8883363
1.0403078 0.19824427 0.012825489 3552819
1.0411785 0.20041302 0.012319744 6841437
1.0432479 0.20141113 0.012547493 8159104
1.0380036 0.19943827 0.010679543 2368021
1.0391588 0.20055273 0.011505485 5393728
1.0358081 0.2010203 0.0096014142 1972746
1.0377107 0.20306721 0.0096092224 5261370
1.0334458 0.20291433 0.0081267357 2629642
1.0347437 0.20358315 0.0083340406 3946278
1.0356297 0.20589429 0.007655561 4669738
1.0309776 0.2034207 0.0058778524 7169876
1.0318564 0.20484647 0.0066503882 4209445
1.0337677 0.20805988 0.0060054064 3616281
1.0286782 0.20440388 0.0051581264 7695705
1.0296016 0.20614716 0.0054922104 5787961
1.0327681 0.20933595 0.004778266 3483937
1.0276145 0.20701477 0.0037201643 7891777
1.0288274 0.21089458 0.0025499463 5260069
1.030074 0.21262991 0.003094852 2499353
1.026945 0.21141708 0.0019605756 7233354
1.0282602 0.21476963 0.0028207898 3024911
1.0263424 0.21578282 0.00080388784 6378831
1.0276504 0.21784618 0.00082099438 4340540
1.0250258 0.21979702 0.00014132261 6248016
1.0270634 0.22127736 0.00053751469 3551777
1.0598087 0.20412317 0.022598445 4479369
1.0618405 0.20561293 0.022762716 2833266
1.0638283 0.20971489 0.021096766 1713235
1.0648398 0.2113778 0.021960914 1711946
1.0542861 0.20055503 0.021760881 9742543
1.0564909 0.20233437 0.02134043 6583712
1.0578315 0.20481864 0.021141887 2305899
1.0594422 0.20668393 0.02114135 1648484
1.0618477 0.2092177 0.021318018 2108507
1.0624678 0.21099582 0.022828221 1976918
1.0506794 0.19952905 0.01987344 9082565
1.0528417 0.20071298 0.020254135 10530505
1.0544138 0.20350087 0.020110428 7636135
1.0562439 0.20506406 0.020205975 2241656
1.0468509 0.19886169 0.018796682 8555693
1.0486289 0.19947794 0.018753111 8949941
1.0506438 0.20225513 0.018887997 7569840
1.0522261 0.20386827 0.018755853 7769768
1.0449839 0.1988073 0.017523348 8620454
1.0465882 0.20092654 0.017669976 9014447
1.0481608 0.20275015 0.017495096 7633828
1.0413604 0.1979824 0.016111612 6908790
1.042792 0.19886878 0.01671195 8487570
1.0443741 0.20213085 0.016208708 8751533
1.0392538 0.19862613 0.015540898 7368049
1.0408577 0.20170757 0.01451236 8421002
1.0415282 0.20266092 0.015506089 8027535
1.0368458 0.1995779 0.013898015 5788496
1.0383093 0.20200375 0.013470113 7235935
1.0346274 0.20140761 0.012349248 4932666
1.0356561 0.20256981 0.012697637 5919816
1.032802 0.20296121 0.010876 4471343
1.0326937 0.20461392 0.010804832 5853512
1.0314063 0.20528951 0.0095045567 4208947
1.032764 0.20879716 0.0074953437 6115664
1.0293016 0.20769763 0.007617414 3815216
1.0266136 0.20850155 0.0069625974 4933434
1.0281782 0.21609288 0.0051881671 4536855
1.0291485 0.2160702 0.0042117834 4537618
1.0251558 0.21705365 0.0016347766 5589573
1.0275472 0.21938649 0.0022501349 2694948
1.024891 0.22008288 0.0012763143 4471594
1.0259106 0.22270826 0.0011146665 3879458
1.0266246 0.22540277 0.00090771914 3549724
1.0235336 0.22431323 0.00039732456 5786686
1.0248587 0.22657987 0.00044763088 4471082
1.0264633 0.22928703 5.7518482e-05 3352087
1.0245235 0.23046967 0.00013029575 4668458
1.0577828 0.20316032 0.02445817 597838
1.0585792 0.20392829 0.025477409 2373221
1.0607449 0.20610738 0.024979591 2504806
1.0636867 0.21256936 0.024703503 1384007
1.0657276 0.21409363 0.024985194 1185597
1.0537949 0.20154926 0.023613453 4875945
1.0554856 0.20303416 0.024263263 595809
1.0568984 0.20549846 0.02382648 2898806
1.0583549 0.20793012 0.023581743 3360128
1.0602342 0.2103512 0.023649275 3161714
1.0617608 0.21191093 0.024425626 2240355
1.0498703 0.20055377 0.022600234 4544106
1.0515238 0.20165294 0.022841036 9873079
1.0532192 0.20420548 0.02284658 7897761
1.0549524 0.20627928 0.022561252 6385044
1.0564725 0.20813417 0.02379173 1256311
1.0478597 0.20046744 0.021624267 3423320
1.049396 0.20305288 0.021543205 1976392
1.0510757 0.20500755 0.02148217 5466766
1.0439563 0.19973758 0.020343959 7172220
1.0455179 0.20154184 0.020249546 3947595
1.047039 0.20399502 0.020358741 1251390
1.0399548 0.19883233 0.01779741 7698825
1.0414606 0.20009935 0.019021809 7697796
1.0431921 0.20308244 0.019102991 3025990
1.0450376 0.20424515 0.019880772 593201
1.0380549 0.19986919 0.01763165 6052720
1.0395753 0.2019293 0.017620265 5197656
1.0409993 0.20364437 0.017634153 3158076
1.0354371 0.20076215 0.016356766 3092008
1.037342 0.20347643 0.016147912 987162
1.0387393 0.20423186 0.017375708 460825
1.0329212 0.20197889 0.014866889 4604734
1.0346906 0.20396036 0.014796197 1447456
1.031382 0.20406601 0.013308167 5985869
1.0323763 0.2045283 0.013838947 3421235
1.0294845 0.20525888 0.012999356 4868677
1.0293895 0.20631149 0.012001753 4802629
1.0271773 0.20852506 0.010866582 4605238
1.0238645 0.22742471 0.001298964 4076072
1.0231451 0.23115027 0.0004503727 4733738
1.0578531 0.20534551 0.027643085 4347267
1.0596864 0.20684052 0.027645826 3886986
1.0631155 0.21384656 0.026160538 1318991
1.0640043 0.21498168 0.027239323 792643
1.0521431 0.20279834 0.026759863 11780299
1.0541464 0.20374787 0.026347756 2702721
1.0557777 0.20623073 0.026549697 3493007
1.0575676 0.20907804 0.02622205 5202092
1.0586109 0.2115573 0.026118398 4741806
1.060957 0.21322492 0.02658838 2964352
1.0504369 0.20260155 0.025343239 8555153
1.0519329 0.20499974 0.025381863 11121345
1.0538858 0.20764011 0.025278449 8884392
1.0556365 0.20946306 0.025776446 4807824
1.0452387 0.19992754 0.02320683 1053986
1.0467623 0.20147395 0.024189949 790827
1.0482992 0.20389414 0.02427727 1515064
1.0497657 0.20628327 0.023915172 2505059
1.051791 0.20721912 0.02428019 11190989
1.04304 0.20034647 0.023270726 1843233
1.044368 0.2026169 0.022806585 1381677
1.0459614 0.20503363 0.022872567 1909057
1.0475694 0.20625973 0.023468733 1976650
1.0393167 0.19996351 0.020449877 4673391
1.0404813 0.20104137 0.021830738 1776940
1.0421109 0.20377824 0.021084726 921124
1.0430969 0.20554736 0.021622896 1316401
1.0368643 0.20095685 0.019982696 921630
1.0381794 0.20267254 0.020305216 1052449
1.0397819 0.20508316 0.020277321 1118758
1.0343188 0.20132929 0.01918757 920858
1.0361662 0.20431063 0.018815041 1578786
1.0372529 0.20568267 0.018708527 1316392
1.0323387 0.20150253 0.017898262 855575
1.0339131 0.20541969 0.017275751 1250081
1.0352327 0.20623198 0.017814815 1316389
1.0301332 0.20319811 0.016496718 3882043
1.0314364 0.20640865 0.016156435 1053474
1.0279908 0.20514745 0.015569746 4737089
1.0288503 0.20762837 0.014844835 3158079
1.0267284 0.20906216 0.014128089 4999755
1.0206659 0.23603755 0.0011636615 5851690
1.0221033 0.23863804 0.0014579892 4799524
1.0209556 0.24031535 0.00091385841 5720110
1.0222235 0.24288234 0.00017905235 5457197
1.0569274 0.20648393 0.029746413 5532061
1.0581772 0.20784879 0.030495226 6190012
1.0627396 0.216086 0.028459013 990822
1.0639818 0.21745917 0.02877748 661063
1.051059 0.20365691 0.029139459 13029583
1.0531846 0.20445651 0.029273689 6190248
1.0544089 0.20719156 0.029307067 3100567
1.0556672 0.20962465 0.029202759 5402051
1.0573804 0.21284664 0.028581917 5598674
1.0597022 0.21487188 0.02872771 4478910
1.061499 0.21681964 0.029305935 2833055
1.0627538 0.21848983 0.029625833 793203
1.0491613 0.20365837 0.028168261 5198940
1.0511457 0.20604894 0.027727187 12700105
1.0527252 0.20823407 0.02812916 9674163
1.0539415 0.21067846 0.027806699 10200247
1.0558271 0.21236739 0.028625429 4021692
1.0455649 0.20255184 0.026587486 1514294
1.0473125 0.20427573 0.026885927 1053738
1.0486054 0.20730385 0.026564538 1779529
1.0504677 0.20928591 0.026886523 6124951
1.0416107 0.20169684 0.025358498 922406
1.0432277 0.2034156 0.025318801 1579565
1.0447671 0.2061511 0.02535063 1711417
1.0464089 0.20788416 0.025704503 1910088
1.0394344 0.20203236 0.024133623 1185061
1.0408964 0.20457759 0.024091661 1382183
1.042165 0.20668712 0.024374187 1250860
1.035764 0.20200348 0.02279669 1119521
1.0371187 0.20299128 0.023151219 1447716
1.0385551 0.20599139 0.022427678 1382182
1.0398378 0.20746553 0.023382127 1119272
1.0334439 0.20231739 0.021410406 1052701
1.0347028 0.20490009 0.021266162 1512991
1.0360345 0.20702359 0.021551013 1382438
1.0306555 0.20266896 0.020321548 790044
1.0333008 0.20667636 0.019342661 1315870
1.0337116 0.2078166 0.020060778 1250849
1.0285062 0.20425391 0.018812895 2041126
1.0309727 0.20791534 0.017713249 790040
1.0310688 0.20905739 0.019183874 855832
1.0285412 0.2090576 0.017148912 395551
1.0280843 0.21068799 0.018415034 526359
1.0262839 0.21181911 0.015761197 2894915
1.0211166 0.2429049 0.0020597577 5259812
1.0200481 0.24759427 0.0010489821 6049071
1.021417 0.24998143 0.00050455332 5325868
1.0229855 0.25215277 0.00033992529 4470565
1.0180095 0.24891093 0.00019913912 6772282
1.0197253 0.25117299 0.00046920776 6049076
1.0212303 0.25379071 0.00030130148 5194031
1.0554181 0.20739576 0.032126367 4678816
1.0569981 0.2091307 0.032915056 6059712
1.0521429 0.20572355 0.031903625 9085115
1.0540369 0.20802948 0.031824172 2378913
1.0546312 0.21071863 0.031697929 4286137
1.0563407 0.2138299 0.030228376 5073872
1.0576804 0.21614194 0.030912519 4941779
1.0599707 0.21821755 0.031094968 4018368
1.0610979 0.22061315 0.031671643 1518213
1.0485362 0.20465222 0.030693829 3554370
1.0495858 0.20681131 0.030579865 10594728
1.0512818 0.20918426 0.030708611 11450310
1.0528688 0.21160734 0.03052175 9412541
1.0547109 0.2138429 0.031090915 5008057
1.0565723 0.21676028 0.031961858 4088788
1.044538 0.20404482 0.028808773 1382961
1.0458186 0.20546237 0.029365122 1316659
1.0471177 0.20798931 0.029029667 856880
1.0491681 0.21050784 0.029101372 3820917
1.0510422 0.21215454 0.03001672 12308178
1.040328 0.20339936 0.027487338 1251112
1.0423094 0.20419696 0.028068423 1251368
1.0438286 0.20683277 0.028190672 1710899
1.0450852 0.20928466 0.027781665 1777727
1.0468227 0.2107223 0.028828144 1845579
1.0385838 0.20332077 0.026640892 1185574
1.0394609 0.20516276 0.027048588 1382440
1.0415092 0.2083157 0.0264799 1250856
1.0430199 0.20993182 0.027914643 1448498
1.0358737 0.20440763 0.025611699 1316643
1.0377706 0.20721295 0.025102377 1447976
1.0388521 0.20902729 0.025457501 1185064
1.0322194 0.20398244 0.023807526 725014
1.0335625 0.20487303 0.024282634 1250589
1.0354021 0.20832893 0.023813725 1447719
1.0357918 0.21010923 0.024368465 1381930
1.0297681 0.2049709 0.022877991 658460
1.0315135 0.20629397 0.023553789 1118747
1.0329381 0.20934525 0.022595406 1316384
1.0339249 0.2114113 0.02391535 1251109
1.0275295 0.20586887 0.021513045 330277
1.0306683 0.21076033 0.021321714 921626
1.0279655 0.21162358 0.020083666 658198
1.0255721 0.21307477 0.018276751 658206
1.018914 0.25322849 0.0014647841 5720621
1.0196621 0.25459969 0.0016302466 5522989
1.017627 0.25575966 0.0015280843 5983540
1.019142 0.25909656 0.00035709143 5457714
1.0210373 0.26146904 0.00018280745 4470318
1.0217892 0.26368615 0.00081676245 3615270
1.0184078 0.26286486 7.3552132e-05 5259834
1.0197179 0.2648069 0.00047594309 4470577
1.0556173 0.21044579 0.034883678 4745387
1.0509278 0.20672068 0.03361243 12306379
1.052725 0.20884198 0.034449995 4284834
1.0540326 0.2110002 0.034456134 3167904
1.0585486 0.21950123 0.032572925 3952316
1.059813 0.2220327 0.033551753 1187950
1.0605528 0.22371817 0.033991158 594503
1.047666 0.20578447 0.032228172 66065
1.0484487 0.20761657 0.033431828 6383213
1.0500932 0.21025893 0.03332293 12634312
1.0517594 0.2125549 0.032911897 9083576
1.0534034 0.21500766 0.033008695 5927855
1.0552573 0.21746919 0.033263743 3035324
1.0571439 0.22005254 0.033404231 3624117
1.0602711 0.22622827 0.033922613 659788
1.0451179 0.20679399 0.031710386 1251123
1.0465362 0.20886946 0.031753778 527138
1.0479074 0.21158078 0.03168869 3095642
1.0491316 0.21353376 0.031724513 4545408
1.0507274 0.21509731 0.032948077 12505557
1.0411415 0.20541832 0.030345619 1120039
1.0424865 0.2072506 0.030898869 1514029
1.0441718 0.2104924 0.030226707 1974584
1.0456469 0.21242622 0.030696213 1844549
1.0368967 0.20506859 0.028384387 1251366
1.0386655 0.206283 0.029443085 1251112
1.0402303 0.20940781 0.028738558 1382440
1.0417086 0.21121788 0.029247999 1448494
1.0433148 0.21243367 0.030641675 1711932
1.035041 0.20576429 0.02788341 1185313
1.0361423 0.2071324 0.028299093 1447976
1.0379698 0.21072152 0.027602017 1316647
1.0393546 0.21203202 0.028745055 1316907
1.0328666 0.20641837 0.026585042 1119004
1.0344605 0.2094835 0.026519001 1447971
1.0355794 0.21169773 0.026520908 1316648
1.0286188 0.20584437 0.024843037 592923
1.0303118 0.20709047 0.025657713 790039
1.031906 0.21069103 0.025109708 1316127
1.0331879 0.21274334 0.025556147 1251109
1.0272027 0.20702633 0.023355544 527136
1.0282459 0.2083641 0.024987459 724503
1.0302839 0.21190697 0.023624361 1053212
1.0304419 0.21338242 0.024109423 1053724
1.0274041 0.21347645 0.021829784 723989
1.027981 0.21487078 0.023344517 790039
1.0254172 0.21597463 0.022280455 461079
1.0156678 0.2606163 0.0017713904 5720113
1.0165975 0.26362237 0.0018745065 5063214
1.0198905 0.26642668 0.00091201067 4075307
1.0199741 0.26807594 0.0009328723 3418408
1.0150154 0.26439056 0.00081908703 5917495
1.0169539 0.26712847 0.00011914968 5325620
1.0181947 0.26940581 0.00078362226 4075822
1.0157408 0.27057678 0.00013750792 5194544
1.0523062 0.21028456 0.036111772 2774178
1.0527134 0.21228588 0.037038922 2705042
1.0540255 0.21348652 0.037580311 2902922
1.04757 0.20937783 0.035196781 2304052
1.0492134 0.21079621 0.035956144 11581884
1.0506735 0.21331576 0.035435021 9608891
1.0521622 0.21630198 0.035024762 6714276
1.053243 0.21877491 0.035554051 2571149
1.0552472 0.2212683 0.035128415 2109846
1.0570714 0.22371578 0.035327494 1385062
1.0585812 0.22586817 0.035724223 726089
1.0603105 0.22752348 0.034433484 790596
1.0437437 0.20821074 0.033949614 1645619
1.0452944 0.20971796 0.034583151 1119281
1.0468372 0.21210638 0.034611344 2501179
1.0485542 0.21479216 0.034271836 7174801
1.0498898 0.21720234 0.034572124 9282228
1.0515561 0.21873805 0.035653293 11581626
1.0398316 0.2066381 0.031568229 1185576
1.0413771 0.2085126 0.033204615 1514283
1.0430063 0.21064854 0.03352344 2105911
1.0446343 0.21366718 0.032982588 2171967
1.0461452 0.21554047 0.033348978 1581121
1.0376103 0.20755118 0.031893075 1251111
1.039094 0.20938051 0.032126427 1579817
1.0407577 0.21278396 0.031323791 1842992
1.0423019 0.21430874 0.032301188 2106169
1.033568 0.20722613 0.029679358 1053728
1.035044 0.20837265 0.030637562 1316643
1.0366586 0.21103251 0.03044939 1514023
1.0381286 0.21343985 0.03050679 1645611
1.0315908 0.20772582 0.029286087 790811
1.0328496 0.20957762 0.029376507 1316385
1.034503 0.21259382 0.029106915 1447972
1.0359234 0.21463227 0.029541194 1514024
1.0294826 0.20869756 0.027714431 790294
1.0309466 0.21154636 0.027846217 1250334
1.0323349 0.2138361 0.027959585 1316387
1.0332911 0.21527332 0.02870214 1316900
1.0276792 0.20982692 0.026064754 921106
1.0289476 0.21304902 0.026221752 1052953
1.029922 0.21500501 0.026569784 1119263
1.0275868 0.21645132 0.025068343 856090
1.0253149 0.21770459 0.02362448 658454
1.0149872 0.26729184 0.0024763942 4800043
1.0515051 0.21405044 0.039046288 1520277
1.0527169 0.2158379 0.0391258 1319548
1.0480169 0.21265537 0.037581444 9672583
1.0496793 0.21397147 0.038521349 12306125
1.0506634 0.21642336 0.037518919 6057635
1.0521219 0.21968472 0.037649989 1384058
1.0538856 0.22243282 0.036866248 791149
1.0547957 0.22498479 0.037197113 922967
1.0574187 0.22746277 0.03736341 922433
1.0582961 0.22872198 0.037951112 856118
1.0441159 0.21141106 0.036402524 2106175
1.0458511 0.21324244 0.036822736 1579823
1.0476488 0.21575442 0.037065685 9804701
1.0487076 0.21852043 0.036548793 10728381
1.0502341 0.22059572 0.036908984 10397880
1.0520781 0.22264493 0.037237763 4147593
1.0539874 0.22629917 0.037907362 790094
1.0552887 0.22749037 0.037742615 922953
1.0566385 0.22972193 0.037833989 922170
1.0404046 0.20976612 0.034855902 1580077
1.0419023 0.21180612 0.036055028 2237497
1.0437634 0.21375215 0.036119878 2500420
1.0450083 0.21685171 0.035244405 2172481
1.0462565 0.21922809 0.03585881 1780036
1.0380467 0.21070823 0.034497321 1645610
1.0391672 0.21247533 0.034940422 2302771
1.041225 0.21574029 0.033831656 2566208
1.0425936 0.21778214 0.034805596 3093837
1.0440609 0.21966746 0.035792887 3950427
1.0343776 0.2094804 0.033255935 1185570
1.0357409 0.21199271 0.033196092 1776680
1.0376899 0.21477365 0.032727778 2171439
1.0387713 0.21669412 0.033442795 2500413
1.0307899 0.20901957 0.030475199 856353
1.0316482 0.21075329 0.031622708 1119263
1.0331831 0.21286285 0.031743348 1579301
1.0349984 0.21582958 0.031685829 1974058
1.0359665 0.21760806 0.03234762 2302772
1.0298841 0.20967183 0.030222178 724509
1.0298792 0.21244988 0.030786335 1316128
1.0316873 0.21519089 0.030140817 1513508
1.0326324 0.21705666 0.030423224 1645608
1.0337689 0.21865571 0.031849742 2237487
1.0283747 0.21403402 0.031024158 1316900
1.0291698 0.21615335 0.028684735 1316383
1.0299444 0.21815857 0.029339254 1514022
1.0266196 0.21764198 0.027274072 1184538
1.0276134 0.21952704 0.027754307 1251362
1.0246508 0.21914461 0.025240004 921373
1.0253129 0.22056216 0.026288092 1119262
1.0605887 0.22560737 0.041501403 857136
1.0517557 0.21767643 0.041510403 199017
1.0585561 0.22662398 0.041445911 857140
1.0591567 0.22927698 0.041792154 856879
1.0485926 0.21562409 0.040092587 13817807
1.0502217 0.21709263 0.041307628 5006246
1.0521915 0.21853098 0.040631592 464988
1.0571524 0.22889301 0.038995326 921907
1.0571586 0.23014465 0.039090872 922162
1.04494 0.21413064 0.038741767 1581619
1.0459158 0.21624646 0.039655805 5461836
1.047056 0.21925777 0.038480222 11777456
1.0491713 0.22149119 0.038677692 10397628
1.0504366 0.22413158 0.038671196 6910369
1.0519594 0.22691035 0.038963974 1514339
1.0542996 0.22911227 0.038825512 856128
1.0554287 0.23179781 0.039207101 856628
1.0555093 0.23448789 0.03946197 790834
1.0405865 0.21321544 0.037588537 2369344
1.0422022 0.21507269 0.038176239 3422799
1.0439104 0.21760911 0.038760781 4343896
1.04527 0.22037187 0.038053274 4475478
1.0470604 0.22270468 0.038107455 5860485
1.0483389 0.22495571 0.038784921 9873594
1.0504357 0.22749838 0.039525449 4739976
1.0373435 0.21225408 0.036235392 1843245
1.0383359 0.21427271 0.037021399 2566720
1.0395391 0.21688387 0.036792278 3751246
1.0415648 0.21930489 0.036423326 4607065
1.0431069 0.22142148 0.03715694 5462637
1.0448525 0.22334403 0.037735045 4213347
1.0331743 0.21095338 0.034158289 1185572
1.0346736 0.21256712 0.035486102 1645865
1.0359001 0.21488035 0.035937726 2697529
1.0376956 0.21812817 0.035018146 3422025
1.0389413 0.22006235 0.035805523 4409684
1.0407298 0.221641 0.036918879 5593961
1.031274 0.21198881 0.033473611 1119522
1.0321784 0.21406972 0.034596145 1776936
1.0343549 0.21675649 0.034136832 2631475
1.0353822 0.21930313 0.034262538 3356227
1.0363891 0.22115889 0.035036981 4278350
1.0295312 0.21332181 0.033327699 1185569
1.0296788 0.21457881 0.033524752 1579814
1.0316446 0.21847558 0.032372296 2368555
1.0326984 0.22039306 0.033056259 2961720
1.0281041 0.21645653 0.033535898 1842470
1.0291269 0.2195226 0.031246603 2039847
1.0305654 0.22124168 0.032269299 2763825
1.0268662 0.21874318 0.029791594 1448483
1.0270536 0.22072858 0.029829025 1579811
1.0278043 0.22241202 0.030541658 1909032
1.0252686 0.22208595 0.028313696 1316642
1.0254427 0.22368658 0.029426336 1382950
1.0235736 0.2233406 0.026975095 790299
1.0567553 0.22735021 0.042487085 922931
1.0583787 0.23045358 0.042304516 922415
1.0489686 0.21863174 0.042568684 9740729
1.0503215 0.22171775 0.042808771 1911672
1.0565679 0.22946474 0.042641103 922931
1.0567713 0.23173863 0.043159723 922671
1.0583444 0.23296386 0.04279393 922669
1.0448986 0.21844479 0.041519642 4408389
1.0464389 0.2196897 0.04272753 12039593
1.0493739 0.2253657 0.041412175 1648756
1.0506314 0.22675604 0.040863574 64
1.0522759 0.23027593 0.04001981 395586
1.0542397 0.23289251 0.040051818 922168
1.0555451 0.23542696 0.039858043 790828
1.041404 0.21650562 0.040196657 4279129
1.0424613 0.21877995 0.040810287 5133922
1.0436759 0.22105709 0.040452242 3618628
1.0455616 0.22410735 0.039591372 4279390
1.047327 0.22635302 0.040152192 9806010
1.0489645 0.22865251 0.040247262 9278908
1.0502058 0.23128265 0.040586293 3225718
1.0521929 0.23369434 0.040703893 592697
1.0534184 0.23678499 0.040314496 790578
1.0546985 0.23818788 0.040205538 988205
1.037466 0.21562478 0.038348556 3028042
1.0389416 0.21730843 0.039233625 4344147
1.0402116 0.22003308 0.039515138 5527901
1.0419619 0.22253859 0.038989842 5197914
1.0434556 0.22503912 0.039165676 3488333
1.0448058 0.2275528 0.039736331 1910595
1.0467954 0.23007202 0.040366948 7965086
1.0349721 0.21635517 0.037961364 2961981
1.0363945 0.21835229 0.038703561 4475214
1.038087 0.22140017 0.037399828 5067604
1.0395632 0.22356376 0.038093388 5067352
1.0410041 0.22578678 0.038910806 4277586
1.0314134 0.2150563 0.035916865 1645863
1.0325348 0.21719632 0.036831617 2829875
1.0343117 0.2201944 0.036816061 4211783
1.0359125 0.22275007 0.036973357 4672849
1.03707 0.22460684 0.037589669 4672594
1.0290984 0.21643078 0.035162151 1711398
1.0297749 0.21831325 0.036157548 2434863
1.0318612 0.22193015 0.035115182 3553855
1.0334151 0.22355151 0.0357005 4015180
1.0267062 0.218018 0.034681082 1251360
1.0276589 0.22011521 0.035353839 1974315
1.0297693 0.22251499 0.033563972 2829623
1.0304008 0.22459155 0.03449887 3093314
1.0264581 0.22148958 0.032405913 1645092
1.0274334 0.22402751 0.032213151 1974059
1.02789 0.22590366 0.033000886 2040369
1.0251858 0.22551504 0.030462563 1316644
1.0257061 0.22727659 0.03190726 1317157
1.023039 0.22661054 0.029218197 724510
1.0236968 0.22856817 0.030642092 987682
1.0559586 0.23345405 0.044397473 988462
1.0568863 0.23417994 0.044410348 988462
1.0457528 0.22130543 0.043842018 9670813
1.046924 0.22276843 0.044290423 13884127
1.0554068 0.23610398 0.044905603 1185327
1.0416262 0.22056025 0.042682171 4606808
1.0432193 0.22217134 0.0430969 2304318
1.0466053 0.22909999 0.04112345 12763592
1.0490413 0.23277399 0.041104972 6121120
1.0503463 0.23497683 0.041243017 1054036
1.0510213 0.23674816 0.041476667 263485
1.0526628 0.23934165 0.040784478 1053496
1.0375754 0.21910825 0.040911138 4475985
1.039338 0.22098595 0.041833878 4409684
1.0406245 0.22340223 0.04182452 3882058
1.0423989 0.22560945 0.04150784 2105659
1.0441127 0.22848719 0.041099012 3027529
1.0452532 0.23114118 0.041216969 5201005
1.046898 0.23363346 0.041262686 8754095
1.0481844 0.23652941 0.041746676 5923485
1.0501387 0.23938823 0.041394353 659529
1.0513229 0.24177778 0.04113847 790590
1.0353189 0.21971923 0.040549576 3752009
1.0366652 0.22195598 0.040694416 4277327
1.0386804 0.224749 0.040343046 4013127
1.0402024 0.22742471 0.040139914 3289667
1.0415334 0.22978872 0.040476263 2369091
1.0431671 0.23205489 0.040775836 1251899
1.045218 0.23476559 0.041449904 4413024
1.0321677 0.21884573 0.038784862 2830133
1.0328248 0.22117814 0.039506197 3224898
1.0342709 0.22299448 0.039580286 3685192
1.0359992 0.22601336 0.038876057 3684676
1.037694 0.22842288 0.039574742 3158340
1.0393392 0.23032868 0.04009521 2566470
1.0408251 0.23222288 0.040502727 2238278
1.0295146 0.22001278 0.037562668 2171952
1.0305769 0.22204116 0.038442969 2632250
1.0328532 0.22514611 0.037323058 3487555
1.0335464 0.22727469 0.037922561 3290178
1.0351307 0.22914803 0.038982332 2895425
1.0279868 0.22140914 0.036818147 1908266
1.0280123 0.22281086 0.037666678 1842475
1.0302091 0.22618258 0.036163151 2632249
1.0311373 0.22809893 0.03735286 2698299
1.027282 0.22531462 0.034220219 1842214
1.0277857 0.22756755 0.034984529 1908523
1.0286282 0.22941345 0.035731971 2106160
1.0260912 0.22894609 0.033380389 1448487
1.0263162 0.23089835 0.034525633 1448742
1.0245155 0.23005801 0.031875432 1119264
1.0243845 0.2322039 0.032609701 1053470
1.0399063 0.22442594 0.043427944 3093064
1.0403148 0.2255204 0.042755663 3091780
1.0362979 0.22242922 0.042731583 3159366
1.0372601 0.22549644 0.042671621 2829375
1.0384624 0.22813493 0.043174684 2434878
1.0400355 0.23149738 0.041907132 2237501
1.0422856 0.23336348 0.041851223 1448500
1.0434378 0.2357789 0.042099774 2633795
1.0451381 0.23812714 0.042000473 6780558
1.0469161 0.24029714 0.041885912 7765940
1.0478325 0.24307477 0.042004168 3094396
1.0324305 0.2230311 0.040532768 2501177
1.0337634 0.22409874 0.041567147 2764093
1.0349803 0.22694966 0.042029023 2500663
1.0366877 0.22952315 0.04116714 2500408
1.0382985 0.23202834 0.040796936 2237756
1.0396373 0.23465818 0.041435659 2040636
1.0411651 0.23697567 0.041896403 1449015
1.0424829 0.23944372 0.041941345 858158
1.0449543 0.24195296 0.042072415 7504542
1.0459634 0.24431139 0.042129576 8817856
1.0303438 0.22345686 0.039509833 2171698
1.0312577 0.2254633 0.040811181 2237745
1.0331049 0.22796887 0.040709496 2434867
1.0345562 0.230795 0.039854467 2369336
1.0359229 0.23312721 0.040507793 2106424
1.0368812 0.23582345 0.040737689 1909309
1.0389547 0.23764229 0.041607678 1909310
1.0280676 0.22458637 0.038621366 1711144
1.0287895 0.22677726 0.03974086 1645608
1.0305696 0.22940651 0.038466156 2237744
1.0318836 0.23187119 0.038911879 2172210
1.0335432 0.23474982 0.039149523 2040887
1.0349466 0.23587492 0.039898336 1909561
1.0270166 0.22820979 0.038169086 1513765
1.0284503 0.23097441 0.037272274 1777193
1.0295187 0.23325136 0.037744105 1909036
1.0314333 0.23477107 0.038641632 1975089
1.0264084 0.2322683 0.035848379 1382434
1.0270867 0.23484939 0.036929429 1382690
1.0250558 0.23413703 0.03375262 1119519
1.024711 0.23630422 0.03471607 987933
1.0469747 0.24515298 0.042971551 1318230
1.0343544 0.22807741 0.043257177 2041136
1.0351663 0.23050299 0.04341656 1975346
1.0364578 0.231832 0.04382652 2040884
1.0397292 0.23856506 0.042379856 1776950
1.0417538 0.2406013 0.042140901 857141
1.0433798 0.24319836 0.042335451 3096400
1.044716 0.24564683 0.042782247 7766178
1.0452725 0.24863932 0.042837739 6844580
1.0316746 0.22909909 0.042256653 1843501
1.0332131 0.23164412 0.042924702 1909294
1.0344028 0.23404014 0.042892098 2040369
1.0366083 0.23604783 0.041720212 1908784
1.0379449 0.23923013 0.041779518 1777463
1.0391899 0.24170157 0.042002618 1580598
1.0407252 0.24430275 0.042233288 922416
1.0420498 0.24648425 0.042633116 1647670
1.0443066 0.24963307 0.042790413 7634085
1.0279713 0.22881159 0.040308595 1251107
1.0293764 0.23075673 0.04153347 1514534
1.0307944 0.23294085 0.041862965 1777707
1.0322824 0.2352584 0.041061938 1777452
1.0342767 0.2382043 0.040899813 1711921
1.035219 0.24057201 0.041609228 1580336
1.0367227 0.24313542 0.04183346 1449007
1.0381421 0.24537563 0.041860998 1251632
1.0397642 0.24704295 0.042473972 1251384
1.0268383 0.22994655 0.040598214 1053727
1.0271003 0.23170918 0.040163517 1316642
1.0288348 0.23422039 0.039937973 1514277
1.0302148 0.23689258 0.03940767 1711656
1.0316018 0.23915622 0.040025473 1645867
1.0331153 0.2422089 0.040691614 1514541
1.0256224 0.23370352 0.040132344 1119261
1.0265744 0.23523587 0.037700772 1250847
1.0277414 0.23808983 0.038245976 1382690
1.029194 0.24053097 0.039292753 1448485
1.0306714 0.24246487 0.040061355 1448488
1.0250769 0.23691219 0.037295222 1184537
1.0254587 0.23942584 0.037242234 1053725
1.0266588 0.24256551 0.037801683 1185314
1.0236313 0.24059197 0.035812557 987673
1.0242598 0.2427569 0.036278784 987934
1.0232005 0.24426603 0.035405099 922141
1.0316377 0.23309231 0.044017494 1580327
1.0335691 0.23490924 0.044261515 1580588
1.0333629 0.2370019 0.044640899 1317675
1.0287143 0.23209822 0.042750299 1251362
1.0298104 0.23361605 0.043617189 1382693
1.0314517 0.23612094 0.043796599 1514280
1.0321192 0.23889977 0.043757677 1317161
1.0345269 0.24235806 0.042188227 1382952
1.0357804 0.24415168 0.041811645 1316903
1.0374506 0.24674994 0.042149067 1185580
1.0269213 0.23273334 0.042012215 1053982
1.0276889 0.23536548 0.04215312 1251105
1.0290591 0.23809022 0.042841792 1316899
1.0304134 0.24067482 0.042784929 1251107
1.0321975 0.24220526 0.041714966 1316902
1.0337809 0.24535832 0.041678905 1185318
1.0352435 0.24732175 0.041788816 1119784
1.036097 0.24946409 0.041786373 1054249
1.0255417 0.23594135 0.041085005 1119261
1.0259963 0.23856381 0.041463912 1185052
1.0282837 0.24126732 0.041237891 1185056
1.029753 0.24410498 0.040526867 1119523
1.0313263 0.24658453 0.041382968 987936
1.0330542 0.24898937 0.041333556 1053477
1.0340362 0.25140423 0.041538477 987684
1.0235403 0.23765895 0.040065169 1118751
1.0240371 0.24068049 0.040003061 1118749
1.0262053 0.24242842 0.039418638 1053468
1.0276724 0.24531773 0.039501607 1053728
1.0290387 0.24852672 0.039949834 987934
1.0302265 0.25072286 0.040417492 922143
1.0238633 0.24166697 0.037871897 987673
1.0234926 0.24406916 0.037705481 987674
1.0252388 0.24662432 0.038144231 922396
1.0264348 0.24982867 0.038658679 856605
1.0230716 0.24520397 0.036071241 922140
1.0228877 0.24811593 0.036951005 921884
1.0238618 0.25083923 0.037446737 922142
1.0245203 0.25248179 0.037318051 921886
1.0216662 0.25162885 0.03617698 921886
1.0226668 0.25389236 0.036194503 856605
1.0205564 0.2540237 0.03457576 1053212
1.0200655 0.25601441 0.034470141 987675
1.0318184 0.24059689 0.044992626 1185062
1.0301468 0.24170718 0.044126749 1053730
1.0307907 0.24361217 0.0444839 987937
1.027764 0.24198666 0.042953551 1053729
1.0286887 0.24503982 0.043800175 987937
1.0304965 0.24769709 0.043022692 856347
1.0311036 0.24983439 0.042318583 724503
1.032318 0.25197545 0.041475236 856351
1.0253822 0.2433247 0.041863322 1119775
1.0263884 0.24584329 0.042147458 988191
1.0281851 0.24878153 0.041799903 921885
1.0296199 0.25156584 0.04182893 790298
1.0308188 0.25412923 0.04120028 724763
1.0234104 0.24449271 0.040706217 1185311
1.0247051 0.2477043 0.0409531 1119777
1.0258198 0.24975365 0.040177464 987677
1.0271018 0.25268602 0.040243566 856350
1.0286644 0.25565463 0.040126503 724761
1.0300287 0.25756219 0.040782571 790303
1.0230079 0.24828407 0.039933741 1317408
1.0234015 0.25114319 0.039402664 1250849
1.0251348 0.25371021 0.038641989 856093
1.0263302 0.25666082 0.038961232 790300
1.0278374 0.25927925 0.039722562 790301
1.027908 0.26127189 0.039475143 790298
1.0218372 0.25295749 0.03761071 1250594
1.0229772 0.25534096 0.037237406 987679
1.0240705 0.25758326 0.037981987 921886
1.0254469 0.26042366 0.038487554 856349
1.0263256 0.26293007 0.038388193 856096
1.0206683 0.25392404 0.036013663 1119263
1.0204539 0.25609565 0.036194682 1119265
1.0217818 0.25905949 0.036225021 987937
1.0231955 0.26185 0.036522567 921889
1.0237719 0.2637369 0.036705792 856352
1.024544 0.26645109 0.036058307 922147
1.0196996 0.25769034 0.034291327 987934
1.0196159 0.26033911 0.035126328 1119523
1.0203068 0.26285258 0.035361946 987938
1.0229406 0.26531407 0.036020815 922144
1.0189271 0.26333648 0.034658968 1053732
1.0290956 0.2478101 0.044900715 987938
1.0270619 0.2467964 0.044508755 1054240
1.0279071 0.24926877 0.044478714 1053734
1.0290723 0.25330919 0.044539273 1054244
1.0238307 0.25287053 0.040750742 1316904
1.0240052 0.25409964 0.04054755 1382695
1.0267515 0.26074508 0.039490283 790560
1.0234455 0.25965118 0.038544953 988188
1.0247898 0.2611827 0.038629949 922142
1.0218539 0.26074293 0.037690818 1119523
1.0228462 0.2624177 0.038361728 1053472
1.0192478 0.26150995 0.03677237 1316389
1.0206914 0.26328653 0.037067175 1053477
1.0206301 0.26559144 0.035798907 922146
1.0236222 0.26795715 0.036206424 856607
1.0175785 0.26176497 0.035830319 1512998
