# .PCD v0.7 - Point Cloud Data file format
VERSION 0.7
FIELDS x y z rgba
SIZE 4 4 4 4
TYPE F F F U
COUNT 1 1 1 1
WIDTH 1144
HEIGHT 1
VIEWPOINT 0 0 0 1 0 0 0
POINTS 1144
DATA ascii
0.41240883 0.21202101 0.043459117 8093573
0.41356796 0.21458054 0.042615712 8553348
0.4152748 0.21698189 0.042314231 8553348
0.41721934 0.21893562 0.04198128 8553348
0.41849846 0.22158687 0.042216361 8553604
0.41993076 0.2243256 0.042364419 8619141
0.42156553 0.22698571 0.042439461 8619140
0.423141 0.22941762 0.042383254 8619141
0.42480966 0.23217301 0.042522907 8619141
0.42634958 0.23492542 0.042481065 8684933
0.42788139 0.237553 0.042553484 8619397
0.42967278 0.23966636 0.042277753 8750726
0.43094236 0.24265923 0.042138278 8750727
0.43260562 0.24474436 0.042183042 8750727
0.43371189 0.24721612 0.042150915 8750727
0.43567598 0.25016403 0.042011678 8685191
0.4371618 0.25285047 0.041479766 8553861
0.43870866 0.25523788 0.041174829 8619398
0.44040528 0.25760329 0.040960729 8685191
0.44218683 0.26029944 0.040764511 8619398
0.44326311 0.26276666 0.040195405 8619399
0.4450888 0.26534867 0.040207922 8619655
0.4466233 0.26752692 0.039319158 8488325
0.44806516 0.27044967 0.039365828 8488325
0.45008442 0.27319741 0.039347708 8619655
0.45101231 0.27608564 0.038947046 8488582
0.45316428 0.27790469 0.039312541 8423047
0.45423734 0.2803928 0.038921535 8094340
0.45597738 0.28301394 0.038715243 7963270
0.45748395 0.28614765 0.038974702 7963526
0.45895147 0.28887814 0.038863719 8423304
0.46064532 0.29162431 0.038615167 8226439
0.46255565 0.29389846 0.038252056 7897991
0.46363962 0.29647076 0.038405001 8357770
0.46548504 0.29880014 0.038308084 8751755
0.46649721 0.30137485 0.038259923 8686218
0.46874428 0.3038722 0.03819555 8686220
0.4700011 0.30643338 0.037463188 8620682
0.47113448 0.30898988 0.037359178 8423562
0.47266388 0.31107992 0.037300169 8620939
0.47396314 0.31382799 0.037288785 9080718
0.47585154 0.31633663 0.037200391 9212047
0.47702867 0.31907761 0.037197888 9212304
0.47932088 0.3216638 0.036624372 9278097
0.48067099 0.32446778 0.036496103 9015440
0.48203099 0.32730669 0.036398709 8884112
0.48417377 0.32951868 0.036380649 8686991
0.48572388 0.33192691 0.036236823 8949905
0.48655558 0.33426535 0.036281407 9146770
0.48849437 0.33673716 0.036414802 9409684
0.48978481 0.33969909 0.036361933 9081491
0.49068749 0.34252483 0.03564018 9606806
0.49340683 0.34468883 0.035288274 9803927
0.4941197 0.347664 0.035466671 9869720
0.49586034 0.34986785 0.03563875 9935256
0.49820936 0.35230267 0.035562098 10001049
0.49968904 0.35524184 0.035747945 10066842
0.50120223 0.35811928 0.035892189 10132635
0.50252008 0.35998896 0.035481036 10198428
0.50383627 0.36337832 0.035001338 10264221
0.50565827 0.36527735 0.034323633 10263964
0.50793695 0.36770368 0.033389509 10330014
0.50842762 0.37030452 0.032884657 10395550
0.50960553 0.37330103 0.032263458 10461343
0.51234329 0.37560448 0.0334602 10658466
0.51323259 0.37804693 0.033543289 10527397
0.51441467 0.37988296 0.033281386 9410474
0.40568304 0.20562837 0.042031586 5133165
0.40677261 0.2074239 0.042641521 7434365
0.40799066 0.21003009 0.041908562 8553604
0.4098205 0.21247868 0.042378485 8487811
0.41110504 0.21517602 0.04205054 8487811
0.41278458 0.21817893 0.041931331 8553603
0.41505051 0.22090158 0.042471886 8553604
0.41666749 0.22310901 0.042355657 8553604
0.41805086 0.22626323 0.042545378 8684678
0.41963905 0.22793627 0.042575955 8684933
0.42360368 0.23412231 0.042296231 8750982
0.43621394 0.25462127 0.04103142 8882313
0.43605584 0.2564806 0.040146708 8225667
0.43796587 0.25918972 0.039871633 8356996
0.43975833 0.26145279 0.039763868 8356996
0.44095474 0.26388532 0.039367557 8422532
0.44295967 0.26650211 0.039332032 8422533
0.44442537 0.26902848 0.039492071 8422789
0.44555894 0.27150518 0.039526761 8488326
0.4473356 0.27424285 0.039355695 8554118
0.44893405 0.27730966 0.039287329 8488582
0.45114475 0.27940884 0.039050996 8423046
0.45260164 0.28227562 0.039099157 8094854
0.45380765 0.28434616 0.038954079 8160391
0.46045679 0.29504144 0.038496137 7963527
0.46115077 0.29696447 0.03851974 8423562
0.46532369 0.30366376 0.03816545 8817804
0.46634984 0.30430257 0.037719548 8686475
0.4677507 0.30781689 0.037575781 8620683
0.46940577 0.31062514 0.037349522 8752268
0.4702552 0.31280428 0.037357867 9014925
0.47224301 0.3148748 0.037318945 9212047
0.477501 0.32284462 0.036909103 8818319
0.47849745 0.3260321 0.03665942 8621455
0.4804104 0.32849044 0.036465347 8752783
0.48251447 0.33083284 0.036276162 8752527
0.4833118 0.33259493 0.036621392 9409683
0.49046755 0.34503737 0.035257578 9869463
0.50417554 0.36674243 0.033963144 10264221
0.50554436 0.36945727 0.033512712 10329758
0.50634277 0.37155709 0.033637702 10395551
0.50840664 0.37379935 0.032991529 10461343
0.50965053 0.37617016 0.033031285 10461343
0.51163304 0.37940541 0.032166898 10395808
0.51303154 0.3821786 0.032144487 10527395
0.51362294 0.38408941 0.032100081 10461603
0.51567358 0.38652635 0.031641185 9278634
0.40194893 0.20462431 0.04019624 3293035
0.40345472 0.20634945 0.040590405 5461363
0.40433335 0.20927516 0.04088068 7501700
0.40691915 0.21214677 0.042127311 8488067
0.40796697 0.21443249 0.042016387 8488067
0.4098942 0.21700419 0.041905582 8553603
0.51285803 0.38578632 0.03115052 10461601
0.51313519 0.38788924 0.030600011 10461600
0.51518232 0.39065194 0.030328453 10330276
0.51573008 0.39425713 0.029566586 10724515
0.39907578 0.20512101 0.03955847 3095663
0.40092662 0.20751891 0.039815068 5528192
0.51445615 0.39394355 0.029011071 10330528
0.51570445 0.39668298 0.028067529 9673131
0.39515364 0.20429224 0.038090646 929138
0.39656323 0.20709917 0.038618982 3818616
0.39805305 0.20790315 0.03911978 4673146
0.51563025 0.39905107 0.026415169 10856101
0.51471615 0.4020983 0.025963604 9870772
0.39151689 0.20315054 0.0369066 2310266
0.39321557 0.20518506 0.036756039 929653
0.39470845 0.20683369 0.037274659 2110838
0.51303405 0.40229613 0.026883602 8753595
0.51354074 0.40454224 0.024517 11119018
0.38764805 0.20194373 0.03575772 5925253
0.38903353 0.20424265 0.035484254 3295863
0.39077508 0.20635825 0.03574127 732789
0.43737257 0.28391945 0.029381335 9408399
0.44398639 0.29531828 0.028571546 9539985
0.51200449 0.40678677 0.023584068 9542067
0.51422137 0.40948808 0.022045672 10265269
0.38509411 0.20264909 0.034772694 6450821
0.38697886 0.20519356 0.034398913 3164794
0.38818109 0.20663056 0.035740256 668036
0.41593742 0.25408322 0.02974683 9276813
0.41708249 0.25615746 0.030027449 9276813
0.41890103 0.25901094 0.029931843 9276813
0.42127094 0.26205119 0.029747188 9342606
0.42260122 0.26467496 0.029667795 9342606
0.42418286 0.26711464 0.029716074 9342606
0.42555532 0.26963755 0.029686689 9342606
0.42740569 0.27269062 0.029333532 9342606
0.42886484 0.27459186 0.02925545 9408399
0.43017015 0.27734482 0.029124439 9408399
0.43161631 0.27955738 0.029225051 9408399
0.43349639 0.28204769 0.029233277 9408399
0.43500566 0.2846207 0.029472589 9408399
0.43719959 0.28729725 0.029253185 9408399
0.43818772 0.28982747 0.02909565 9474192
0.43976492 0.29256234 0.028942645 9474192
0.44166875 0.29466394 0.028699517 9539985
0.51064318 0.40752515 0.02341193 11119274
0.3830055 0.20421898 0.033138931 6450818
0.38480458 0.20574203 0.034246624 3099261
0.3920919 0.22011825 0.03062582 9211020
0.39363611 0.22308126 0.030227602 9211020
0.39539802 0.22581148 0.030109346 9211020
0.39678532 0.22801495 0.030112326 9211020
0.39840913 0.22991684 0.030085266 9211020
0.39989805 0.23314863 0.030031025 9211020
0.40284055 0.23627022 0.029837668 9211020
0.404634 0.24018015 0.029848397 9211020
0.40618387 0.24242127 0.030012369 9211020
0.40746495 0.24500832 0.029961467 9211020
0.40953371 0.24731505 0.029796898 9211020
0.41110688 0.25001484 0.029800355 9211020
0.41256785 0.25293595 0.030014217 9211020
0.41385365 0.25551197 0.029779255 9145227
0.41548789 0.25755095 0.029783785 9211020
0.41672438 0.26027501 0.029613674 9276813
0.4186818 0.26279506 0.029503882 9276813
0.42011195 0.26597428 0.030030191 9276813
0.42208773 0.26866901 0.030019701 9342606
0.42348427 0.27105781 0.029788494 9342606
0.42515558 0.27320141 0.029714286 9342606
0.42661858 0.27567956 0.029690444 9342606
0.42808816 0.27812842 0.029735327 9342606
0.42990416 0.28145289 0.029819071 9342606
0.43172216 0.28315389 0.029712021 9342606
0.43323773 0.28703529 0.029689252 9408399
0.43464458 0.28857535 0.029571712 9408399
0.4363122 0.29186699 0.029064953 9408399
0.43698189 0.29326984 0.028960526 9474192
0.50774306 0.40966865 0.021949947 10790052
0.37913966 0.20258984 0.032301128 7239559
0.38060647 0.20453575 0.032806635 6516358
0.38874406 0.21860641 0.030106843 9211020
0.39027405 0.22064805 0.030816376 9145227
0.39148152 0.22353418 0.030610859 9145227
0.39332712 0.22596547 0.030062616 9079434
0.39465213 0.22872481 0.029545367 9079434
0.39591596 0.23125614 0.029328704 9013641
0.39736733 0.23367453 0.029376209 9013641
0.39928603 0.23647417 0.029236317 9013641
0.40086776 0.23877883 0.029050291 9079434
0.40229872 0.24126951 0.029173076 9079434
0.40414667 0.24385116 0.028954089 9013641
0.40532085 0.24668416 0.028807461 9013641
0.40700251 0.24872714 0.028795063 9079434
0.40907785 0.25118598 0.028768897 9079434
0.41044134 0.25393605 0.028701246 9145227
0.41168988 0.25637442 0.028434575 9145227
0.4138937 0.25949711 0.028987169 9211020
0.41563582 0.26168633 0.028928578 9211020
0.41727832 0.26477033 0.03009063 9276813
0.38625652 0.22029853 0.027897656 9013641
0.38761565 0.22221854 0.02859205 8947848
0.38969606 0.22476974 0.028755367 8947848
0.3909179 0.22723684 0.028858483 8947848
0.39262629 0.2296775 0.028848827 8947848
0.39374799 0.23236641 0.028917134 8947848
0.39539376 0.23513114 0.028808296 8947848
0.39701509 0.23782618 0.028624415 8947848
0.39861989 0.24009679 0.028794467 9013641
0.39980119 0.24275231 0.028688014 8947848
0.40173995 0.24488546 0.028714478 8947848
0.4034043 0.24741127 0.028645098 9013641
0.40450299 0.24993864 0.028436482 9079434
0.40594441 0.25240859 0.028547704 9145227
0.4083609 0.25557244 0.028617084 9211020
0.41130179 0.25993741 0.028631628 9211020
0.38207603 0.21955663 0.027223289 8619656
0.38391501 0.22100234 0.027854145 8947848
0.38519457 0.22365323 0.028554082 8882055
0.38684934 0.22610271 0.028634548 8882055
0.38868994 0.22892195 0.02866751 8882055
0.39025158 0.23132628 0.028658211 8947848
0.39179394 0.23395446 0.02856952 8947848
0.39314419 0.23638645 0.028620064 8947848
0.39466903 0.23837435 0.028636754 8947848
0.39687067 0.24182084 0.028704226 8947848
0.39971775 0.24582165 0.028530478 9079434
0.37855047 0.21838018 0.026097476 7765383
0.37983963 0.21964212 0.02682966 8356999
0.38181582 0.22180459 0.028031647 8947848
0.37614888 0.21899986 0.025611162 7765895
0.37764537 0.21969028 0.026569843 8422792
0.37185001 0.21852005 0.024383605 6648202
0.37369084 0.21878649 0.02454567 7042441
0.36980855 0.21867281 0.022986531 3888010
0.36628884 0.21833356 0.021267116 2377098
0.36760932 0.21889228 0.021941185 2114441
0.36282176 0.21709162 0.01959008 4348808
0.36370969 0.21845092 0.02041173 2968712
0.35866362 0.21576813 0.017902315 8816776
0.35997349 0.21767643 0.018934906 5925765
0.36140895 0.21894613 0.02018863 2706312
0.34807807 0.20420428 0.016735435 9079434
0.34997642 0.20621753 0.016789854 8947848
0.35076696 0.20842034 0.016595781 8947848
0.35260755 0.21128473 0.016581476 8947848
0.3546164 0.21379456 0.016921341 9013641
0.35620463 0.21613181 0.017548442 8685192
0.35726318 0.21815723 0.018597901 6451330
0.34634373 0.20440124 0.016614497 9013641
0.34791243 0.20697087 0.016434133 9013641
0.34917748 0.20958035 0.016362369 9013641
0.35084423 0.2120769 0.016437531 8947848
0.35197061 0.21502045 0.016871154 9013641
0.35403809 0.21741295 0.017449975 8685192
0.35475588 0.21872778 0.017903626 8160392
0.34361798 0.20604265 0.016537249 9013641
0.34519708 0.20846365 0.016307354 9013641
0.34654513 0.211108 0.016300738 9013641
0.34809256 0.2131767 0.016506493 8947848
0.34976429 0.21584061 0.016867816 9079434
0.3419134 0.20721501 0.016213298 9013641
0.48109901 0.31329054 0.042042434 7240091
0.48451966 0.3180891 0.042425096 7305628
0.48636162 0.31948888 0.042424142 7240093
0.49206245 0.33082783 0.041131735 6714272
0.49625191 0.33612382 0.041645646 7108514
0.49659824 0.33910403 0.041449606 7700386
0.49895388 0.34159392 0.041056335 7569316
0.50135517 0.34357053 0.041034341 7634853
0.50114435 0.34664941 0.040418923 7700647
0.50359839 0.34833533 0.04064399 7635369
0.5047729 0.35245249 0.040117919 7832492
0.50655591 0.35371029 0.040080309 7766955
0.5075745 0.35707411 0.040067196 7898286
0.50878698 0.35887116 0.03933233 8029871
0.43696421 0.24582537 0.044599235 7041931
0.4404546 0.25068909 0.044821084 6844811
0.44259202 0.25460756 0.044881046 6910604
0.44362372 0.25594634 0.044441521 6910604
0.44491267 0.25703651 0.044416726 6976397
0.45899147 0.28235698 0.042697132 6384274
0.46013927 0.28363606 0.042439163 6450322
0.46418223 0.28885806 0.042838752 6318995
0.46558291 0.29171437 0.04279089 6319251
0.46741933 0.29460329 0.042163193 7042197
0.46842802 0.29646426 0.042717755 6910868
0.47026002 0.29904318 0.042413175 6713750
0.47119659 0.30158964 0.042266369 6647959
0.47281829 0.30484125 0.042422831 6582167
0.47515079 0.30703664 0.042094409 6582167
0.47665483 0.31022364 0.042259037 7305370
0.47819996 0.3126131 0.042405903 7305626
0.47933835 0.3148874 0.042371094 7239835
0.48141286 0.31703633 0.042434633 7174043
0.48247507 0.32025743 0.042043746 7239835
0.48453653 0.32276496 0.041436732 7502491
0.48576659 0.3247 0.041231692 6451355
0.48747849 0.32782766 0.040390253 7699866
0.48954976 0.33015031 0.040844381 6714013
0.49013102 0.33270496 0.041147649 7108513
0.4921056 0.3354342 0.041214526 6911393
0.49379128 0.33829343 0.041503966 7503011
0.49522796 0.34080875 0.041343868 7766180
0.49641585 0.34362441 0.040342867 8686499
0.49799103 0.34522572 0.04041332 8620708
0.49964523 0.34798312 0.040240586 8686501
0.5014298 0.35073036 0.040051997 8423847
0.50302106 0.35365671 0.040008962 8423849
0.50462043 0.35588521 0.039811194 8620969
0.50577766 0.35914916 0.040190637 7898542
0.50720572 0.36146075 0.039799154 8029871
0.5093388 0.36353272 0.039036453 8555694
0.51006544 0.36665565 0.039477646 8095921
0.5119226 0.36779952 0.038281143 8227506
0.41965863 0.22168495 0.045024097 7041929
0.42217827 0.22668444 0.044506848 7042184
0.4258182 0.23208517 0.044451773 6976137
0.42729336 0.23564462 0.044514 6976137
0.4291684 0.23714381 0.044552028 6976137
0.43050507 0.23910536 0.044893384 6910601
0.43175662 0.24224946 0.044879377 6976394
0.43377453 0.2441766 0.044870436 6976138
0.43565789 0.24634525 0.044595361 6976138
0.43692231 0.24967436 0.044377029 7041931
0.43802193 0.25245231 0.044697762 7041931
0.44040555 0.25431556 0.044723094 6976139
0.44182384 0.25755897 0.044635236 6976396
0.44363719 0.25974333 0.044400871 7041932
0.44503826 0.2624152 0.043553174 6910605
0.44595504 0.26502216 0.043567479 6910605
0.44801566 0.26695317 0.043105543 6976397
0.44909909 0.27024305 0.043302 6976654
0.45139936 0.27234513 0.043046176 6976399
0.45262027 0.27565104 0.042548716 7765390
0.45463642 0.27756879 0.042791128 6647696
0.45549017 0.28060436 0.042472482 7042191
0.45657131 0.28269154 0.042316198 7501967
0.45827252 0.2854012 0.042216301 7502223
0.46067458 0.28743559 0.042284071 7502224
0.46168005 0.2904388 0.041983664 7633807
0.46285933 0.2934767 0.041978061 7765392
0.46490633 0.29552293 0.041806757 8422547
0.46586549 0.29823366 0.042027771 8225428
0.46778229 0.300708 0.041719735 7962516
0.46970862 0.3038342 0.041825831 7634069
0.4708792 0.30644214 0.041655242 8028565
0.47256055 0.3083666 0.041447341 8225429
0.47392273 0.3109726 0.041066468 8685718
0.47570854 0.3130725 0.041101933 8817304
0.47668952 0.31586629 0.040310442 9671831
0.47933304 0.31857026 0.040877461 8620183
0.47994143 0.32125801 0.040081799 9474709
0.48187971 0.3236205 0.040506482 8619927
0.48386347 0.32641354 0.04036063 8159897
0.48499709 0.3291215 0.040083945 8225690
0.48667067 0.33124173 0.04001689 8554652
0.48813027 0.33351761 0.039793074 9211805
0.48936838 0.33625454 0.039525211 9146267
0.49139822 0.33918735 0.038984716 9606042
0.49294606 0.34144616 0.039590418 9803679
0.49418339 0.34408018 0.039388001 10263711
0.49581406 0.34683555 0.039337933 9803937
0.49756283 0.3492288 0.039524853 9737889
0.49882939 0.35217792 0.039013028 9869474
0.50071198 0.35465622 0.038845003 9869731
0.50196749 0.35707623 0.037992775 10461089
0.50407988 0.35933375 0.038428485 9935525
0.50546002 0.36187696 0.03766948 10592675
0.50674397 0.36451072 0.038104951 10198438
0.50844204 0.36760932 0.037455499 10658726
0.51040512 0.37013435 0.038403213 9147567
0.51143378 0.37243754 0.036910534 9607599
0.51228392 0.37494653 0.037550211 8227764
0.51369709 0.37736386 0.03599596 8228277
0.40925366 0.21002582 0.04475683 7239049
0.41099399 0.2117615 0.045096457 7041928
0.41280812 0.21487902 0.045292437 7041928
0.41465351 0.21720912 0.045110285 7041928
0.41588315 0.21971303 0.045205534 7041928
0.41768801 0.22244008 0.045078099 6976136
0.41919547 0.22579901 0.044855535 6976136
0.42026556 0.2280547 0.044729531 7042185
0.4220466 0.23064883 0.044533253 7239048
0.42367613 0.2328846 0.044550776 7239048
0.42534366 0.23552023 0.044177115 7567752
0.42646003 0.23823911 0.044825733 7304841
0.42846012 0.24084802 0.043950856 7830663
0.42946434 0.24349681 0.043753088 7830664
0.43144125 0.24616365 0.043614328 7961993
0.43297625 0.24855949 0.043930352 7436426
0.43415838 0.25075424 0.0432657 8159369
0.43614846 0.25330064 0.043370843 8159369
0.43727681 0.25611237 0.04347223 8027786
0.43893969 0.25813758 0.04279989 8488073
0.44043052 0.26083601 0.043151915 8356490
0.44222176 0.26347315 0.042754829 8356491
0.44356292 0.26590621 0.042413056 8422283
0.4454363 0.26854545 0.042352736 8553867
0.44728202 0.27101398 0.0423612 8488076
0.44867426 0.27414334 0.042096674 8488333
0.45000708 0.27655694 0.04207772 8356749
0.45156631 0.27903813 0.041939676 8422284
0.45312351 0.28126353 0.041917622 8159629
0.45433307 0.28446043 0.042056739 8291214
0.4565219 0.28665799 0.04202044 8290958
0.45818943 0.28941539 0.04174614 8291216
0.45938832 0.29159379 0.041515172 8554127
0.46042055 0.29430091 0.041433513 8817039
0.46227103 0.29719022 0.041283429 9145745
0.46373183 0.29988152 0.041045547 9408657
0.46518403 0.30210167 0.040678322 9277074
0.46712536 0.30448493 0.040581524 9211537
0.468519 0.30733591 0.0405249 9145746
0.46997935 0.30969954 0.040588915 9474452
0.47197139 0.31241375 0.040444195 9803157
0.47360674 0.31477517 0.040512145 9671829
0.47487777 0.31749585 0.040342748 9474452
0.47671005 0.3197695 0.040358007 9474453
0.4779892 0.3226741 0.040341198 9079955
0.47952747 0.32602829 0.039731205 9606039
0.48127788 0.32822168 0.039685667 9408921
0.48272571 0.33042395 0.039439738 9540506
0.48378444 0.33312517 0.039201438 10132124
0.48582977 0.33521694 0.039123535 10000794
0.48673961 0.3376714 0.038798332 9606296
0.48914444 0.34030938 0.039164007 9935003
0.49077541 0.34288293 0.038620889 10263965
0.49153835 0.34552056 0.038559854 10329501
0.49383035 0.34846097 0.038034141 10329501
0.49515289 0.35104746 0.038397312 10395295
0.49651796 0.35324249 0.037374437 10263965
0.49831039 0.35588741 0.037447155 10329502
0.49977332 0.35841799 0.037812412 10395296
0.50151169 0.36070997 0.037306249 10461088
0.50311083 0.36302751 0.037453711 10461089
0.50412011 0.36650354 0.037261307 10592675
0.50577945 0.36855826 0.037147939 10658467
0.50748682 0.37131175 0.037259459 10724517
0.50935566 0.37347591 0.036592901 10790053
0.51070589 0.37590471 0.036064982 10790311
0.51204884 0.37906653 0.035970867 10330798
0.51356381 0.38132906 0.036301851 8359607
0.51506448 0.38367721 0.034967363 8096695
0.40437114 0.20658734 0.043772936 6383227
0.40590698 0.20871282 0.044637561 7304584
0.40717119 0.21102862 0.044474304 7961990
0.40881062 0.21374047 0.044908166 7501959
0.41021165 0.21624392 0.044184387 7961990
0.41245386 0.218701 0.044379771 7764870
0.41327953 0.22156966 0.043592751 8093318
0.41524851 0.22387329 0.04333955 8356229
0.41697067 0.22650468 0.043452799 8356485
0.41816387 0.22913007 0.042984307 8619141
0.41972312 0.23157313 0.04319185 8422021
0.42111552 0.23445576 0.042929232 8619397
0.42319322 0.2365161 0.042897284 8619141
0.42445621 0.23931658 0.042805254 8684933
0.42598969 0.24193361 0.042715371 8750726
0.42744482 0.24435759 0.04256922 8684934
0.429299 0.24681647 0.042349994 8750726
0.43068737 0.24965534 0.042523503 8619400
0.43243718 0.25200486 0.042181313 8750983
0.43364751 0.25449318 0.04199326 8750983
0.43562508 0.25746664 0.041820168 8816776
0.43695748 0.25976634 0.041566432 8816520
0.43834502 0.2623482 0.041696072 8816520
0.43987566 0.2651557 0.042249143 8948105
0.44111913 0.267717 0.041171432 8750984
0.44272518 0.2703495 0.04161638 8882570
0.44487685 0.27274308 0.041366398 8882569
0.44632521 0.2755937 0.041112065 8882570
0.44772166 0.27770877 0.041354001 8882570
0.44920957 0.28032216 0.040060461 8488583
0.4506779 0.28262171 0.040699542 8291463
0.45240182 0.28520334 0.040189564 8554377
0.45387298 0.28732145 0.04007417 8554633
0.4555687 0.29042482 0.040219605 8620426
0.457573 0.29325721 0.039780259 8554889
0.45879179 0.29567075 0.039557993 8292233
0.46002311 0.29852 0.039696932 8357260
0.46234918 0.30082959 0.03925401 8817549
0.46354944 0.30329055 0.039378703 9014669
0.46514171 0.30589718 0.039387882 8883085
0.46600768 0.30813518 0.037601292 8423819
0.4683184 0.31146833 0.037468195 8883597
0.46929568 0.31433824 0.037594438 9212047
0.47090852 0.31571245 0.038268328 9343376
0.47279826 0.31782246 0.037891984 8949390
0.47430235 0.32145071 0.037435114 8818318
0.4756631 0.32344347 0.037069142 8424076
0.47705865 0.32554245 0.038354397 8817811
0.47813886 0.32885993 0.036551654 9080976
0.48013353 0.33100265 0.037270129 9475220
0.48195529 0.33374989 0.03726238 9672341
0.48324546 0.33639434 0.036789536 9541013
0.48539227 0.33879277 0.036668599 9278355
0.48701143 0.34142289 0.036691248 9475477
0.48833954 0.34424883 0.036376774 9935257
0.49044555 0.34682757 0.035584986 9869464
0.49112779 0.34944153 0.03647095 10001049
0.49329782 0.35176936 0.0360201 9935513
0.4944748 0.35486898 0.036237478 9935513
0.49610567 0.35673726 0.036767662 10198428
0.49745476 0.35951322 0.03615725 10132635
0.49944359 0.36213741 0.036244631 10263965
0.50088167 0.36518463 0.035849988 10330014
0.50231743 0.36685181 0.034553349 10264221
0.50379646 0.36978799 0.034022748 10329757
0.50477576 0.37316757 0.033874691 10461343
0.50658083 0.37500829 0.034510255 10526880
0.5085324 0.37768412 0.035905182 10724259
0.51000124 0.37989128 0.033847034 10658466
0.51164752 0.38249069 0.03485328 10856103
0.51305318 0.38535973 0.03418082 10856104
0.51441842 0.38813645 0.033978701 10067629
0.51576942 0.39094377 0.033353746 8293306
0.40045232 0.20585668 0.042677939 5002092
0.40212026 0.20768669 0.043535411 7171967
0.40333414 0.20996524 0.043465912 7698566
0.40489236 0.21260697 0.043491423 7370374
0.40686047 0.21508436 0.043251932 7501701
0.40808094 0.2177808 0.043069541 7567749
0.40965402 0.22027653 0.043093801 8093572
0.41097334 0.22272973 0.043318689 8553347
0.41261071 0.2253917 0.043241858 8619140
0.41442132 0.22750136 0.043363094 8619140
0.41616476 0.23083915 0.043096602 8619140
0.41709626 0.23324698 0.042863309 8619397
0.41853663 0.23521724 0.042934716 8684933
0.42070687 0.23798735 0.043028414 8684933
0.42232764 0.24100125 0.043152392 8685189
0.42373002 0.24277991 0.042730629 8684934
0.42492747 0.24557474 0.042530954 8750983
0.42690387 0.24822679 0.042500436 8750727
0.42829919 0.25170857 0.042213678 8816263
0.42986977 0.25398284 0.041338027 8685191
0.43086222 0.25612885 0.04093653 8488325
0.4329409 0.25873798 0.040968776 8553861
0.43466631 0.26087004 0.040991127 8422532
0.43589255 0.26373762 0.040533364 8488325
0.43789154 0.26603109 0.039892256 8356996
0.43920016 0.26891804 0.04007858 8422789
0.44073313 0.27142984 0.040056884 8422533
0.44255787 0.27403721 0.039891064 8422789
0.44374123 0.27697629 0.039935827 8422790
0.44557846 0.27950218 0.039908767 8225925
0.44692683 0.28196993 0.039688528 8029061
0.44825283 0.28444946 0.039766431 8291718
0.45032462 0.28642482 0.039642394 8488583
0.45157507 0.28906685 0.039711952 8620168
0.45284644 0.29234233 0.039485276 8029318
0.45487991 0.29507834 0.039282382 8357769
0.45677024 0.29779267 0.03922385 7832200
0.4580681 0.29993895 0.039320171 7109513
0.45933211 0.3019796 0.039265811 7898251
0.4617672 0.30472076 0.038656652 8686475
0.46195817 0.30722904 0.03812927 8554890
0.4637008 0.30975276 0.037691057 8489354
0.4657391 0.31202838 0.037676215 8883597
0.46710539 0.31469786 0.037680686 9212047
0.4686588 0.31713057 0.037983358 9146255
0.47071949 0.32011047 0.037893891 8686476
0.47131437 0.32310465 0.037516057 8949390
0.47401255 0.32526416 0.037033856 8555404
0.47457904 0.32748544 0.036832988 9212305
0.47588632 0.33047172 0.036704063 9475219
0.4779627 0.33259028 0.03706485 9606292
0.4795908 0.33518395 0.036895335 9606548
0.48106471 0.33796665 0.0370152 9475477
0.48272175 0.34090289 0.036333859 9147027
0.48401964 0.34332323 0.03611666 9606806
0.4855541 0.3453891 0.035801411 9803927
0.48742685 0.34841171 0.035722196 9869463
0.4887743 0.35104883 0.036306322 9935256
0.49118638 0.35305601 0.036581159 9869977
0.49198723 0.35681844 0.036122262 9672856
0.49644214 0.36182883 0.035858512 10198172
0.49690777 0.36455905 0.035302103 10198428
0.49833253 0.36618686 0.035201967 10198428
0.49985614 0.3688778 0.034617364 10264221
0.50138378 0.37113497 0.034493148 10330014
0.50342882 0.37401643 0.034390509 10395550
0.50409281 0.37706849 0.034382284 10461343
0.50643623 0.37875122 0.033749759 10527136
0.50727338 0.38176239 0.033507228 10527136
0.50923228 0.38420588 0.03320539 10592929
0.51032168 0.38709846 0.032560647 10592930
0.51212919 0.38970029 0.032389343 10658722
0.51421523 0.39216948 0.032671034 10790054
0.51442504 0.39433545 0.032326639 9673135
0.39799833 0.20650959 0.042134225 5527408
0.3998138 0.2086266 0.041989148 6514810
0.40090775 0.21110865 0.04272455 7238533
0.40270209 0.21345766 0.042766273 8487810
0.40385678 0.21610421 0.042425692 8487810
0.40575692 0.218676 0.042859972 8553603
0.40643454 0.22057873 0.043034136 8553603
0.42829359 0.25544214 0.040911436 8225411
0.4287051 0.25741142 0.040800154 8225668
0.43385613 0.26502037 0.040119886 8356996
0.43587005 0.2679548 0.040100455 8422789
0.43806446 0.27101612 0.040117562 8422789
0.44043863 0.27485359 0.040247321 8422789
0.46074307 0.3094621 0.037657559 8620682
0.47360846 0.32936856 0.036916077 9474962
0.48167413 0.34315735 0.035964191 9475734
0.50875264 0.38814655 0.032843292 10658466
0.51015484 0.39112654 0.03226608 10658466
0.51243126 0.39298594 0.031624377 10658722
0.51329535 0.39599591 0.03097862 10724516
0.51406854 0.39839694 0.029015839 10855845
0.39428902 0.20539412 0.040753186 3555693
0.39553219 0.20793054 0.040591002 5133688
0.3972652 0.20964757 0.041362762 5988987
0.39858526 0.21114407 0.042580783 8553603
0.5125953 0.39944169 0.029566705 10921638
0.39013886 0.20444164 0.039420009 1257328
0.3916648 0.20625713 0.039435387 2898541
0.39354271 0.20802447 0.039648235 4279154
0.50973892 0.40127251 0.029204011 10790052
0.38613826 0.2041077 0.038447142 601714
0.38790286 0.20527637 0.037926733 994673
0.3898626 0.20737484 0.038508534 3095924
0.39094612 0.20929977 0.039917648 5594756
0.51023072 0.40553135 0.027040541 9016509
0.38208044 0.20227498 0.036114752 5925512
0.38404074 0.20401272 0.037094474 1916281
0.38558686 0.20637244 0.036983192 1257331
0.38722605 0.20775418 0.037656486 2833539
0.50866866 0.40654141 0.024130225 10790052
0.50804287 0.40876237 0.025535822 9213885
0.3801043 0.20246436 0.035859346 6779782
0.38188726 0.20538437 0.035534859 2507385
0.38338208 0.20707551 0.036010623 1192567
0.41883361 0.26699939 0.030270159 9276813
0.42270425 0.27260002 0.030023217 9342606
0.42422217 0.27518883 0.029959261 9342606
0.42527074 0.27731493 0.030125797 9276813
0.42679474 0.27962279 0.030323684 9276813
0.42813331 0.28176636 0.030136168 9342606
0.42996097 0.28428137 0.030189693 9276813
0.43144637 0.28707686 0.029819787 9342606
0.43308002 0.28889307 0.029767573 9408399
0.43446401 0.29172751 0.029511988 9408399
0.50560397 0.41048431 0.023667991 10067633
0.37806091 0.20435482 0.033970296 6253186
0.37958091 0.20626502 0.034336805 3033721
0.40428364 0.24842674 0.030323923 9211020
0.40579963 0.25067165 0.030368447 9211020
0.40722263 0.25250325 0.030391634 9211020
0.40895718 0.25528803 0.030584037 9211020
0.41058475 0.25732848 0.030627787 9211020
0.41216096 0.26005432 0.030507386 9211020
0.41379496 0.2624203 0.030346572 9211020
0.41483337 0.26489243 0.030415833 9211020
0.4168908 0.2676481 0.030392468 9211020
0.41891903 0.27023754 0.030432165 9211020
0.42008662 0.27316001 0.030430138 9211020
0.42175305 0.27545536 0.030560315 9211020
0.42306268 0.27774924 0.030633628 9276813
0.42429608 0.28053099 0.030415714 9276813
0.42598721 0.28294116 0.030595362 9276813
0.42765576 0.2858288 0.030528843 9276813
0.42921621 0.28842965 0.030281067 9276813
0.43136811 0.2908265 0.029689133 9342606
0.50399816 0.40932897 0.023295581 10724259
0.37570423 0.20496206 0.033652365 6713985
0.38850391 0.22628251 0.030650198 9079434
0.38909185 0.22834802 0.030017376 9079434
0.39088905 0.23020893 0.030416787 9079434
0.39251655 0.23326081 0.030393779 9079434
0.39400864 0.23588978 0.030249536 9079434
0.39609641 0.23846062 0.030484617 9079434
0.39772046 0.2409642 0.029875875 9079434
0.39953578 0.24359736 0.030311108 9145227
0.40104231 0.24633595 0.030221164 9145227
0.40222433 0.24857378 0.030476868 9145227
0.40300784 0.25124496 0.03040278 9145227
0.40523511 0.25404093 0.030823767 9145227
0.40665185 0.25642711 0.0301283 9145227
0.40837517 0.25874221 0.029861271 9145227
0.40987438 0.26125753 0.030831754 9211020
0.41180491 0.26344779 0.030249119 9211020
0.41298401 0.26677653 0.030796587 9211020
0.4150708 0.26914579 0.030553758 9211020
0.41704035 0.27221686 0.030736268 9211020
0.42159066 0.28044844 0.030451715 9276813
0.3718099 0.20348275 0.032777369 8422274
0.38445055 0.22546747 0.02873224 8947848
0.38583535 0.22814226 0.028754175 8947848
0.38739467 0.2294728 0.029296517 8947848
0.3888796 0.23230043 0.029497325 8947848
0.39009807 0.23444292 0.029753625 9013641
0.39182723 0.23720121 0.029385984 8947848
0.39349121 0.2400028 0.02921468 8947848
0.39555448 0.24195305 0.029302597 9013641
0.3969993 0.24495608 0.029548943 9079434
0.3988452 0.24738917 0.02942735 9079434
0.40002924 0.24980864 0.029411018 9079434
0.40159452 0.25241601 0.028893411 9079434
0.40288913 0.25470036 0.028982222 9079434
0.40474159 0.25711423 0.028738737 9145227
0.40843016 0.26115325 0.028608859 9211020
0.37911311 0.22137932 0.028100967 9013641
0.38035938 0.22306028 0.028487861 8947848
0.38194412 0.22560301 0.028785408 8882055
0.38373351 0.22812724 0.028853476 8882055
0.38510001 0.23091289 0.028790832 8882055
0.38667512 0.2332941 0.028809965 8882055
0.3884677 0.23573312 0.028750598 8882055
0.38986486 0.23812437 0.028616369 8947848
0.39132556 0.24084708 0.028579831 8947848
0.39272988 0.24384135 0.028655708 9013641
0.3936902 0.24647826 0.028729975 9079434
0.39638278 0.24908316 0.028622806 9079434
0.39781809 0.25155878 0.028767228 9079434
0.39908522 0.25455165 0.028996527 9079434
0.40012568 0.25530386 0.028633833 9079434
0.37510863 0.22010162 0.027275383 8619656
0.37645176 0.22182029 0.028086722 8947848
0.37798738 0.22427747 0.028666914 8882055
0.3791104 0.22699346 0.028957307 8882055
0.38119471 0.2295039 0.028982997 8882055
0.38313043 0.23212951 0.028770506 8882055
0.38465995 0.23418757 0.028767049 9013641
0.3858794 0.23685509 0.028947413 9013641
0.38798565 0.24036257 0.028671801 9013641
0.37109077 0.21918328 0.025952578 7831431
0.37280342 0.22035837 0.027229607 8422535
0.37419254 0.22290707 0.028154731 8947848
0.36877009 0.2194064 0.025752664 7634056
0.36506438 0.21927261 0.024669111 6516874
0.36647022 0.21931085 0.024569333 6714250
0.3627694 0.21946721 0.023260832 3756169
0.35908827 0.21913645 0.021258295 1851528
0.36038017 0.21973318 0.02190119 1719689
0.35646594 0.21946184 0.020557106 3033475
0.35271817 0.21864066 0.018476069 6648710
0.35401857 0.21986139 0.019584656 4939910
0.34134084 0.20560071 0.016709328 9079434
0.34129095 0.20585918 0.016605914 9079434
0.34374219 0.20998439 0.016450584 9013641
0.34528142 0.21192196 0.016489446 9013641
0.34750277 0.21492364 0.016763389 9013641
0.34888363 0.21718317 0.017151535 8882312
0.35018551 0.21928057 0.018248558 6450813
0.35164765 0.22083673 0.019647479 5136261
0.33889306 0.20564154 0.016639292 9013641
0.34059954 0.2078913 0.016628325 9013641
0.34196147 0.21040823 0.016504705 9013641
0.34356785 0.21337338 0.016496241 9013641
0.34502113 0.21596462 0.01672256 9013641
0.3462109 0.21856847 0.017129421 8948105
0.34733123 0.22065887 0.017547131 8487811
0.33632159 0.20691507 0.016873896 9079434
0.33815652 0.20950577 0.016751707 9013641
0.33949631 0.2116532 0.016621172 9013641
0.34118095 0.21416467 0.016749799 9013641
0.34267318 0.21682155 0.016747653 9013641
0.3442179 0.21967766 0.016855538 9013641
0.46064138 0.29288083 0.043450713 6450581
0.46460521 0.29922643 0.042893469 6911127
0.46865624 0.30462235 0.043014705 6516375
0.4692305 0.30755988 0.04311794 7239834
0.47091883 0.30904761 0.043023527 7436953
0.47283015 0.31214905 0.042794168 7174298
0.47479209 0.31483233 0.042945683 6516634
0.47717577 0.31677848 0.042888105 6451098
0.4774228 0.32039082 0.042128146 6188185
0.47919434 0.32205093 0.041844547 6648478
0.48591352 0.33363271 0.041247785 7174304
0.48752087 0.33518267 0.041703045 6779808
0.48859113 0.33726242 0.041969121 7240355
0.49050063 0.34013063 0.041737616 7831717
0.49178743 0.34229946 0.0414446 7766438
0.49359602 0.34551322 0.040739477 7766695
0.49457577 0.34780121 0.040957391 7832232
0.49609661 0.35052103 0.04115504 7700649
0.49742615 0.35270369 0.040875912 7832234
0.49938971 0.35545564 0.040553391 7832491
0.50103927 0.35786235 0.040744841 7964077
0.50237387 0.36071357 0.040264726 7898542
0.50440896 0.36299694 0.040347993 7964079
0.50577724 0.36504915 0.04023999 8030128
0.50765765 0.3679049 0.039830267 8161714
0.50871044 0.37072325 0.039533257 8227507
0.50983292 0.37377113 0.038551271 8227764
0.42247099 0.23524381 0.045647144 7041929
0.42360425 0.23607786 0.045637667 6976137
0.42682159 0.24155423 0.045491993 7107722
0.43310982 0.25216162 0.044795334 7042187
0.4349786 0.25361031 0.044903338 7107723
0.43593723 0.25666004 0.044907868 6976139
0.43782866 0.25905615 0.044762075 7107724
0.43853539 0.26179361 0.044494569 7173517
0.4408744 0.26387691 0.044317901 7041933
0.44271749 0.2684038 0.04371959 7042190
0.44451466 0.26960915 0.043931067 7041934
0.44642213 0.27432269 0.043187737 7042191
0.45037144 0.28022319 0.042878926 6581649
0.45179653 0.28370959 0.043169558 7107730
0.45351067 0.28507417 0.043238461 7042450
0.45506611 0.28746903 0.04325217 6713491
0.456375 0.29057816 0.043235838 6647699
0.45834017 0.29282346 0.043112814 6384788
0.46043652 0.2955128 0.043263018 6056338
0.46173206 0.29796839 0.043118417 6253972
0.46310538 0.3007178 0.042800426 6779799
0.46511608 0.30286068 0.042899132 6516631
0.46648836 0.30461505 0.043076217 6516375
0.46701491 0.30739051 0.043248296 7108249
0.46881199 0.31094977 0.042654991 7962777
0.4706589 0.31291425 0.042544425 7765658
0.47226852 0.31653005 0.042266667 7371160
0.4739264 0.31862813 0.041982353 7305626
0.47495764 0.32068539 0.041404784 8159895
0.476693 0.32408828 0.041491568 7831452
0.47837704 0.32603344 0.041363239 7503007
0.47972077 0.32767159 0.041263223 7700128
0.48121694 0.330852 0.041077375 7700385
0.48314959 0.33346504 0.041389763 7371681
0.48445541 0.33644223 0.04109329 7700128
0.48596895 0.33932376 0.040979803 8488865
0.48752475 0.34149194 0.040929675 8752035
0.48952448 0.34388778 0.040769756 9080996
0.49090609 0.34659278 0.04061085 8620709
0.49256718 0.34912276 0.040201962 8949156
0.49360299 0.3516382 0.040380836 8620707
0.49578851 0.3534807 0.040498435 8883877
0.49728596 0.3565287 0.040460944 8949416
0.49861252 0.35959417 0.040152848 9278377
0.50015444 0.36168623 0.039860666 8949930
0.50120234 0.36413619 0.039754152 9015467
0.50302535 0.36656621 0.039445817 9278635
0.50463742 0.36941451 0.039292276 8950190
0.50581896 0.37244052 0.038710415 9476013
0.50800037 0.37498701 0.038800657 8950450
0.5094896 0.37759551 0.038284242 9213362
0.51054913 0.37926248 0.038393795 8359350
0.51248211 0.38242877 0.037832201 8490936
0.51319587 0.38484114 0.037425697 8491193
0.40640652 0.21312749 0.045503795 7107720
0.40856421 0.21687855 0.045908749 7107721
0.41061479 0.2194498 0.045737207 7107976
0.41205502 0.22207376 0.045798898 7042184
0.41436693 0.22482614 0.045760214 6976136
0.41544774 0.22747073 0.046111643 7041929
0.41725931 0.22977683 0.045869946 6976137
0.41805905 0.23309132 0.045813322 6976393
0.420313 0.23485097 0.045561731 7041930
0.42207932 0.2376985 0.045492947 7042186
0.42338812 0.24017847 0.045402944 7042185
0.42472193 0.24252921 0.045364618 7107722
0.42603648 0.24530119 0.045122027 7041930
0.428388 0.24784455 0.044928968 7041930
0.4298138 0.25040275 0.045084596 7041931
0.43037498 0.25331691 0.045348108 7041931
0.43310654 0.25561145 0.044852316 7436427
0.43417996 0.2587243 0.044727147 7436427
0.43480343 0.26074141 0.044826686 7042188
0.43674529 0.26332372 0.044058263 7699339
0.43889767 0.26632327 0.044086397 7107981
0.44073701 0.26814055 0.044017613 7107726
0.44203123 0.27113217 0.043843687 7041934
0.44340283 0.27354261 0.04281646 8028045
0.44475043 0.27592275 0.042675674 7962254
0.44618416 0.2783314 0.042661488 7436174
0.44841883 0.28114012 0.042535365 7699342
0.4496662 0.28350401 0.04271692 8225423
0.45106 0.28629529 0.042789221 8225424
0.45312646 0.28890115 0.042594671 7962510
0.45430654 0.29158539 0.042458594 7765136
0.45606756 0.29377013 0.042079628 8159632
0.45772323 0.29623985 0.04198283 7699341
0.45886335 0.29909626 0.041996658 7370893
0.4608627 0.3012937 0.041889787 8423059
0.46211994 0.30382997 0.042006671 8225685
0.46375132 0.3063871 0.041726112 8488595
0.46565861 0.30922917 0.04135102 9079956
0.46715808 0.31199276 0.041328788 9343382
0.46845841 0.31469712 0.041313469 9277335
0.46965298 0.31707537 0.041114271 9277334
0.47162265 0.31915063 0.040828764 9474452
0.47286946 0.32239178 0.041083813 9080216
0.47431406 0.32464439 0.04052937 9737623
0.47654402 0.32749805 0.040372789 9408923
0.47817248 0.3299377 0.040196955 9343388
0.47914481 0.33240473 0.040358305 9474717
0.48075759 0.33509526 0.040019333 9474715
0.48273826 0.33768287 0.039817572 9606298
0.48414344 0.33994669 0.039705157 9935004
0.48557097 0.34288236 0.039294302 10263709
0.48719248 0.34536487 0.03981775 9409441
0.48836195 0.3476938 0.039046586 10329502
0.49021196 0.35030472 0.039135754 10263967
0.49179906 0.35274455 0.039375067 9540767
0.49358922 0.35547262 0.038722217 10000799
0.49507976 0.35784432 0.038470328 10329761
0.49624848 0.36053473 0.038519859 10461091
0.49788409 0.36360115 0.038625896 10526884
0.49937737 0.3661916 0.038239598 10527139
0.50102019 0.36824596 0.038181722 10592676
0.50246704 0.37114185 0.038088024 10658468
0.50439811 0.37325633 0.03742224 10658467
0.50604588 0.37550837 0.038275361 10001837
0.50766164 0.37779105 0.036689699 10790310
0.50894308 0.38118023 0.037425578 9936304
0.51030588 0.38377914 0.037326455 9673650
0.51192778 0.38641068 0.036874235 10133682
0.51321459 0.38892826 0.036898792 9870772
0.51396048 0.39077929 0.03575021 9870771
0.40035284 0.20915213 0.044871628 7501706
0.40246773 0.21118496 0.045102417 7501961
0.4039636 0.21292442 0.045208514 7567496
0.40532428 0.21579905 0.045225799 6910600
0.40663218 0.21869934 0.045300663 7173256
0.40855971 0.2211732 0.045583308 6844808
0.41003072 0.2239244 0.045406342 7173256
0.41122866 0.22611566 0.045238316 7699079
0.41319853 0.22870275 0.044642508 7961990
0.41485357 0.23126847 0.044802785 7830663
0.41588873 0.23453778 0.044158638 7962246
0.41814166 0.23657128 0.044431031 7896199
0.41911232 0.23881775 0.043856263 8159111
0.42083937 0.24154167 0.043932617 8159111
0.42279482 0.24400255 0.043363273 8422022
0.42378575 0.24688233 0.04349786 8290695
0.42553696 0.24887192 0.043129206 8356488
0.42716113 0.25173271 0.043307066 8356488
0.42914885 0.2542685 0.043044686 8948104
0.43027711 0.25670308 0.042977214 8948104
0.43152925 0.25936046 0.042665184 8882312
0.43363792 0.26220167 0.042946875 8685193
0.43514484 0.26489463 0.042632818 8553609
0.43670136 0.26707369 0.04235965 9013642
0.43825397 0.269521 0.042768002 8488075
0.43977326 0.27180535 0.042549193 8882315
0.4408195 0.27471972 0.042872012 8553868
0.44261223 0.27731025 0.042689502 8093579
0.44433933 0.28012478 0.042450368 8225163
0.44571587 0.28267854 0.042028844 8619660
0.44736713 0.28539446 0.042234421 8948367
0.44875526 0.28792632 0.041639626 9079948
0.45052361 0.29029682 0.041643918 8751499
0.45192239 0.29253569 0.041832983 8751244
0.45334929 0.29536691 0.041194141 8751502
0.4555496 0.29801589 0.04109627 8028297
0.4570131 0.30050761 0.040864527 7436939
0.45827478 0.30293751 0.040913641 8554126
0.4597587 0.30567575 0.041046441 9080210
0.46166164 0.30817464 0.041152239 9343122
0.46288615 0.31078562 0.041092277 9540245
0.46462056 0.31247538 0.041255176 9671829
0.46610704 0.31522548 0.040626585 9277588
0.46731162 0.31807873 0.04016602 9343380
0.46919933 0.32077157 0.0403772 9606293
0.47080997 0.32344216 0.040666521 9737624
0.47193789 0.32718688 0.04029566 10000538
0.47414419 0.32837602 0.039978683 10000537
0.47541502 0.3312915 0.039932191 10000794
0.47642803 0.33390492 0.038900316 9935256
0.47816813 0.33592337 0.039263129 9869208
0.47987324 0.33873898 0.03848964 9541270
0.48185867 0.34100595 0.039104283 10066842
0.48284781 0.3442159 0.039155781 10263709
0.48508903 0.34685874 0.039184213 10263710
0.48618677 0.34959787 0.038667262 10329501
0.48772442 0.3516891 0.038317025 10263709
0.48947674 0.35418215 0.037562311 10067099
0.49085188 0.35617679 0.038032234 9738395
0.49259242 0.35901386 0.037063181 10067100
0.49411595 0.36131889 0.037012517 10329758
0.49543452 0.36441657 0.037166297 10461087
0.49727237 0.3669602 0.038034081 10592673
0.49832094 0.36892968 0.036552012 10395551
0.50077367 0.37174696 0.038058579 10592673
0.50124258 0.37451082 0.036134064 10527136
0.50334811 0.37735009 0.037089646 10724260
0.50502807 0.37949708 0.036114156 10724260
0.50689512 0.38239831 0.036069214 10790054
0.50897014 0.38527304 0.036000431 10790053
0.50947177 0.38774085 0.035995424 10855846
0.51092219 0.38976648 0.035459101 10855846
0.51230407 0.39282775 0.035545647 10921895
0.51259565 0.39482817 0.034731984 8819387
0.39679372 0.20768251 0.043560624 6645626
0.39822385 0.20956549 0.044740498 7895943
0.4002822 0.21228084 0.04455483 7764871
0.4017415 0.2145007 0.044225514 7370374
0.40331838 0.21737906 0.04425925 7501958
0.40459174 0.22010633 0.044026673 7370629
0.40615922 0.22220612 0.04394716 7501957
0.40784597 0.22466956 0.043857634 7567749
0.40920484 0.22765255 0.043761551 8224901
0.41094834 0.22990823 0.043602288 8619140
0.4125264 0.23260722 0.043543041 8619140
0.41394165 0.2352801 0.043352067 8619141
0.41571981 0.23799314 0.043179333 8684933
0.41702244 0.24063745 0.043256879 8684934
0.41851103 0.24304853 0.043002427 8685189
0.4201687 0.24543788 0.042980433 8750726
0.42138752 0.24777479 0.042873442 8750727
0.42328194 0.25032279 0.042633474 8750983
0.4249447 0.25322899 0.04237932 8816519
0.42637563 0.25556093 0.042360008 8816519
0.42785466 0.25833389 0.041911423 8685191
0.42960638 0.26081678 0.042011738 8619654
0.4312335 0.26333404 0.041861355 8619654
0.43289959 0.26553351 0.041606843 8619655
0.43397975 0.26848155 0.041611731 8685447
0.4359144 0.27092588 0.041510224 8685447
0.43772712 0.27330863 0.040943682 8554118
0.43921509 0.27606055 0.041009247 8619655
0.4409517 0.2788581 0.040919423 8094084
0.44205856 0.2811403 0.040364802 7831684
0.44347075 0.2839888 0.040633738 8488583
0.44521683 0.28644165 0.040023208 8554376
0.4465529 0.28893644 0.040070236 8488840
0.44807521 0.2913692 0.039888024 8160390
0.4499869 0.29370004 0.040198088 8160391
0.45134965 0.29664373 0.039887428 8357511
0.45299464 0.29943979 0.040173948 7897221
0.45487645 0.30188075 0.0398646 7437705
0.45536876 0.30443984 0.039496481 8357771
0.45722938 0.30659279 0.038886487 8489355
0.4589406 0.30919361 0.038372576 8817804
0.46074569 0.31166855 0.038014114 8817804
0.46251807 0.31409717 0.038184822 9080719
0.46362203 0.31686002 0.038591444 8029581
0.46545967 0.31966966 0.038315952 8752527
0.46727264 0.32223424 0.037903965 9146512
0.46844864 0.32480323 0.037955582 9277840
0.47036344 0.3271133 0.037422538 9343634
0.47121894 0.32966995 0.037275732 9409426
0.47330779 0.33205473 0.037151575 9474963
0.47472459 0.33440837 0.03751564 9475219
0.4766179 0.33728513 0.037265122 9475476
0.47850427 0.33997092 0.036685467 8555921
0.47893104 0.34238935 0.036400199 8818579
0.48066926 0.34547809 0.036157906 9803671
0.48296386 0.34769762 0.036343575 9803927
0.48417976 0.35041973 0.036420166 9869464
0.48544651 0.35305521 0.036545873 9869720
0.4867202 0.35599309 0.036408603 9672856
0.48892653 0.35767418 0.036322117 9475735
0.49023086 0.36085603 0.036167502 9869978
0.49158594 0.36312938 0.036361039 10264221
0.49361253 0.36562318 0.035298169 10198428
0.49532911 0.3681283 0.03536427 10263965
0.49581903 0.37096712 0.035406351 10329758
0.49797684 0.37360606 0.035236299 10395550
0.49958232 0.37587512 0.035220623 10395807
0.50109828 0.37828666 0.034617782 10461343
0.50257194 0.38134339 0.034584463 10527136
0.50419152 0.38313356 0.034738243 10592673
0.5057624 0.38601404 0.034604192 10658466
0.50694788 0.38873059 0.034078896 10658466
0.50840849 0.39146948 0.032999396 10658722
0.51014674 0.39433336 0.033904135 10724259
0.51148868 0.39617833 0.033322394 11053225
0.3928428 0.20629868 0.043104887 5198959
0.39473784 0.20812961 0.043651044 6908540
0.39611834 0.21104617 0.043097377 7764612
0.39803785 0.21333736 0.043246269 7436165
0.3990075 0.21644397 0.043422699 7567748
0.40088093 0.21847099 0.043455243 7370373
0.40225816 0.22079098 0.044001877 7633284
0.40405357 0.22396311 0.043708265 8553604
0.40603381 0.22636774 0.043695748 8553603
0.40732339 0.22864291 0.043906033 7173509
0.40870678 0.23037773 0.043867588 7699078
0.41012692 0.23311865 0.043392956 8619396
0.41160041 0.2365001 0.043397844 8684932
0.41330302 0.23810107 0.043386757 8619397
0.4149552 0.24094167 0.043016851 8750725
0.41648415 0.24493027 0.042965591 8750470
0.41782123 0.24574965 0.04282099 8684934
0.42022398 0.2493244 0.042763472 8750727
0.42114908 0.25260013 0.042285621 8816520
0.4226999 0.25463286 0.042072773 8750727
0.4246912 0.25678629 0.041820109 8356740
0.42619604 0.25970677 0.041947186 8225668
0.4273966 0.26195437 0.0414415 8225667
0.42850053 0.26474351 0.041175544 8291203
0.430269 0.26703465 0.04063338 8356996
0.43160197 0.2693513 0.040671706 8356996
0.432796 0.27255559 0.04075557 8356997
0.43505627 0.27502126 0.040621877 8356997
0.43678781 0.27701706 0.040648639 8422789
0.43760958 0.27985254 0.040247858 8159875
0.43956554 0.2824873 0.040506661 7897219
0.44109866 0.28536141 0.040471733 8357255
0.4429349 0.28786355 0.040231049 8423047
0.44403291 0.29022247 0.03989172 8357255
0.44535941 0.29210576 0.039800763 8160390
0.44752878 0.29513052 0.039931953 8554377
0.44950491 0.29727188 0.039978743 8620425
0.45225316 0.30245125 0.03989774 7831685
0.45500693 0.30751699 0.03894949 8226697
0.45667002 0.31066236 0.038562834 8686477
0.45858234 0.31311655 0.038294256 8949390
0.46040621 0.31546366 0.038607061 8423822
0.46311715 0.3211686 0.038116872 8423822
0.46523362 0.32328057 0.038119376 9277841
0.46603879 0.32658389 0.037864745 9343633
0.46808577 0.32896227 0.037696481 9409170
0.46929455 0.33203822 0.037742496 9409426
0.47126949 0.33318633 0.037821412 9278098
0.47355628 0.33682072 0.037582338 9541269
0.47480828 0.33942339 0.03700453 9147027
0.47508627 0.34196994 0.036369979 8227472
0.4770315 0.34468728 0.035937428 9212565
0.47788668 0.34641951 0.036373436 9738391
0.48008287 0.34883764 0.036425769 9803927
0.48172733 0.35079247 0.036843598 9869464
0.48440021 0.35537255 0.036751211 9869977
0.48676506 0.35963228 0.036006987 9344662
0.48939356 0.3645153 0.03562957 10132892
0.49163431 0.36696199 0.035635173 10198428
0.49290943 0.3704026 0.035593569 10264221
0.49505445 0.37274149 0.035762548 10395550
0.49770454 0.3781262 0.035178244 10461344
0.49997523 0.38081366 0.034610629 10527136
0.50076371 0.38316223 0.03487885 10592929
