# .PCD v0.7 - Point Cloud Data file format
VERSION 0.7
FIELDS x y z rgba
SIZE 4 4 4 4
TYPE F F F U
COUNT 1 1 1 1
WIDTH 1157
HEIGHT 1
VIEWPOINT 0 0 0 1 0 0 0
POINTS 1157
DATA ascii
1.1299855 0.38271058 0.032747924 1382703
1.131216 0.38538721 0.032703757 1646391
1.1331468 0.38826489 0.031534612 2305101
1.1347204 0.39082894 0.031162679 2437211
1.1363519 0.39327437 0.031034052 3359342
1.138132 0.39613506 0.03158778 3226722
1.139086 0.39865676 0.031531751 2371674
1.1408712 0.40042055 0.032145619 1317711
1.1414468 0.40282089 0.032420099 1385050
1.1229167 0.3770729 0.031061232 1448761
1.1247861 0.37861136 0.031567454 1580092
1.1257472 0.38131824 0.032038748 1251380
1.1284641 0.38511255 0.029525816 1120311
1.1294113 0.3872807 0.030349195 1646912
1.1308502 0.38918221 0.030589759 2305614
1.1317768 0.39210561 0.030901134 2502743
1.1336378 0.39477924 0.030932605 3556717
1.1356517 0.39708337 0.03106159 5661835
1.1365339 0.39935976 0.031071842 5463679
1.1384284 0.40155932 0.0315938 857938
1.1208913 0.37853464 0.029697299 1581379
1.1222667 0.38064057 0.030235827 1646400
1.1236789 0.38291603 0.029207408 1712448
1.1255003 0.3856141 0.029137254 1647174
1.1270139 0.38814706 0.02968812 1383741
1.1286728 0.39112994 0.030403197 2437199
1.1304269 0.3935371 0.030683339 2766689
1.1315525 0.39595106 0.030564785 2373476
1.1182641 0.37910521 0.028357983 1450560
1.1200978 0.38195628 0.028498709 1318978
1.1214983 0.38441727 0.028765142 1581635
1.123017 0.38703796 0.028917849 1647433
1.1249654 0.38969359 0.029449821 1318212
1.11637 0.38071012 0.028469682 1056061
1.1174098 0.383095 0.028465271 1911896
1.1194216 0.38540927 0.028830826 2108241
1.1278464 0.42616913 0.016213357 2830919
1.1254258 0.4262253 0.016071618 4412555
1.1235167 0.42675418 0.015317857 5138076
1.258912 0.51274586 0.048862159 10601215
1.2442136 0.49233899 0.048077166 14743551
1.2487178 0.50069535 0.047450185 14020095
1.2527261 0.50651336 0.048325062 13099519
1.2538526 0.50931442 0.048819721 12967935
1.2549722 0.51085484 0.049712121 12704767
1.2568693 0.51400852 0.049233615 12376319
1.2582815 0.51739538 0.048701167 12310527
1.260915 0.52199149 0.048473895 11850239
1.2634525 0.52450526 0.048697531 10995967
1.2699387 0.53571981 0.04545778 13428479
1.2741629 0.54282063 0.046469569 13362687
1.2885811 0.56625807 0.04413414 15068927
1.2899247 0.56789112 0.044601679 15332350
1.2907805 0.56968027 0.045340657 15858174
1.2922144 0.57209027 0.045354307 16318462
1.2413582 0.4928669 0.047487378 15071999
1.2426873 0.49427888 0.047377467 14874878
1.244086 0.49640778 0.047720373 14546431
1.2465208 0.50002021 0.047145486 14217215
1.2472439 0.50305074 0.047376752 13757439
1.2497752 0.50507963 0.047261298 13494271
1.2498009 0.50834608 0.047290862 13165311
1.2514794 0.51013756 0.047284365 12968191
1.2532771 0.51210749 0.048536301 12705535
1.2543225 0.51503032 0.048278391 12507903
1.2559752 0.51754534 0.048351884 12376575
1.2581992 0.52051568 0.048127353 12179455
1.261902 0.52511251 0.046354175 13822463
1.2634283 0.52810383 0.044939399 15004159
1.2645597 0.53138351 0.044661283 14807039
1.2665894 0.53362226 0.044926226 15133951
1.2677186 0.53565371 0.044817448 14543871
1.2695503 0.53852761 0.045362532 14281215
1.2713127 0.54134357 0.045217097 14280959
1.2720952 0.54421818 0.04540056 14280959
1.2745074 0.54677403 0.045548201 14018815
1.2755405 0.54855824 0.045382798 14412031
1.2769618 0.55116522 0.045166314 14608639
1.2788444 0.553662 0.044618726 13821183
1.2798744 0.55588704 0.044783771 14412287
1.281076 0.55854058 0.044059873 14806782
1.2829491 0.56104839 0.044219196 13886463
1.2846997 0.5633058 0.043817699 14937598
1.2858531 0.56670469 0.044133782 14938366
1.2877676 0.56908762 0.043998301 15397886
1.2894201 0.57122368 0.044101536 15003902
1.2911253 0.57424235 0.043329597 14018303
1.2928638 0.57711482 0.042901278 13952767
1.2945535 0.57991797 0.044257581 14018559
1.2953045 0.58168137 0.042771161 14149631
1.2969508 0.58443695 0.043274939 14215679
1.2985113 0.58736765 0.042497635 13231359
1.2996926 0.58965325 0.0422737 13887231
1.3011107 0.59267151 0.042993188 14281727
1.3024877 0.59676027 0.043071926 13560319
1.3043456 0.59763932 0.041374862 12574463
1.3087289 0.60519594 0.040837526 11720191
1.3098556 0.60793817 0.042313397 12574463
1.1896605 0.41267231 0.050306976 856890
1.231371 0.48082608 0.046386838 15793146
1.2324407 0.48377943 0.045903146 15793146
1.236233 0.48858881 0.046327353 15662332
1.2377691 0.49104646 0.046539187 15400189
1.2392068 0.49326673 0.047011197 15203326
1.2402381 0.49624196 0.046504259 14875133
1.2409489 0.49846253 0.046780109 14677501
1.243421 0.50094956 0.046871364 14283262
1.2441256 0.50328535 0.04705137 14020350
1.2465889 0.50657737 0.04712832 13494271
1.2483408 0.50851667 0.047068477 13165823
1.249241 0.51143199 0.046185017 14019582
1.2515587 0.51383489 0.04623723 14282495
1.2546817 0.517748 0.0444538 15662591
1.2562604 0.52048755 0.0455755 14282751
1.2572169 0.52393627 0.044386208 15333631
1.2585573 0.52546597 0.044404089 15398143
1.2611066 0.52894962 0.044305742 15135743
1.2621031 0.53197408 0.044277728 15004159
1.2648726 0.53486288 0.044311166 14807039
1.265419 0.53761035 0.044474185 14675199
1.267113 0.54031229 0.04456991 14478847
1.2686212 0.54282045 0.045018137 14543103
1.2700639 0.54573965 0.044817209 14478079
1.2715621 0.54755378 0.043541849 14674943
1.2728596 0.55008996 0.043491364 14806015
1.2749293 0.55247366 0.042765021 14412543
1.2762882 0.55469519 0.042778432 15003390
1.2775046 0.55753696 0.042805851 16054782
1.278887 0.55892992 0.043019176 14478334
1.2806408 0.56245238 0.043579638 15266558
1.2823629 0.5643633 0.042657435 14347263
1.2835996 0.56809652 0.043204606 14347519
1.2850735 0.5696789 0.042837918 16646142
1.2865547 0.57175612 0.042996466 13296639
1.2874185 0.57470423 0.043276012 13362687
1.2901688 0.57776976 0.043131888 13428479
1.2921222 0.58137119 0.042874753 13559807
1.2949502 0.58456481 0.042723 13691391
1.2958713 0.58731115 0.043147624 13691647
1.3059907 0.60205829 0.041858971 12903167
1.3114406 0.61303163 0.04170835 13231871
1.3142095 0.61740494 0.039118409 11785727
1.3149741 0.61923182 0.040221751 12377599
1.3174667 0.6217261 0.038677633 10865663
1.319102 0.62689281 0.037844241 11653887
1.1853129 0.41147694 0.048837543 1646916
1.1867425 0.41319171 0.049919605 1449539
1.1881232 0.41542447 0.049853861 1450058
1.1908048 0.41720584 0.049579203 989511
1.2221727 0.47195545 0.045576751 15923704
1.2240584 0.47304636 0.045749068 15989497
1.2260923 0.47663146 0.046040952 15858168
1.2270936 0.48001847 0.046239376 15923961
1.2295231 0.48019719 0.046480119 15924218
1.2300099 0.48430139 0.045609117 15792889
1.2325048 0.48642358 0.045712769 15662074
1.2334342 0.48907474 0.045605004 15661818
1.2342799 0.4915531 0.045686543 15465211
1.2364953 0.49456152 0.046012402 15071483
1.2378876 0.49756646 0.046404302 14808826
1.2402757 0.50096965 0.046602726 14348796
1.2412112 0.50367117 0.046424985 14151676
1.2444125 0.5073868 0.045077205 15070718
1.2465761 0.51135755 0.043320119 16187390
1.2482307 0.5133394 0.043639362 16187134
1.2495984 0.51571393 0.043692827 16056062
1.2508575 0.51842701 0.043403864 16055551
1.2527742 0.52025741 0.043524146 15793407
1.254046 0.52285087 0.043784201 15596031
1.254782 0.52522182 0.043102086 15791615
1.256833 0.52850533 0.043421566 15398911
1.2581718 0.53015578 0.043806076 15266559
1.2594137 0.53261071 0.042988002 15529471
1.261322 0.53532869 0.043456733 15266559
1.262537 0.53806448 0.042771876 15266558
1.2643694 0.54110837 0.042734683 15069438
1.2661718 0.5430491 0.0424155 15069694
1.2677124 0.5459888 0.042223334 15069438
1.2699732 0.54852891 0.041872799 15463422
1.2709002 0.55135411 0.042128861 15266302
1.2723782 0.55419707 0.042037785 14214130
1.2737672 0.55646908 0.042095304 14937076
1.2754092 0.55805939 0.042269289 14148593
1.2770174 0.56119072 0.042022824 13491181
1.278383 0.56397241 0.041962206 14148333
1.2801714 0.56580466 0.043191969 13230847
1.2820098 0.56859326 0.041887403 16646142
1.2840028 0.57142097 0.042810023 16646142
1.2842462 0.57303309 0.04285413 13428479
1.1820818 0.40999517 0.048047364 1647683
1.1830627 0.41173914 0.049467146 2173516
1.1841527 0.41369817 0.050695121 2370897
1.1867838 0.41697386 0.04794246 2831443
1.1878754 0.41894966 0.048486531 2436427
1.188073 0.42101762 0.048337877 1648206
1.2032096 0.44476822 0.046293437 15593968
1.2055942 0.44710097 0.04666996 15660017
1.206459 0.45033392 0.046500981 15528432
1.2077734 0.45201018 0.046414018 15594224
1.2095289 0.45463756 0.045816123 15659761
1.212172 0.46013141 0.045024395 15725810
1.2159069 0.46464613 0.045319617 15791604
1.2175007 0.4684957 0.045566618 15791604
1.2191699 0.47015637 0.045720518 15791861
1.2202591 0.47310153 0.045304239 15857654
1.2219124 0.47572944 0.045304358 15857654
1.2237196 0.47871327 0.044992626 15726581
1.2244689 0.48091206 0.045291781 15726582
1.2259834 0.48314431 0.045434058 15726839
1.2274899 0.4854787 0.045578301 15727096
1.2290881 0.48799354 0.045741796 15727353
1.2309586 0.4911533 0.045419872 15661818
1.2334406 0.49404699 0.045555949 15399674
1.2340622 0.49616322 0.044807971 15661819
1.2355269 0.49931255 0.044430077 15596028
1.236995 0.5010758 0.042455971 16777215
1.2407701 0.50656813 0.042693496 16580606
1.2421372 0.50893867 0.042672575 16515070
1.2438779 0.51155341 0.042695105 16449534
1.2451203 0.51426613 0.042880237 16318206
1.2466377 0.51686883 0.042851388 16318206
1.2482231 0.51998007 0.042610466 16121086
1.2503109 0.52233863 0.042720675 15924223
1.2513614 0.52479756 0.042725563 15858431
1.2530441 0.52717006 0.04234761 15989503
1.2544649 0.52936602 0.042568386 15792382
1.2559476 0.53169173 0.042226255 15989247
1.257461 0.53422844 0.042209387 16054271
1.258723 0.53666621 0.042213917 15529726
1.2607274 0.53942764 0.041790545 15266558
1.2621067 0.54194635 0.041732252 15529214
1.2642683 0.54503107 0.041105211 14542837
1.2655067 0.54755867 0.041168392 14148079
1.2666565 0.5500797 0.041620433 15266302
1.2687492 0.55220795 0.041409433 13227496
1.2698798 0.55511141 0.041448772 12766944
1.2721975 0.55751348 0.041982532 16580606
1.2728472 0.55947089 0.04114604 12043733
1.2744046 0.56281233 0.041010678 12043989
1.2764509 0.56556576 0.041232347 12043990
1.2790688 0.56916106 0.041089952 16580606
1.1776074 0.40910217 0.046427906 1121345
1.1789601 0.41031271 0.047769666 989239
1.1805913 0.41210163 0.049197018 1778753
1.1821094 0.41678315 0.046241224 2436167
1.1838474 0.41821551 0.047269285 2831435
1.1855929 0.42033345 0.04663229 3225156
1.1867237 0.42295101 0.046709001 2765384
1.1876014 0.42481181 0.046252012 3553610
1.1974106 0.44233188 0.045082152 15593969
1.1992326 0.44365293 0.045522273 15462639
1.200554 0.44661275 0.046077669 15462382
1.2022482 0.44899261 0.046438277 15396845
1.2039896 0.45147529 0.04671061 15396589
1.2059182 0.45537239 0.045914888 15462382
1.2075195 0.45567596 0.045707047 15659761
1.2084715 0.45933226 0.045006514 15593968
1.2100167 0.46147895 0.045339823 15660017
1.2120092 0.4644886 0.045211911 15725553
1.2137136 0.46689633 0.04549247 15791347
1.2145262 0.47020313 0.04537195 15791347
1.2162535 0.47200811 0.044117868 16185591
1.2176359 0.47441506 0.04453516 15988725
1.2195585 0.47719797 0.043987215 16251641
1.2210095 0.47974297 0.044474959 15923446
1.2223046 0.48171136 0.042531967 16711422
1.2246065 0.4849664 0.043948472 16251898
1.2255725 0.48699087 0.042225063 16777215
1.2277887 0.49000847 0.042057693 16777215
1.2291975 0.4925479 0.042019725 16777215
1.2308267 0.49520141 0.04220891 16777215
1.2323539 0.49766675 0.042131543 16777215
1.2339483 0.49981448 0.042127013 16777215
1.2355309 0.50225329 0.042044044 16711678
1.2370648 0.50484848 0.041988671 16711678
1.2379375 0.50810087 0.041671395 16711678
1.2397944 0.50928873 0.04219687 16580606
1.2410945 0.51238215 0.041983724 16580606
1.2429571 0.51531583 0.041790783 16514814
1.2443264 0.5180977 0.041927218 16449278
1.2463794 0.52071714 0.041880667 16383486
1.2478948 0.52373695 0.04136157 16251901
1.2492745 0.52566195 0.040864766 16120830
1.2509773 0.5281266 0.041022837 16120830
1.2521265 0.53068507 0.041108906 15726846
1.2537369 0.53305089 0.040805399 15857918
1.2550509 0.53585196 0.040403962 14740212
1.2566216 0.53814983 0.040587008 14740212
1.2581731 0.54075873 0.040790439 14082542
1.2603129 0.5437957 0.040579617 14082287
1.261821 0.54637486 0.040672243 14082285
1.2633879 0.54878938 0.041206241 15332094
1.2651718 0.55088007 0.039913595 9807809
1.2660363 0.55366832 0.0404706 13161183
1.2665802 0.55571127 0.039996088 9742016
1.2694969 0.55846018 0.040495098 9676480
1.1743872 0.40770948 0.045274436 1975371
1.1751854 0.40947458 0.046336114 1449796
1.1761719 0.41154051 0.047155857 989498
1.1799022 0.41646639 0.045289814 1711934
1.1817825 0.41962436 0.045765221 2831168
1.1834793 0.42173678 0.045623004 3291201
1.1840976 0.42421791 0.045459807 3422276
1.1859704 0.42704937 0.045111179 3620428
1.1875125 0.42869985 0.04505372 2699589
1.1940722 0.44065496 0.043855608 13952489
1.1952477 0.44288462 0.045090437 15331053
1.1966872 0.44574535 0.0458408 15462382
1.1986299 0.44713262 0.045018435 15527918
1.1998792 0.45087197 0.042512 16250871
1.2011839 0.4520877 0.04279381 16316664
1.2031025 0.45541164 0.042440176 16316664
1.2042441 0.45734495 0.043594539 16316921
1.2061484 0.46066281 0.043651879 15790833
1.2085993 0.46330208 0.045101106 15528175
1.2094522 0.46552411 0.04192692 16185078
1.2109087 0.46773079 0.042033792 16448250
1.2126633 0.47040164 0.04215771 16579836
1.2144165 0.47315049 0.041999638 16711422
1.2154331 0.47569805 0.042293966 16448250
1.2170781 0.47809801 0.042057335 16711422
1.2186894 0.48065251 0.041727006 16711422
1.2203059 0.48377916 0.042114258 16711422
1.2222035 0.48550147 0.041869223 16777215
1.2230921 0.48826635 0.041613758 16711422
1.2250519 0.49082524 0.041294277 16777215
1.2267458 0.49346533 0.041265547 16777215
1.2280469 0.49620068 0.041648626 16777215
1.2296528 0.49885774 0.041358829 16645629
1.2308828 0.50122619 0.041648209 16645629
1.2326474 0.50374126 0.041332066 16711679
1.2345898 0.50657928 0.041256189 16645629
1.2362061 0.50936639 0.040682316 16645886
1.238003 0.5117445 0.040569484 16514814
1.2387044 0.51416326 0.040627301 16580092
1.2404554 0.51594436 0.040198445 16383228
1.2414334 0.51864648 0.040136814 16252412
1.2434455 0.52196109 0.040415645 16317436
1.2450583 0.52420127 0.039894164 16055036
1.2465122 0.52672732 0.040332556 16055037
1.2481616 0.52971113 0.039887607 15397109
1.2495949 0.5323692 0.039664507 14345453
1.2516612 0.534495 0.039499104 13359590
1.2524806 0.5371213 0.039756358 13688041
1.2545491 0.53942567 0.039715111 12767199
1.2560195 0.54270267 0.0394122 13424093
1.2581615 0.54529119 0.03948164 12306387
1.2592245 0.54808074 0.039462388 10004927
1.2610564 0.55153179 0.039371133 9808063
1.2626271 0.55093288 0.039437056 9807807
1.2634838 0.55382431 0.039674938 9807808
1.1667893 0.40159383 0.04409951 725542
1.1670734 0.40287068 0.044833541 725543
1.1702187 0.40580583 0.044559181 1646665
1.1714907 0.40768835 0.044879258 1975878
1.1728158 0.41026852 0.045660794 1647173
1.1734418 0.41279402 0.046256483 1120831
1.1759286 0.41524562 0.043930948 1515073
1.1781642 0.41840416 0.044229031 1646394
1.179527 0.42067197 0.044869065 2435647
1.1807852 0.42314085 0.044521749 3225158
1.1825686 0.42621514 0.045033157 3159880
1.1838439 0.42836916 0.04433161 2831172
1.1854204 0.43100724 0.0437271 2172982
1.1869655 0.43328619 0.043372869 3752797
1.1888806 0.43600476 0.043634713 13621480
1.1897063 0.43897772 0.043946803 14740203
1.1921291 0.4408251 0.044107139 14609131
1.1930603 0.44423977 0.042087495 16119541
1.1943992 0.4461548 0.042359769 16119285
1.1962154 0.44870147 0.042322755 16316664
1.197426 0.45126364 0.042486548 16316664
1.1994193 0.45391181 0.042306304 16514043
1.2007477 0.45633864 0.042402029 16514043
1.2022848 0.45906371 0.041648626 16448250
1.2038507 0.4614605 0.041968167 16514043
1.2060003 0.46406487 0.041664779 16514043
1.207181 0.46681121 0.041598976 16579836
1.2085934 0.46924052 0.041671157 16579836
1.210164 0.47177058 0.041942537 16579836
1.211812 0.4745943 0.041644156 16645629
1.2136922 0.4769401 0.04129082 16645629
1.2147924 0.47941199 0.041721702 16645629
1.2163317 0.48246765 0.041433752 16711422
1.2179072 0.48536634 0.041348994 16777215
1.2198596 0.48711443 0.041189909 16579836
1.2208432 0.48993757 0.040840328 16579836
1.2226579 0.49250928 0.040639281 16382457
1.2242377 0.49516153 0.040619016 16645629
1.2258456 0.49770433 0.040420592 16448250
1.227186 0.49989653 0.04063344 16382457
1.2286406 0.50254762 0.039981902 16514043
1.2310874 0.50529402 0.039644063 16251128
1.2321858 0.50777996 0.039929271 16316921
1.2340784 0.5108732 0.039508522 16316921
1.2352324 0.51337242 0.039285958 15790835
1.2371526 0.51571393 0.039031029 15133934
1.2382538 0.5179593 0.039115965 15528177
1.2396171 0.52035397 0.038802564 14870764
1.2410872 0.52299893 0.038870275 14279655
1.2422125 0.52570927 0.039138556 14411756
1.2440199 0.52776766 0.039020896 13884899
1.2456867 0.53052711 0.038915217 13227486
1.2469642 0.53202343 0.038218796 10794178
1.2488801 0.53565282 0.038049936 10662593
1.2496731 0.5383637 0.038544595 10531007
1.2521849 0.54100084 0.038604975 10333632
1.2537582 0.54419678 0.038484931 10202300
1.2560961 0.5464319 0.038882077 10070717
1.1538827 0.38431445 0.044271529 1647427
1.155443 0.38691348 0.043826044 2766422
1.1560726 0.38898149 0.043662965 3554657
1.1588582 0.39347726 0.043305695 792106
1.1615585 0.39663255 0.043828905 527921
1.1628503 0.39946496 0.044402719 660018
1.1645277 0.40155685 0.044297695 1383222
1.1652048 0.4038001 0.044818938 1712445
1.1675205 0.40617523 0.044290364 1778494
1.1689347 0.40934786 0.044217646 2107459
1.1706351 0.41180518 0.044301331 2107464
1.1726102 0.41438201 0.04279393 2501961
1.1734968 0.41658074 0.043510139 1844038
1.1754683 0.41928744 0.043367624 2040895
1.1766073 0.42200851 0.04319793 2566971
1.1787266 0.42459676 0.043317139 3027266
1.1796464 0.42722735 0.043257654 3093570
1.181618 0.42964652 0.043528795 3094090
1.1828034 0.43234995 0.043450475 2435646
1.1847143 0.43501344 0.042523444 1514546
1.1859534 0.43694559 0.042854846 6054522
1.1873006 0.44025871 0.040912211 9935271
1.1894205 0.44252157 0.04123497 15724529
1.1906161 0.44529232 0.041880071 16119285
1.1926088 0.44788417 0.041954219 16185078
1.1936483 0.45073041 0.041931987 16053492
1.1954143 0.45292908 0.041783214 15921906
1.1968231 0.45515624 0.041963816 15921906
1.1987287 0.45807189 0.041511774 15790320
1.1998329 0.46053633 0.041038036 15921906
1.2016969 0.46280956 0.04097414 15921906
1.2033331 0.46556276 0.041302621 16185078
1.2047734 0.46804172 0.040905654 16185078
1.2060034 0.4702532 0.040692925 16053492
1.2075703 0.47279009 0.040472806 16053492
1.2091722 0.47563857 0.040461242 16053492
1.211244 0.47817254 0.040452123 16053492
1.2122922 0.48015818 0.040084898 15790320
1.2143229 0.48325738 0.040192723 15921906
1.2153904 0.48592323 0.039120197 15527148
1.2172945 0.48823899 0.039557397 15593197
1.2188315 0.49061179 0.039508879 15724527
1.2202759 0.49366689 0.039494514 15527405
1.2220047 0.49633774 0.039170682 15395819
1.2236652 0.49952945 0.038681507 15264233
1.2250965 0.50208056 0.039068162 15461869
1.2268076 0.50494158 0.038856447 15922163
1.2284427 0.5067153 0.038761675 15593455
1.2296959 0.50857353 0.038417399 14673125
1.231468 0.51141655 0.038131535 14541283
1.2326159 0.51429129 0.038374245 14673382
1.2347615 0.51661551 0.038242459 14344419
1.2355505 0.51926428 0.03804189 13949406
1.2373209 0.52160102 0.038289964 13292762
1.2389482 0.52486718 0.037932813 11516867
1.2406693 0.52809083 0.037810028 11188419
1.2422912 0.5296489 0.037891507 11122371
1.2440679 0.53353429 0.037978411 10662594
1.2463791 0.53588653 0.03810066 10662593
1.1499605 0.38235316 0.043132126 1646906
1.1511273 0.38449112 0.043722689 1713211
1.1526461 0.38716882 0.043687403 4674153
1.154242 0.39013433 0.043367088 5791618
1.1554904 0.39204872 0.043487787 4279152
1.1574848 0.395123 0.043557107 1647432
1.1591104 0.39797896 0.0435673 1515326
1.1603675 0.4001219 0.042967975 2172223
1.1616169 0.40251234 0.043404818 2369603
1.1636331 0.40513644 0.043357611 1909828
1.1650487 0.407639 0.042699337 2172483
1.1665612 0.41088134 0.042314827 2501700
1.1687028 0.41286367 0.042690039 2698823
1.1701455 0.41516963 0.042684019 2764873
1.1709571 0.41839156 0.041891992 2895939
1.1730433 0.42062634 0.041899145 3027778
1.1743793 0.42345747 0.042077124 3027522
1.1757727 0.42616987 0.042260647 3356481
1.177691 0.42852563 0.041945755 3094089
1.1790848 0.4309594 0.041618705 2962505
1.1806271 0.43346709 0.042081714 2633544
1.1821938 0.43643564 0.041479945 1580338
1.1835811 0.4386408 0.041120112 723485
1.1853426 0.4412699 0.040871441 8289945
1.1867082 0.44376686 0.041084528 15329771
1.1887743 0.44640264 0.041077137 16119285
1.1901441 0.44922397 0.040781975 15592941
1.1914124 0.45183226 0.039813042 14540253
1.1932976 0.45393768 0.040905416 15461355
1.1949708 0.45697543 0.040338218 14869218
1.1966432 0.45919809 0.040130913 14935011
1.1975789 0.46190226 0.039669216 14540253
1.1997864 0.46435753 0.039809108 14737889
1.2011054 0.46689069 0.039734781 14935011
1.2023695 0.46909446 0.039958954 15198183
1.2035992 0.47181651 0.039090335 14277338
1.2053113 0.47451103 0.038848937 14408924
1.2064321 0.47699323 0.039110303 14803425
1.2082329 0.47903952 0.038856089 14474717
1.2096847 0.48182434 0.038656533 14606046
1.2116554 0.48395535 0.038273871 14211545
1.2135153 0.4871051 0.038131773 14277595
1.2147756 0.48971689 0.038520992 14474974
1.2167346 0.49202228 0.038357317 14211802
1.2177176 0.4946118 0.038263738 14277851
1.2198987 0.49756581 0.038309216 14277852
1.2210326 0.50023729 0.038008392 13817558
1.2230003 0.50302237 0.037960231 13883352
1.22445 0.50638044 0.03766042 13818072
1.2262031 0.50773013 0.037222326 12765643
1.2273263 0.50913686 0.037875772 14278110
1.2281682 0.51232326 0.037504196 13357267
1.2297953 0.51521003 0.037165463 12436681
1.2319527 0.51731855 0.03752625 12174024
1.2336175 0.52075005 0.037370205 11911112
1.2391754 0.52864575 0.037790835 11122626
1.1465805 0.38203773 0.041719079 1186101
1.1481764 0.38398698 0.042533278 1844535
1.1490809 0.3860549 0.043204248 1910844
1.1502979 0.38875875 0.043315351 3160914
1.1516733 0.3914189 0.042337835 3094868
1.1526905 0.39449561 0.042736173 2173259
1.1554013 0.39651069 0.042258084 1055294
1.1567852 0.3988865 0.041885316 988975
1.1578648 0.40104064 0.042924821 2040890
1.1597619 0.40416706 0.041198194 2764095
1.1614971 0.40640301 0.041607618 2895939
1.1631799 0.40934938 0.041438878 2961479
1.1645041 0.41192201 0.04175061 2829895
1.1663697 0.41462037 0.041422307 3027271
1.1676526 0.41708213 0.041298866 3158853
1.1692526 0.41979146 0.041207194 3290688
1.1707361 0.42198396 0.040961862 3356743
1.1721309 0.4248386 0.040807664 3554380
1.1737827 0.42718261 0.040507257 3357262
1.1751916 0.42982164 0.0403772 2962766
1.1763984 0.43222573 0.040330231 2634057
1.1779679 0.43417633 0.040309906 2371403
1.1799147 0.43764433 0.039987206 2305868
1.1812134 0.44008783 0.040377557 1380640
1.1828685 0.44281414 0.040252745 5395049
1.1848993 0.44506744 0.039456904 13025216
1.1861358 0.44834247 0.038375795 14278115
1.1872356 0.44988927 0.039172828 14540510
1.188987 0.45299533 0.038724482 13488337
1.1912627 0.45501506 0.0391379 13553872
1.1920086 0.45801073 0.038819969 13422286
1.1942351 0.46026123 0.038825214 13488078
1.195405 0.46317318 0.038963377 13751251
1.1977253 0.46559891 0.038839698 13751251
1.1990795 0.46891832 0.038360655 13488335
1.2007155 0.47188205 0.037925899 13290956
1.2014809 0.47185352 0.03935498 14737632
1.2027638 0.47559303 0.037715733 13488079
1.2048125 0.47753838 0.037644386 13422286
1.2060242 0.48008981 0.037763953 13488079
1.2083669 0.48334849 0.037686884 13553872
1.2089677 0.48529509 0.037814438 13553872
1.2107472 0.4878045 0.037773848 13751251
1.2119244 0.49115616 0.037209213 12830663
1.2140042 0.49330226 0.03741169 12830920
1.2148342 0.49631077 0.037374675 12699591
1.2170292 0.49855679 0.037481248 12699591
1.2187651 0.50107861 0.037531316 12831435
1.220912 0.50376123 0.037591875 12765385
1.2219892 0.50775838 0.03700608 12699593
1.2243755 0.50972295 0.03728348 12765901
1.1420994 0.38059676 0.040667355 857136
1.1438581 0.38231385 0.0412094 857391
1.1450001 0.38495538 0.041342437 1186096
1.1465077 0.3877885 0.041739881 1515318
1.1483244 0.39033413 0.04084307 1252406
1.149552 0.39295805 0.041388452 1054773
1.1510491 0.39454073 0.040513933 1317935
1.1528012 0.39752024 0.040553689 1383731
1.1543043 0.39965701 0.04193306 1120306
1.156315 0.40293658 0.039670169 1908529
1.1572542 0.40563115 0.040420949 2830144
1.1587524 0.4080607 0.040871084 4013641
1.1601568 0.41056737 0.040237606 3552844
1.1617548 0.41335893 0.039803684 3224908
1.1637983 0.41575292 0.039662898 3290699
1.1651769 0.41851708 0.039215386 3093839
1.1668389 0.42114416 0.039435148 3357003
1.168309 0.42347458 0.039457202 3225678
1.170063 0.42596433 0.039161325 2830924
1.1709791 0.42801973 0.039086401 2371406
1.1727633 0.43099463 0.039036572 2174283
1.1741948 0.43391615 0.039750099 2173770
1.1762621 0.43546697 0.040646017 2569045
1.1766018 0.43801579 0.039697289 2173771
1.1791815 0.44267651 0.038690567 1317950
1.1810945 0.44398901 0.038275659 1645628
1.182703 0.44695511 0.037822008 5789037
1.1841221 0.44912508 0.037642419 9871544
1.1851153 0.45174795 0.037862182 13094097
1.1865579 0.45403251 0.037728012 12765130
1.1886382 0.4562405 0.037665904 12567493
1.1891704 0.45851234 0.037962735 12633283
1.1906304 0.46102259 0.037955761 12633026
1.1922204 0.46380335 0.037918031 12698820
1.1945858 0.46691629 0.037595034 12699077
1.1964828 0.46973866 0.037448227 12896713
1.198308 0.47215191 0.037570834 12633027
1.1992043 0.47569072 0.037280262 12764869
1.2011659 0.47689712 0.03722173 12765127
1.2037895 0.48075488 0.037281394 12764870
1.2052522 0.48372322 0.037129819 12698820
1.2066483 0.4861615 0.037231863 12764613
1.1332542 0.37142724 0.039423048 1384249
1.1351438 0.37402692 0.039400518 2040376
1.1362705 0.37611753 0.040262699 1054776
1.1378074 0.37866822 0.040239155 1449272
1.1396974 0.38129494 0.040348411 1646392
1.1410079 0.3834396 0.040873349 1317685
1.1426036 0.38650417 0.040249705 1383473
1.1442055 0.38869545 0.040102363 1580338
1.1453257 0.39122885 0.040132225 1909307
1.1472842 0.39339519 0.039928973 1712185
1.1487471 0.39645913 0.039415658 1646646
1.150539 0.39911681 0.039584756 1844022
1.1520946 0.401492 0.038560569 2304573
1.1535263 0.40396366 0.039091647 1974840
1.1546842 0.40671504 0.039318204 1908792
1.1566826 0.40911981 0.038521767 2960965
1.158242 0.41160831 0.039296091 4408156
1.159457 0.41467041 0.03871125 3487837
1.161406 0.41723391 0.038687825 3357017
1.1634933 0.41946113 0.038358331 3422810
1.1645714 0.42223284 0.038520873 3027796
1.166173 0.42458686 0.038318098 2501966
1.167362 0.42750689 0.038003266 2041415
1.1694541 0.42986 0.038362265 1713478
1.1710778 0.43252525 0.038696468 1779786
1.1782029 0.44504482 0.038313985 924232
1.1798804 0.44726887 0.037686646 1184564
1.181681 0.45063725 0.037204504 6451346
1.1830778 0.45329881 0.037122548 11253193
1.1837391 0.45589274 0.036937892 12304835
1.1858625 0.45772997 0.037313819 12501955
1.1297033 0.37014887 0.039179504 1251902
1.131534 0.37236348 0.039563715 1778241
1.1326845 0.37479183 0.039834857 1843259
1.1343507 0.37695181 0.039899886 1844025
1.1354378 0.37954327 0.038961172 2106682
1.1373342 0.38223881 0.039103508 1975614
1.1388389 0.38506034 0.039409041 1844283
1.140476 0.38794455 0.038962245 1712955
1.1419102 0.39043781 0.038308084 2172991
1.1434503 0.39296839 0.038336694 2896457
1.144976 0.39537024 0.038531303 2895941
1.1466789 0.39788306 0.038536251 2567489
1.1478531 0.4005636 0.037900627 2305096
1.1494952 0.40315577 0.038307309 2568003
1.1512039 0.40565816 0.038148224 1975875
1.1532338 0.40817598 0.037422001 857391
1.1542013 0.41107091 0.037940562 922923
1.1558659 0.41327146 0.03786993 1711417
1.1571482 0.41551325 0.037838757 1711674
1.1592066 0.41803727 0.037610173 1777734
1.160961 0.42133805 0.037326157 2172739
1.1620826 0.42314401 0.037285805 2435397
1.1636641 0.42632011 0.037401915 2304069
1.1650603 0.4287307 0.037531555 1909566
1.1810298 0.45446792 0.036521375 8359612
1.1265574 0.37161553 0.039194226 922161
1.129189 0.37313405 0.039076209 1119795
1.130489 0.37582573 0.038252771 1514289
1.131916 0.37876996 0.03802973 2041146
1.1335454 0.38133505 0.038045824 2370113
1.135062 0.38369292 0.038243473 2436163
1.1363316 0.38634622 0.037386537 2435647
1.1381292 0.38892248 0.037672102 2107195
1.1395875 0.39155099 0.037271976 1974836
1.1412388 0.3940469 0.03715837 1777460
1.1427996 0.39650118 0.037341416 2172988
1.1446195 0.39911875 0.036720216 2107716
1.1459475 0.40177846 0.036732197 2173513
1.147324 0.40372962 0.037141025 2305616
1.1484787 0.40662342 0.036693573 2239562
1.1506593 0.4098193 0.036860168 1318713
1.1521331 0.41271028 0.03699261 462632
1.1532835 0.41466326 0.037257552 791085
1.1552981 0.41694826 0.037161767 790835
1.1572859 0.41901892 0.037122786 724780
1.1579976 0.42141131 0.037344396 988721
1.1600931 0.42434025 0.037078321 1712184
1.1268661 0.37496871 0.035693347 922663
1.1281197 0.37749621 0.036329091 1316909
1.129324 0.37985414 0.036242783 2106678
1.1309272 0.38222221 0.036473989 2698552
1.1322558 0.38473886 0.035967648 2435123
1.1343234 0.38789183 0.035965621 3093578
1.1361494 0.38983575 0.036323965 3093575
1.1371582 0.39290515 0.036169231 1843771
1.1392887 0.39527252 0.036448777 1316914
1.1404545 0.39784572 0.035806119 1449273
1.1420088 0.40056118 0.035623014 2107975
1.1432767 0.40312764 0.03499186 2700376
1.1451914 0.4055441 0.035034478 2701405
1.1467057 0.40805057 0.034863055 2701663
1.1480451 0.4096559 0.034167647 2832745
1.1241015 0.37602183 0.035405457 1514550
1.1255858 0.37886763 0.035381496 1580088
1.1273201 0.3813968 0.035038531 1974579
1.1287669 0.38405442 0.035180271 2369330
1.1300405 0.38666537 0.034967721 1909302
1.132117 0.38911414 0.03503865 3028038
1.1336366 0.39128917 0.034925699 4672871
1.1349182 0.39389837 0.034616172 3225428
1.1364918 0.39643624 0.03500253 658990
1.1376009 0.39839441 0.033946157 1054012
1.1400509 0.40169233 0.033464491 1713227
1.1416789 0.40417367 0.033504188 2701918
1.1433723 0.40602651 0.034088433 2768738
1.1447824 0.40879577 0.033657074 2769001
1.121997 0.37769234 0.034214258 2238004
1.1234059 0.37986451 0.034012735 1974834
1.1250508 0.38287571 0.033879936 1514284
1.1267049 0.38535452 0.033795655 1646133
1.1288545 0.38798469 0.033873975 1580344
1.129154 0.39042971 0.033394158 1186103
1.1314009 0.39301997 0.03410399 3752283
1.1328497 0.39594796 0.032929063 4147303
1.1342671 0.39779085 0.032757521 3950185
1.1360447 0.40026605 0.032123148 2304344
1.1379555 0.40303546 0.031885862 923721
1.1387975 0.4049353 0.03237623 2173523
1.1195987 0.37838209 0.032924235 1514544
1.1212534 0.38124469 0.032429159 1317429
1.1227541 0.38401985 0.033105433 1054251
1.1237693 0.38645646 0.032734454 1185579
1.1257355 0.38937032 0.031880438 1449014
1.1273601 0.39155379 0.031509459 1975618
1.1288966 0.39401424 0.031937659 2239827
1.1304488 0.39633322 0.031134427 3096173
1.1324544 0.39788997 0.031011462 4873860
1.1173149 0.37986213 0.031905711 1383223
1.1188699 0.38274768 0.031631112 1382707
1.1207466 0.38546035 0.032057881 791085
1.1217113 0.38802585 0.02923727 1252152
1.1237073 0.39048454 0.030229449 1318200
1.1248503 0.39303422 0.030603468 2173769
1.1268814 0.39528206 0.031196415 2240084
1.114743 0.38151214 0.029277682 2305359
1.1162524 0.38380581 0.028596222 3556466
1.1182255 0.38669792 0.028761566 4803959
1.1195533 0.38951913 0.029104352 2699352
1.1210855 0.3910698 0.029701948 1054779
1.1218797 0.39329541 0.030917525 2041921
1.1124499 0.38301128 0.028793812 2174022
1.1140451 0.3854849 0.028935254 4871022
1.1154962 0.3880094 0.028844357 6449028
1.117137 0.39015365 0.029124975 4212846
1.1126058 0.3866162 0.028755963 2043219
1.2646415 0.5282445 0.048864067 11061503
1.2660697 0.53011298 0.049556971 10864383
1.2666848 0.53222567 0.049996257 10995967
1.2679608 0.53534842 0.04954654 11061503
1.2695761 0.53772587 0.049874187 10930431
1.2705829 0.54050481 0.049758852 11061759
1.2728083 0.54315591 0.0500893 10799103
1.2897494 0.56932688 0.046599507 15529215
1.2898445 0.57139516 0.046888351 12639999
1.2902877 0.57328415 0.047721922 13231871
1.2980196 0.58440876 0.047814548 15528959
1.2544904 0.51784527 0.048077822 12376575
1.2586603 0.52342308 0.048531592 12047615
1.2608688 0.52605081 0.048296154 11981567
1.2624123 0.52818477 0.048727334 11652607
1.2631601 0.53130245 0.049035728 11586815
1.264416 0.53431559 0.049159527 11521279
1.2659533 0.53656483 0.049494803 11455743
1.2684271 0.53906417 0.049809337 11324415
1.2716935 0.54345453 0.049633324 11192831
1.2731888 0.54717952 0.048745811 11390463
1.2742093 0.54925215 0.047728539 12836351
1.2758052 0.5521903 0.047435939 12310527
1.2767609 0.55401349 0.04747045 12770815
1.2779555 0.55598724 0.048540056 11455999
1.279671 0.56015491 0.047492146 11653375
1.2820132 0.56177282 0.047408164 11061759
1.2834601 0.56347078 0.046408296 12572415
1.2854404 0.56712115 0.046260297 12442623
1.2860979 0.57006776 0.046056151 14544382
1.2887224 0.57262099 0.046191216 15135998
1.2896466 0.57572973 0.044860303 15200255
1.2920847 0.57811105 0.044800818 15266047
1.2929287 0.58090115 0.045178771 15200511
1.294504 0.58263105 0.046034992 15331839
1.2969278 0.58473325 0.046058178 15331839
1.3064585 0.60348642 0.043075979 13297407
1.307234 0.60507071 0.04414767 13297407
1.3124869 0.61512846 0.044317544 13626111
1.3146825 0.61689258 0.043218911 13034495
1.2489996 0.51310968 0.047304034 12968191
1.2510493 0.51501489 0.048079908 12639743
1.2522801 0.51810324 0.047565222 12507903
1.2533573 0.5206219 0.047732353 12310783
1.2558303 0.52311504 0.047935247 12179199
1.2563998 0.52519286 0.048309624 12047615
1.257439 0.52806532 0.048121691 11916031
1.2591712 0.52981937 0.048527539 11718655
1.2604547 0.53423166 0.04767102 11587583
1.2625861 0.53564203 0.047846317 11587327
1.2638655 0.53944474 0.048031032 11587327
1.2653773 0.53935933 0.048248351 11455743
1.2688837 0.54699063 0.044936538 14805247
1.2701969 0.54728848 0.045626998 14151167
1.2719975 0.55048907 0.045601964 14347263
1.2733657 0.55336028 0.045639455 14478335
1.2757168 0.55630434 0.045448959 14675199
1.2769434 0.55859339 0.045582831 14414335
1.2780631 0.5609588 0.045571446 14740991
1.2803313 0.56411856 0.045041382 14873087
1.2818861 0.56585491 0.044811189 15135487
1.2827363 0.56826812 0.045017183 15069951
1.2842627 0.57130742 0.045277774 15398654
1.2860105 0.57331085 0.045056164 16120062
1.2872152 0.57610667 0.045574427 15923198
1.2897255 0.57898307 0.045218527 15331583
1.2906017 0.58181477 0.044653356 14609919
1.2927458 0.58420092 0.044618309 14478847
1.2940427 0.58716381 0.043662071 13560319
1.295171 0.59058285 0.04373467 13560319
1.2968439 0.59014261 0.043567121 13691647
1.298816 0.59356415 0.043431699 13691647
1.2996982 0.59616661 0.043998837 13757439
1.3008971 0.59949136 0.044187963 13626111
1.3032336 0.6013906 0.043842256 13626111
1.3045261 0.60283673 0.043932319 13691647
1.3055382 0.60598409 0.044155061 13626367
1.3083267 0.6088618 0.044200122 13626111
1.3120229 0.61438799 0.042883694 13363455
1.1858805 0.41565803 0.052052677 1320010
1.2377629 0.50061858 0.046551228 14545915
1.2418129 0.50567675 0.046892583 13888508
1.2441759 0.50811434 0.047009826 13691389
1.245394 0.51126689 0.046469271 13362686
1.2460665 0.51350963 0.046721876 13100030
1.2485261 0.51606107 0.046787322 12771070
1.2496543 0.51865911 0.046837747 12770815
1.2504387 0.52195895 0.046971619 12507903
1.2526333 0.52321547 0.047505796 12310783
1.2541778 0.52552152 0.047882676 12179455
1.258993 0.53439021 0.047225356 11784959
1.2644079 0.54312885 0.044599891 14870783
1.2661216 0.54640412 0.044287741 14543359
1.267853 0.54861581 0.044660926 14413311
1.2693653 0.55174893 0.0447613 14543615
1.2705034 0.55476296 0.045079947 14609151
1.2725217 0.55729389 0.045209587 14544895
1.2736602 0.55915642 0.044658303 14741503
1.2758675 0.56199038 0.044922888 14937855
1.2776444 0.56489873 0.044178784 15332607
1.2788115 0.56735611 0.044362128 14675967
1.2806396 0.56976753 0.043975472 14872831
1.2819722 0.57239377 0.043901622 16251646
1.2832111 0.57486045 0.044295609 15529471
1.2844293 0.5766232 0.043036401 13428479
1.2870641 0.57958859 0.042988241 13560063
1.2880826 0.58278668 0.043140888 13494271
1.2906834 0.58531493 0.043273687 13494271
1.2917278 0.58838981 0.043589771 13428735
1.2935897 0.59142441 0.043700278 13494527
1.2962101 0.59394491 0.043900609 13560319
1.2972867 0.59727883 0.043978274 13691647
1.1826156 0.41358107 0.050757825 2370894
1.1836703 0.41498303 0.052270472 1977167
1.183506 0.4170675 0.05150032 1714254
1.2307079 0.49325323 0.045664847 15661818
1.2317667 0.4961175 0.045544446 15465211
1.2357447 0.50191736 0.045808256 14611706
1.2381295 0.50370598 0.04606545 14348795
1.2393214 0.50730181 0.046306968 14020091
1.240978 0.51006567 0.0465011 13625340
1.2425017 0.51215291 0.04659909 13296892
1.2435274 0.51508355 0.046273768 13165309
1.2458056 0.51668113 0.046168983 12968190
1.2466104 0.51976073 0.046419322 12770814
1.2480923 0.52129483 0.046637535 12639231
1.2547344 0.53358686 0.043404698 15005951
1.2569631 0.53528285 0.043474019 15265535
1.2576951 0.53882051 0.043453515 15067903
1.2593558 0.54025322 0.043138444 14806783
1.2614613 0.54276586 0.043858111 14936575
1.2626846 0.54480934 0.043927014 14609663
1.2640276 0.5476445 0.043757617 14478847
1.2652217 0.55027443 0.044033468 14478335
1.2671609 0.55367959 0.043776035 14018815
1.2691306 0.55590868 0.043093979 14741246
1.2707489 0.55831397 0.042942226 15134718
1.2718388 0.5611124 0.042293727 15595006
1.2735262 0.56351089 0.042471886 14938110
1.2752564 0.56598359 0.042950213 15003647
1.2767935 0.56916559 0.042554975 15266558
1.2785895 0.57107174 0.042713106 15463678
1.2796718 0.5739584 0.042927206 15529470
1.2809775 0.57518065 0.043611705 16646142
1.2822225 0.57789242 0.042826474 13362943
1.2840616 0.58140022 0.042776883 13428735
1.2858589 0.58424795 0.043032527 13362943
1.2884007 0.5864687 0.043294668 13428735
1.1781269 0.41257462 0.049055159 1580860
1.1796079 0.41437161 0.050076365 2239302
1.1810694 0.41617671 0.051030099 2239565
1.1817812 0.42037919 0.050166905 2174541
1.1842561 0.42240417 0.04842478 1583953
1.2038677 0.45443857 0.046698153 15462382
1.2144866 0.47251111 0.045357645 15791347
1.2177136 0.4775728 0.045234621 15791604
1.2215846 0.48251629 0.045762837 15660789
1.22241 0.48483086 0.045831144 15660789
1.224875 0.48742673 0.045714915 15661046
1.2263689 0.49064451 0.045639038 15595510
1.2279947 0.49228567 0.046007097 15595768
1.2290463 0.49525908 0.045679152 15399160
1.2300792 0.49824661 0.045395434 15202296
1.2328671 0.50084704 0.045037627 14940153
1.2333617 0.50358403 0.045548022 14743033
1.2348754 0.50580955 0.045899749 14283001
1.23672 0.50887132 0.0456357 14151418
1.2386115 0.51164913 0.045670569 13822716
1.2407957 0.51397216 0.045974553 13494012
1.2430532 0.51902699 0.042724013 16252414
1.2447834 0.52150428 0.042955697 16055550
1.2466528 0.52427155 0.042588234 15990015
1.248024 0.5266732 0.04280442 15727103
1.2497227 0.52881551 0.042987585 15660799
1.251195 0.53216076 0.043031752 15398143
1.2528021 0.534325 0.042778432 15332607
1.2549543 0.53687412 0.04281199 15266559
1.2552987 0.53997409 0.042803407 15134975
1.2575009 0.54178709 0.04259783 15068927
1.2587397 0.5441345 0.042616427 15135230
1.2602739 0.54670119 0.042083323 14806782
1.2616493 0.54940331 0.041998208 15003902
1.2639828 0.5518868 0.04202348 14675710
1.2652643 0.55390531 0.041493535 15923198
1.2664528 0.55665529 0.041764796 15528958
1.2681484 0.55945653 0.041831553 15069438
1.2694601 0.56220472 0.04168576 13951732
1.2712939 0.56476539 0.041703105 13950956
1.2730918 0.56759453 0.041607141 14017006
1.2745854 0.5708915 0.041633308 15726590
1.2769182 0.57311112 0.042203128 15529470
1.2756474 0.57468164 0.041842759 16777215
1.27838 0.57645476 0.042441547 16777215
1.1755651 0.41347691 0.047905147 1186103
1.1769972 0.41488591 0.048802376 1778492
1.1787593 0.41777277 0.050332725 2436679
1.1796734 0.42047006 0.049864233 2305356
1.1819834 0.42266107 0.047263205 2700622
1.1953236 0.44651952 0.045920432 15198953
1.1976233 0.44877693 0.046294391 15330796
1.1992705 0.45113692 0.046660006 15330796
1.2004747 0.45330253 0.046785951 15396332
1.2020953 0.45572749 0.046327174 15396589
1.2034504 0.45734802 0.04604882 15462125
1.2044165 0.46013063 0.045575321 15462125
1.2065799 0.46360198 0.045278907 15527918
1.2086248 0.46612629 0.045572937 15528175
1.210032 0.46826938 0.045414865 15659760
1.2115281 0.47101283 0.045103729 15659760
1.2130508 0.47418687 0.045082271 15725554
1.2150199 0.47627333 0.04512465 15725554
1.2162093 0.47913894 0.045040488 15725810
1.2181981 0.48143402 0.04517585 15660275
1.2192472 0.48411179 0.045431435 15726068
1.2207925 0.48724562 0.045621097 15594996
1.222666 0.49015468 0.045380175 15529717
1.2232785 0.49208334 0.045650423 15595253
1.2251071 0.49507213 0.045308352 15464182
1.2268035 0.49788141 0.045193672 15333367
1.2284204 0.50060254 0.045412898 15005431
1.2301481 0.50208378 0.043639004 15858427
1.2315021 0.50505722 0.044100106 15333369
1.2349154 0.51040936 0.042227924 16580606
1.2368853 0.51266569 0.042178869 16580606
1.2380435 0.51446307 0.042534351 16515070
1.2392886 0.51732492 0.0424335 16318206
1.2414869 0.51982594 0.042624652 16317950
1.2422757 0.52239698 0.042529881 16121598
1.2439489 0.52403629 0.042531848 16055550
1.2454693 0.52713776 0.042249382 16055038
1.2472458 0.53031075 0.042336166 15726591
1.248719 0.53326702 0.041989326 15726847
1.2502334 0.5358246 0.042545199 15463423
1.2518561 0.53770804 0.042266846 15529727
1.2528765 0.54026914 0.041495264 15529726
1.255075 0.54315197 0.041398942 15266814
1.2567075 0.54579073 0.041346371 15003902
1.2585168 0.54838896 0.041025877 15463934
1.2597134 0.5511499 0.040902615 15135230
1.2613291 0.55349088 0.041114748 15266302
1.2621582 0.55516672 0.041156471 15199731
1.2642603 0.55780351 0.041344583 14148597
1.2655593 0.56057054 0.040920675 13556716
1.2673061 0.56349349 0.040763736 13030628
1.2691249 0.56618214 0.041113198 14477297
1.270714 0.56870675 0.04069978 11977683
1.2721264 0.57220244 0.041019857 16646142
1.2747183 0.57416451 0.041385412 16646142
1.1736301 0.41412887 0.04698807 1120313
1.1747398 0.41667223 0.0478971 1449531
1.1761643 0.41857547 0.049143553 1976133
1.1790164 0.42410079 0.047072053 1976650
1.181121 0.42562786 0.046972394 2109001
1.1823555 0.42891389 0.045886934 663080
1.1896632 0.44223583 0.045100749 14674408
1.1925194 0.44450328 0.045425177 15133674
1.1933975 0.44756466 0.04578799 15133417
1.1947517 0.44955769 0.046183407 15199209
1.1960862 0.45243105 0.046403944 15198953
1.1979309 0.45499954 0.046711862 15330539
1.1997173 0.45792603 0.046201944 15396332
1.2019501 0.45982027 0.045700431 15396332
1.2028453 0.46236578 0.045442045 15396588
1.204149 0.46537784 0.045378864 15462125
1.2057867 0.46788317 0.045467913 15462381
1.207525 0.46982357 0.045288622 15528174
1.2091959 0.47248432 0.045040429 15593711
1.2099245 0.47572303 0.044886947 15593711
1.2123712 0.47762635 0.044756651 15593968
1.213287 0.48033589 0.044511497 15528431
1.2151276 0.48243687 0.044135988 15856883
1.2165546 0.48474011 0.043595731 16185591
1.21805 0.48814121 0.042188466 16645629
1.2194635 0.49055305 0.042023063 16645629
1.2205677 0.49345222 0.04196763 16777215
1.2226541 0.49614641 0.041602492 16711422
1.2243969 0.49795628 0.041900575 16777215
1.2262408 0.50148058 0.04185158 16777215
1.2278192 0.50336921 0.042058527 16777215
1.2295347 0.50550079 0.041839004 16711679
1.2309434 0.50840831 0.041740537 16711679
1.2322369 0.51169109 0.041841745 16711678
1.234431 0.51376653 0.041724741 16646142
1.2353967 0.51616251 0.041774094 16580606
1.2365851 0.51896632 0.041633666 16514814
1.2385333 0.52076101 0.041722 16449278
1.2402256 0.52373409 0.041446626 16383486
1.2419493 0.52670324 0.041626155 16252414
1.2436454 0.5291689 0.041030228 16186365
1.2450719 0.5316453 0.040605247 16120573
1.2462832 0.53431273 0.040484846 15726845
1.2482347 0.53659999 0.040600598 15661309
1.2496324 0.53906828 0.040454626 15595006
1.2503511 0.54155964 0.040500522 15529470
1.2526584 0.54432112 0.040597796 15266814
1.2539985 0.54717046 0.040217757 14806005
1.2562277 0.54987979 0.040194809 14082544
1.2580048 0.55256647 0.040046394 13556201
1.2582554 0.55469859 0.040371597 14016750
1.2598358 0.55622983 0.039906204 11322078
1.2621704 0.55909598 0.040044904 12175838
1.2633207 0.56203771 0.039202929 9610685
1.264612 0.56456482 0.040062249 11912146
1.2665589 0.56702077 0.039845645 9610685
1.2683645 0.57009733 0.040088713 9545405
1.1621277 0.40181753 0.045555532 1186367
1.1649776 0.40616834 0.045384884 1581636
1.1680743 0.41117629 0.044997096 1976393
1.1699921 0.41301325 0.045568585 1844551
1.1713001 0.415647 0.046250343 1054777
1.1720031 0.41838035 0.046699643 1120054
1.1737036 0.41962996 0.047648489 1317695
1.1759659 0.42357624 0.044525921 1777721
1.1771026 0.42509034 0.045150936 2106942
1.1791327 0.4281041 0.045501292 1844543
1.1799365 0.43029854 0.044955671 1646906
1.1822836 0.43228289 0.04467237 67102
1.1848727 0.43832767 0.044220328 12371678
1.1864754 0.4403581 0.044992626 14805738
1.1875201 0.44362727 0.045294225 14674151
1.1898497 0.44552633 0.045209825 14936552
1.1913369 0.44835791 0.04596144 15067624
1.1934664 0.45337743 0.042780936 16119285
1.1970148 0.45843089 0.042514205 16316664
1.1984637 0.46074259 0.042339087 16711422
1.2008138 0.4642258 0.042175114 16711422
1.2010829 0.46571478 0.042382419 16777215
1.2035 0.46891293 0.042054355 16316664
1.2050381 0.47133225 0.042098105 16448250
1.2068427 0.47376955 0.042191327 16448250
1.2080915 0.47599494 0.042067766 16579836
1.2096765 0.47892877 0.042225957 16514043
1.2114325 0.48158053 0.042232454 16382713
1.2129812 0.48432466 0.041918397 16579836
1.2148486 0.48743999 0.041691065 16711422
1.215988 0.48980901 0.041879475 16645629
1.2176583 0.49195573 0.041399777 16711422
1.2191541 0.49464944 0.041419804 16645629
1.2209197 0.4969641 0.04129225 16711422
1.2224213 0.49918631 0.041370094 16711422
1.2236516 0.50212842 0.041665256 16711422
1.2248663 0.50436801 0.041300237 16777215
1.2266133 0.50700092 0.041704774 16777215
1.2286631 0.50989485 0.04137367 16711679
1.230554 0.51271194 0.040829718 16645885
1.2317871 0.51523191 0.040706933 16580349
1.2332746 0.51778221 0.040432096 16514557
1.2347722 0.52014619 0.040414751 16317949
1.2358812 0.52264583 0.039972365 16251899
1.2382497 0.52481693 0.039940298 16185849
1.2387273 0.527228 0.040111423 15989757
1.2410159 0.5302611 0.039758623 15923194
1.2421873 0.53318542 0.039497197 14937330
1.2441201 0.53607416 0.039854109 15923195
1.2452345 0.53818685 0.039761722 15068660
1.2474228 0.54078662 0.039749801 14805231
1.2492645 0.54297864 0.038092732 10267837
1.2502549 0.54564512 0.039154708 13358816
1.2518497 0.54811323 0.038881361 12240336
1.2534964 0.55129123 0.038873672 12174546
1.2563925 0.55617422 0.038770616 9742012
1.2592912 0.56025666 0.039017439 9610428
1.2609645 0.56293559 0.039104104 9544637
1.1576293 0.3990868 0.044962764 2041414
1.159891 0.40153515 0.045543015 1515591
1.1607715 0.40392867 0.045530379 1844036
1.1625435 0.40579072 0.04503566 1909824
1.1642468 0.40854406 0.045035899 1844551
1.1657027 0.41080198 0.04501307 2041929
1.1665758 0.41390869 0.045104623 2107466
1.1689546 0.41633222 0.045468807 1844290
1.1692345 0.41861558 0.046013236 1910082
1.171834 0.42047486 0.046697915 1383740
1.1739035 0.42518073 0.043214083 2501442
1.1752247 0.42691925 0.043917954 2961991
1.1765898 0.42912453 0.044216633 2830407
1.1779605 0.4321318 0.043673933 3290702
1.1794289 0.43429518 0.043441176 2501435
1.18097 0.43683738 0.04361701 2172981
1.1822454 0.43936011 0.044104993 11976397
1.1843778 0.44208759 0.044767797 14542823
1.1857089 0.44549668 0.041816056 16645629
1.1874831 0.44740698 0.042529762 16316664
1.1891353 0.44968316 0.04247123 15987699
1.1906438 0.45225188 0.042522967 15987699
1.1921682 0.45532939 0.042360425 16185078
1.1940389 0.45740297 0.042302907 16316664
1.1948118 0.45988089 0.042262614 16448250
1.1965892 0.46187297 0.042201519 16316664
1.1979394 0.46435642 0.04185915 16448250
1.1998463 0.46726573 0.042042732 16382457
1.2013614 0.47002783 0.041908383 16448250
1.2031214 0.47278377 0.041710317 16579836
1.2044125 0.47557548 0.042104065 16514043
