# .PCD v0.7 - Point Cloud Data file format
VERSION 0.7
FIELDS x y z rgba
SIZE 4 4 4 4
TYPE F F F U
COUNT 1 1 1 1
WIDTH 1176
HEIGHT 1
VIEWPOINT 0 0 0 1 0 0 0
POINTS 1176
DATA ascii
1.5867851 0.14305675 0.017986 2039319
1.5803514 0.13636118 0.016277552 11244604
1.5822133 0.13870573 0.017003834 10256960
1.5837271 0.14195037 0.016691864 8283175
1.5849138 0.14460409 0.016966522 3747873
1.5846918 0.14717883 0.016950071 527385
1.5796149 0.14049727 0.015684843 10454588
1.5812668 0.14297479 0.015289485 9137440
1.5829319 0.14578497 0.015427351 8676634
1.5846199 0.14830202 0.015122771 3484459
1.5851429 0.15045637 0.01510942 856104
1.7741323 0.1225515 0.10569948 3619925
1.7724636 0.12729925 0.10348064 4081251
1.776094 0.13229167 0.10434383 3292491
1.7638888 0.11913347 0.10316461 4080732
1.7566302 0.1116246 0.10172766 4936814
1.7572153 0.11431956 0.10179931 4607588
1.7587178 0.11645728 0.10187221 4410207
1.7607119 0.11939585 0.102211 3949400
1.7620296 0.12448376 0.1032207 3950173
1.7499261 0.10804075 0.10103416 5200243
1.7526014 0.11099863 0.10126972 4805484
1.7545609 0.11300451 0.10182422 4608102
1.7551129 0.11559999 0.10185677 4278622
1.7565951 0.11910623 0.10175014 4213089
1.7585692 0.1210674 0.10170233 3620179
1.761394 0.12565202 0.10257906 3818584
1.7468628 0.1052736 0.10004455 5266553
1.7468897 0.10668874 0.10047418 5200244
1.7483423 0.10968494 0.10068703 4871018
1.7503678 0.1122154 0.1012764 4674155
1.7519691 0.11497682 0.10162342 4212830
1.7530199 0.11777854 0.10134977 3883863
1.7560804 0.12167382 0.10158318 3357263
1.7423301 0.10407907 0.098666012 5397879
1.7440219 0.10559118 0.099018216 5266292
1.7447137 0.10839444 0.10003489 4937067
1.7465031 0.11125892 0.10048008 4673634
1.7479072 0.11360323 0.099086702 4475486
1.7497226 0.1162746 0.097537935 4474965
1.738237 0.10245085 0.097442448 5463674
1.7390933 0.10435504 0.097824156 5332086
1.7408371 0.10736418 0.098469913 4937068
1.7428557 0.1094135 0.099175513 4608358
1.7436626 0.11175877 0.09662199 4672607
1.7458872 0.11423802 0.097006619 4475226
1.745779 0.11698419 0.096767128 3817297
1.7479606 0.12027735 0.095629394 1912407
1.7493333 0.12170428 0.096212566 1911635
1.7523615 0.1245271 0.09581095 1845078
1.7339326 0.10175985 0.09701997 5793669
1.7358003 0.10329753 0.097235024 5463930
1.7370746 0.10652381 0.097257316 4871533
1.739013 0.10907906 0.096326172 4804708
1.7411512 0.11142147 0.095830739 4606813
1.7411299 0.11387348 0.09645772 4080472
1.7434149 0.11618292 0.095789731 2898009
1.7451371 0.11864972 0.095889211 2503252
1.7458969 0.12066084 0.096101642 2305105
1.7478765 0.12387049 0.095432758 1582157
1.7293625 0.10059327 0.095729768 5793668
1.7313662 0.10200143 0.095941961 5332343
1.7334993 0.10486829 0.096102417 5002603
1.7349464 0.10804534 0.095189273 4738658
1.7366073 0.10991985 0.094431818 4015972
1.7377344 0.1126895 0.095253706 3817562
1.7392157 0.11496639 0.094956458 2635098
1.7412287 0.11770165 0.094858289 1780567
1.7432607 0.12069792 0.095081747 1582679
1.7436893 0.12296498 0.095222771 1187398
1.7264941 0.098596096 0.094114125 5331831
1.7270842 0.10088491 0.095092595 5530240
1.7293372 0.10334617 0.095466912 4871530
1.7308208 0.10599822 0.093160272 4869989
1.7322457 0.10849673 0.094076097 4540511
1.733614 0.11095989 0.093818665 3226719
1.7355752 0.11352491 0.093548954 2109790
1.7372344 0.11661339 0.093873084 1648469
1.7386584 0.11812556 0.094451249 1582672
1.740515 0.12094986 0.09490931 1253191
1.7202359 0.095095932 0.092292905 5529469
1.7228982 0.096963227 0.093096077 5463418
1.7236289 0.099424303 0.093351126 5727104
1.7247723 0.10239118 0.092866182 5132907
1.72709 0.1043874 0.092481613 4476011
1.7282656 0.10719806 0.092654407 3621993
1.7303473 0.10933155 0.092824042 2964836
1.7306739 0.11204541 0.092874169 1912673
1.7329562 0.11460316 0.093201756 1714008
1.7355332 0.11797971 0.093564451 1252937
1.7166636 0.094008327 0.091685116 5397625
1.7188234 0.095396519 0.092275739 5397622
1.7204614 0.098421574 0.092728198 5463934
1.7222303 0.10050374 0.09130919 3624065
1.7243327 0.10250235 0.091228485 3360896
1.726227 0.10709769 0.093291104 2439788
1.7309473 0.11520898 0.092720807 1846630
1.7131116 0.092822671 0.090822875 5793412
1.7148305 0.094257653 0.09114331 5134196
1.7165575 0.096940041 0.090651572 4215942
1.7184306 0.0990749 0.091505766 4215430
1.7097526 0.091636479 0.089363456 5397624
1.7105377 0.092825294 0.089993179 4741506
1.7523682 0.1616863 0.086380541 1978462
1.7048461 0.090840578 0.088118196 4672104
1.7068776 0.091687381 0.088738203 4807037
1.703137 0.090963185 0.08710295 4873338
1.6985615 0.090601444 0.086879492 3160163
1.7007241 0.091666579 0.08551085 4674927
1.69708 0.091323078 0.084208429 3030116
1.6982253 0.092444479 0.084395826 4543856
1.6946433 0.092451692 0.083162963 3489372
1.6961546 0.093405247 0.083832324 4609640
1.6924847 0.091385245 0.081328094 4939624
1.692109 0.093456388 0.081868827 3291217
1.6886511 0.093138278 0.080017686 3820112
1.6900852 0.094565868 0.080258906 2698817
1.6870512 0.094112158 0.078905046 4147278
1.6873567 0.096174717 0.078949213 2172217
1.6852527 0.095196664 0.07745558 2171440
1.6850195 0.097699344 0.077576458 1513511
1.6835083 0.096277475 0.075841665 1644826
1.6833243 0.098805785 0.076184809 1316125
1.6829519 0.10069895 0.075558364 1315094
1.6814172 0.10044003 0.074733019 1249812
1.682651 0.10202676 0.073800623 987169
1.6799458 0.10199612 0.074546635 855580
1.6797889 0.10359579 0.072914779 1315608
1.6806694 0.1054818 0.071595371 1578271
1.6780326 0.10578305 0.071397007 1052437
1.6800606 0.10686445 0.070896924 1380894
1.6771785 0.10750926 0.07003206 921106
1.5961909 0.11856842 0.031557918 5330274
1.596477 0.12028897 0.031891346 3817816
1.5976458 0.1221295 0.031441033 2898258
1.5914991 0.11774093 0.030787528 4341811
1.5934427 0.11958712 0.031253815 6120056
1.5948623 0.12191671 0.031608045 4805501
1.5905964 0.12006247 0.029741168 4606807
1.5882871 0.11953175 0.029078424 2566191
1.5882072 0.12173557 0.02953279 2565150
1.5901709 0.12415552 0.028161049 3488583
1.5868988 0.12319881 0.02750361 2499620
1.5874368 0.12529051 0.027191997 2104608
1.5882752 0.12805426 0.027468503 2434085
1.5857522 0.12705767 0.02532506 1972764
1.5863751 0.12912279 0.026028156 2169885
1.5872582 0.13151944 0.025113583 2695440
1.6107974 0.17223179 0.023261845 1117970
1.6127031 0.17397785 0.022838175 920089
1.6155176 0.17674172 0.021232069 1314846
1.5849829 0.13116139 0.024814367 2104606
1.5861299 0.13335186 0.024371982 2695189
1.5864346 0.13611609 0.023075879 1906966
1.6021676 0.16215551 0.021774709 461581
1.6030147 0.16365904 0.022223175 461329
1.5850284 0.1352939 0.022795618 2630437
1.5853393 0.13796347 0.022758722 2301983
1.586704 0.14034712 0.021788895 1447437
1.5965748 0.15922779 0.021798134 198417
1.600852 0.16249323 0.021900356 395531
1.5840369 0.13833189 0.021068573 5194795
1.5844594 0.14071524 0.020992219 3485730
1.5856847 0.14363271 0.020650804 2170395
1.5864552 0.14634752 0.020983636 1710625
1.5827789 0.14241552 0.019263744 8022578
1.5845597 0.14545691 0.019479096 4142363
1.5854282 0.14775193 0.01909095 2301972
1.5862314 0.15123898 0.019522429 1776674
1.5879478 0.15344375 0.019627392 2105406
1.580637 0.14371783 0.017316043 10520385
1.5807183 0.1460827 0.018014252 9993794
1.5842724 0.14888412 0.017701566 4602654
1.5851121 0.15134692 0.017457008 3682081
1.5856744 0.15384549 0.017667949 2236191
1.5863861 0.15685469 0.017690063 1841179
1.5786781 0.14753908 0.016740263 10585153
1.5828106 0.15317971 0.015903115 8677155
1.5844344 0.15534329 0.015434384 5718556
1.5856403 0.15782034 0.015966833 3944220
1.5868281 0.16081053 0.015832841 3681300
1.5878363 0.16339719 0.015453815 2170405
1.588448 0.16663069 0.01598829 1183005
1.7540618 0.11705703 0.10281485 5069943
1.7577422 0.12223446 0.1023761 4015710
1.7595659 0.12419766 0.10279202 4015963
1.7503023 0.11595351 0.10200036 4674413
1.7522874 0.11767101 0.10256308 4806258
1.7539008 0.12045068 0.10209227 4147301
1.7554131 0.12340271 0.10216522 3949663
1.7576194 0.12442517 0.10249561 3949656
1.7437937 0.11065501 0.10008556 4411235
1.7446523 0.11216313 0.10121691 5070453
1.7471199 0.11428404 0.10150748 4872303
1.7480075 0.11675262 0.10145706 3884378
1.7497764 0.11937046 0.10207945 3949919
1.7510794 0.12175608 0.10192078 3488596
1.7532727 0.12782598 0.10149056 2963271
1.7541219 0.130005 0.1014989 2700608
1.7377844 0.10572118 0.099550545 6188685
1.7400632 0.10803413 0.099331796 5729160
1.7411273 0.11049718 0.10039788 5071226
1.7429239 0.11290354 0.10024643 4214113
1.7445812 0.1156159 0.10092711 4147810
1.7458522 0.11831355 0.10082918 3423057
1.7477374 0.12043649 0.10193771 3489619
1.7530487 0.13096333 0.10073775 2240063
1.7543442 0.13343197 0.098352969 1910830
1.734704 0.10478431 0.098953307 5992075
1.7359257 0.10643095 0.099062741 5860231
1.7374038 0.10957634 0.099087954 4873332
1.7388748 0.112023 0.099580228 4412524
1.740303 0.11497307 0.099605978 3489110
1.742171 0.11772656 0.099978387 3094095
1.7431897 0.11896551 0.098715663 3159370
1.7311718 0.10336423 0.097769976 5861002
1.7319216 0.10556614 0.098124981 5399676
1.7332089 0.10803789 0.098169982 5136504
1.7349854 0.11058211 0.098192394 4543338
1.7363732 0.11341888 0.098343492 3554647
1.7379854 0.11652315 0.096089482 3290191
1.7402846 0.1176275 0.096773028 3290702
1.7409008 0.12024379 0.096826375 2763576
1.7271025 0.10247481 0.096076429 5663112
1.7283032 0.10449779 0.096717775 5202299
1.7293885 0.10709232 0.09712857 4872819
1.7312346 0.10940719 0.097381771 4609134
1.7324752 0.11170626 0.097201467 3554393
1.7346754 0.11449271 0.095609963 3290190
1.7360888 0.11796689 0.096069276 2631482
1.7377013 0.11972874 0.09521389 1581112
1.7224703 0.10049605 0.094810367 5332601
1.7241461 0.10303354 0.095848918 5135480
1.7261304 0.10578525 0.096633494 4741236
1.727128 0.10803258 0.096547484 3752799
1.7288976 0.11053371 0.095214427 3685975
1.7302233 0.11259151 0.095811069 3224913
1.7318482 0.11582172 0.094494343 1845063
1.7340364 0.11828685 0.094603837 1187121
1.7152846 0.095301688 0.09442389 5265774
1.7167618 0.096744597 0.094706833 5726840
1.7193828 0.099515676 0.094856024 5595770
1.7210671 0.10179389 0.094225705 5069948
1.7218144 0.10397637 0.094727278 4280441
1.7243905 0.10639763 0.093298554 2900086
1.7257841 0.10968405 0.09416759 3950450
1.7265263 0.11177325 0.094196677 3095678
1.7105174 0.093379498 0.094176948 5463669
1.7138376 0.095316887 0.093690395 5662600
1.7142481 0.098192215 0.094026625 4544394
1.7170178 0.10091811 0.094281733 4412553
1.7184796 0.10240233 0.094771564 3952007
1.7551544 0.164868 0.087573469 3030632
1.7058175 0.090684891 0.093449473 5264486
1.7072892 0.092663944 0.09251231 4675452
1.7102177 0.09352839 0.092492461 5201792
1.7444956 0.15401721 0.089772046 2765881
1.7474151 0.15630078 0.089042425 3554614
1.7482746 0.15757412 0.089682758 4803666
1.7501196 0.1617986 0.086973488 2438492
1.7514193 0.16247874 0.088046193 2504282
1.75402 0.16566432 0.087403893 3820124
1.7042716 0.091166079 0.090872645 4148078
1.7062911 0.092044234 0.091203451 5201531
1.7460411 0.15979254 0.086442411 2502752
1.7480059 0.16232705 0.088057756 3096410
1.69862 0.089737833 0.090688884 2965871
1.7017626 0.091545045 0.090134978 4478063
1.7388048 0.15261662 0.086890638 2567234
1.7400842 0.15789789 0.086322367 1910612
1.7432083 0.15918434 0.08667618 1976666
1.7442858 0.16055632 0.087264717 2239322
1.6985543 0.089766443 0.089179933 3029862
1.6992646 0.092429996 0.087871253 4478580
1.7385581 0.15655875 0.085645914 2239839
1.6943165 0.0904302 0.087921202 3027281
1.6961116 0.091624916 0.086946249 2765144
1.6969216 0.093109131 0.086687028 4674167
1.6930704 0.091112852 0.085683346 2567504
1.6939869 0.093385577 0.086313069 3488857
1.6897465 0.09162122 0.085560918 2304586
1.6912045 0.093957186 0.084313929 3093068
1.6873443 0.092707574 0.083891869 2106947
1.6889035 0.095497966 0.0827775 2699585
1.6853781 0.095412493 0.081384242 1843258
1.6863911 0.096599579 0.081154764 2369591
1.6825607 0.096899509 0.080562294 1119283
1.6841917 0.098281324 0.08049351 1776938
1.6816334 0.098037124 0.080372512 593211
1.6817708 0.099531949 0.078936696 1118490
1.6784364 0.099126399 0.078836262 987168
1.6800822 0.10093784 0.077186584 1250070
1.6773105 0.10279185 0.075776875 724511
1.6789887 0.10321718 0.075449824 1184282
1.6755624 0.10476649 0.075368047 1052696
1.6754556 0.10687846 0.073349357 986648
1.5912373 0.12219876 0.03412801 4016209
1.5938766 0.12273878 0.033720195 5200508
1.5899374 0.12201262 0.032162249 4673097
1.5898125 0.12341613 0.033474624 5593428
1.5875924 0.12349439 0.031486332 2830380
1.5883842 0.12505293 0.03064841 2630167
1.5862768 0.12432963 0.029793143 2235937
1.5862632 0.12640643 0.029768765 2695458
1.587688 0.12887931 0.02971822 3025702
1.5895834 0.13226819 0.029280186 2172202
1.5911174 0.13389182 0.029567778 2700102
1.5926167 0.13660568 0.029116392 3423039
1.6030402 0.15530771 0.027832329 2434089
1.6061721 0.16059154 0.028504193 1380889
1.5850788 0.12779886 0.0279544 2695720
1.5864025 0.13048035 0.027797341 2433057
1.5868546 0.13308519 0.027869165 1775892
1.5883795 0.13551956 0.028640449 2172459
1.5896509 0.13860339 0.028805077 2106413
1.6023195 0.16005963 0.027487278 790045
1.6069701 0.16630512 0.026348054 1183252
1.6072176 0.16893649 0.025843501 1184275
1.5842432 0.13251436 0.026477575 1907239
1.5851207 0.13448119 0.026489913 1579033
1.5867348 0.13688809 0.02653724 2170135
1.5867866 0.13901383 0.026474953 1447453
1.5999018 0.15948635 0.026641071 790294
1.6025537 0.16324848 0.025384545 658967
1.6033435 0.16445655 0.026185691 790295
1.6091148 0.17291158 0.025387049 920597
1.6116091 0.17541832 0.02406621 788760
1.5835412 0.13665515 0.025240302 1776167
1.5847626 0.13822848 0.025209427 1381656
1.5859505 0.14093739 0.025130391 2235934
1.5864704 0.1437735 0.024648368 1447462
1.5871727 0.14559585 0.025528431 593435
1.5898426 0.15048301 0.024657845 461331
1.591913 0.15025294 0.026177764 593172
1.5930705 0.15325129 0.025377452 527122
1.5959176 0.15726131 0.023389101 329743
1.5976481 0.15924901 0.023267031 461071
1.5978189 0.16094482 0.022008002 329741
1.6003778 0.16387278 0.023015082 395539
1.6017666 0.1662513 0.023019671 395796
1.6020243 0.1685493 0.023417771 330257
1.6029818 0.17126125 0.02364254 199193
1.6045604 0.17334896 0.023650408 197672
1.5828812 0.13992667 0.024259388 2433831
1.5835687 0.14237612 0.023716629 1907739
1.5855592 0.14411521 0.023218095 1710620
1.5866826 0.14697981 0.023306191 1184545
1.5879476 0.14972419 0.022653282 1316132
1.5892367 0.1518923 0.023121893 856355
1.5911235 0.15488142 0.022559166 724513
1.5922837 0.15709531 0.022484899 527646
1.5947174 0.16000026 0.02172488 264475
1.596616 0.16217887 0.02193445 198936
1.5979027 0.16541898 0.021663368 396317
1.5991076 0.16793382 0.022674739 462364
1.6007316 0.1700505 0.023636281 330528
1.5825539 0.14355636 0.022853255 1054762
1.5821283 0.14585072 0.022282541 3552299
1.5851957 0.14838099 0.022613347 1710861
1.5859765 0.15069801 0.021424472 2039593
1.5874156 0.15361845 0.021312654 1776679
1.5890532 0.15606898 0.020885885 1448239
1.590297 0.15904027 0.021168768 1514286
1.5919243 0.16151667 0.021319211 1119536
1.5929801 0.16304344 0.021660447 988212
1.5946846 0.16591549 0.021699011 1119540
1.5813291 0.14758062 0.020222843 8219452
1.5809745 0.15016389 0.0203076 7495723
1.5845306 0.15211451 0.019502044 5456683
1.5857812 0.15475655 0.019571483 2761751
1.5869266 0.15750974 0.019560993 1842212
1.588097 0.16045499 0.020240426 1710109
1.5895543 0.16263241 0.021126449 1776936
1.5792451 0.14868897 0.018229246 11177028
1.5797069 0.15105456 0.018891037 10125626
1.5810435 0.15383357 0.019680202 8350520
1.5812204 0.15655917 0.019058943 9139767
1.5854965 0.15844077 0.018332303 1776149
1.5860908 0.16152996 0.018430889 2564884
1.5877419 0.16412473 0.018295944 3023887
1.5876708 0.16599512 0.019029975 2038293
1.5772909 0.1522696 0.017505407 11440204
1.5791676 0.15520489 0.018163264 10585663
1.580559 0.15850645 0.018120944 9731380
1.5813482 0.16086221 0.017858684 9271080
1.5846739 0.16286254 0.016514659 5982733
1.5856113 0.16566235 0.016533077 4535814
1.5860815 0.16772038 0.01717478 2497808
1.5762435 0.15636712 0.016210318 11111755
1.577848 0.15916258 0.016004205 10651717
1.5800136 0.16187572 0.016346276 9994280
1.5813203 0.16417927 0.015235841 8744472
1.5832844 0.16692722 0.015509069 5719811
1.584895 0.16840339 0.015413821 2497806
1.7458863 0.11682606 0.10309035 4542572
1.7414056 0.1129275 0.10208392 4939640
1.7433615 0.11682206 0.10152692 4279915
1.7448587 0.11913586 0.10188144 3687005
1.7466211 0.12203389 0.10163444 2699334
1.747329 0.12373871 0.10207295 2501687
1.7502608 0.12644756 0.10172313 3029834
1.7512839 0.1293599 0.10106283 2502712
1.7384702 0.11380625 0.10066921 4413810
1.7404003 0.11459416 0.10112649 4543344
1.7411985 0.11828035 0.10067183 3489884
1.7422185 0.12039566 0.10101843 3029070
1.7435594 0.1225549 0.10144967 2370878
1.7455177 0.12493801 0.10111004 2240060
1.7476627 0.12738699 0.10082883 2633535
1.7345191 0.1121611 0.099624634 4675445
1.7358564 0.11396754 0.099336267 4149870
1.7371724 0.11682779 0.10004836 3357525
1.7392142 0.11941099 0.10007221 2765131
1.7406652 0.12146533 0.10018748 1975086
1.7291059 0.10903186 0.098090172 5135478
1.7310257 0.11055958 0.098081529 4741751
1.7321 0.11289036 0.098505318 4279917
1.7334915 0.11527091 0.098954022 3292249
1.7341642 0.11786079 0.099247217 1974832
1.7357727 0.11936611 0.099622786 2039842
1.7243602 0.10646415 0.097057462 4741753
1.7264398 0.10929883 0.097414732 4411502
1.7273458 0.11216569 0.09800595 3686760
1.7296393 0.11415893 0.097819746 2897235
1.7307509 0.11615598 0.098761618 2173249
1.7340667 0.12168425 0.097537577 2105924
1.7135012 0.096483111 0.09804517 6185848
1.7155641 0.098170817 0.097593606 5660275
1.7173537 0.10030323 0.097224295 5595772
1.7189622 0.102382 0.097389221 5528695
1.721123 0.10501307 0.097217381 5003895
1.7230934 0.10702807 0.096886694 4937075
1.7238655 0.1101619 0.097449362 4937331
1.7257644 0.11126482 0.096581817 4738158
1.7270894 0.1146034 0.098292112 3423076
1.7111757 0.093943775 0.096108139 5594479
1.712582 0.096051157 0.096364677 5858687
1.7143875 0.099458456 0.09606117 5268104
1.7152042 0.10137093 0.097159386 5333127
1.7163987 0.1031881 0.096580327 4806799
1.7190266 0.10544157 0.096302569 4412047
1.7238652 0.11679065 0.096225441 2241100
1.7059221 0.091183901 0.095033705 5725543
1.7070565 0.092242241 0.095519483 5331050
1.7086657 0.095078588 0.095166504 4938884
1.7114493 0.098177254 0.09572804 4676236
1.7457078 0.15744162 0.090784252 7304312
1.7468429 0.15861481 0.091573536 5133153
1.703383 0.091516912 0.093831599 4739433
1.7048657 0.093261838 0.094225824 4544641
1.7412283 0.15344572 0.089469433 2897489
1.7413952 0.15578389 0.090269327 5200736
1.7439613 0.15713376 0.090422332 6121320
1.7461865 0.16274613 0.088339508 3161433
1.7480881 0.16626209 0.08808738 2043992
1.6995018 0.090414584 0.092685521 4016485
1.7008076 0.092076182 0.093253911 4348022
1.7355386 0.1511721 0.088338077 2830406
1.7379968 0.15370804 0.089106143 3357269
1.7392898 0.15581 0.090384424 5400429
1.7410812 0.15960538 0.087788761 1779276
1.7435782 0.16245282 0.088285625 2503760
1.7451296 0.16399419 0.088681996 2372440
1.6950588 0.089716971 0.091388643 3358300
1.69699 0.091253042 0.091636896 3425382
1.6984084 0.092749178 0.091226816 4478838
1.7327927 0.1501627 0.088623166 3553607
1.7341535 0.15424323 0.086433113 2568291
1.7359234 0.15621513 0.086445928 2304086
1.7370676 0.15795004 0.087909758 1515332
1.6923325 0.089961588 0.090802133 3226198
1.6947385 0.092519164 0.089535058 3422554
1.7268745 0.14803785 0.087007582 3159380
1.7284117 0.14946598 0.087320685 3488069
1.7313488 0.14959735 0.086037397 3818322
1.7324308 0.1549421 0.086497247 2041432
1.7329704 0.15595812 0.087422788 1514825
1.6902305 0.090501547 0.088757038 2371925
1.6914314 0.092794478 0.088357925 2894658
1.7239847 0.14730746 0.086576581 1777995
1.7285507 0.15320086 0.086532414 2435420
1.6868074 0.091577888 0.08764565 2370893
1.6889135 0.092240751 0.087802529 2304583
1.6852363 0.092288673 0.086506188 2041673
1.6864051 0.094173968 0.085819006 2434357
1.6833205 0.093646228 0.084184051 1318215
1.68407 0.095025361 0.084819376 2039597
1.6852455 0.096474707 0.084103882 2106421
1.6806245 0.09489572 0.084225297 857155
1.6811619 0.096806884 0.082940578 1250858
1.6815872 0.09896487 0.083681166 1513774
1.6769676 0.09724158 0.082377136 1184536
1.6790942 0.097469926 0.081340849 922150
1.6811827 0.099685013 0.081808269 1316127
1.6775441 0.098891735 0.080550313 527395
1.6782343 0.1017769 0.078983366 1118235
1.6764988 0.1021595 0.078199029 1117722
1.6490289 0.14688808 0.054599643 1053477
1.6465521 0.14699548 0.052775919 856605
1.6432102 0.14693052 0.051035404 461336
1.6442533 0.14753371 0.05213654 856354
1.6411443 0.14781785 0.049976408 658198
1.6388152 0.14913285 0.049088657 855321
1.6359848 0.14997464 0.047466099 920852
1.634474 0.1499638 0.046298623 920849
1.5906519 0.12211049 0.036511123 4871263
1.5900123 0.12431782 0.035084605 5265499
1.5912186 0.12674993 0.034296274 5001294
1.587719 0.1258021 0.033906162 4343108
1.589457 0.1285091 0.03340292 4078647
1.5904996 0.13173348 0.033916056 3750455
1.5922828 0.13463479 0.033280671 4144951
1.5931761 0.13700205 0.032964766 3156245
1.5851595 0.12656099 0.032590389 2434602
1.5875121 0.1300332 0.032068551 2762010
1.5885272 0.13296533 0.031855166 2105112
1.5901306 0.1345709 0.032283485 3617830
1.5909441 0.13810873 0.031527877 2105895
1.5929356 0.1396817 0.031829655 2830657
1.5938413 0.14197719 0.032798648 2437448
1.596138 0.1448825 0.030248046 4277062
1.6014094 0.15607291 0.029952466 2104092
1.6035179 0.158122 0.029801786 1775644
1.6049598 0.16010547 0.029614866 1511446
1.6055968 0.16288561 0.029681444 1184017
1.5841974 0.12840974 0.031197131 1645075
1.5844566 0.13133097 0.030560136 2236706
1.5872197 0.13446885 0.029990852 1973265
1.5880975 0.13670892 0.030331671 2695965
1.5890598 0.13971609 0.030642331 1841692
1.590323 0.14061576 0.03109324 1974571
1.5963316 0.15364277 0.029810429 987939
1.5993253 0.15487558 0.029899478 1907227
1.5995235 0.15695024 0.029381037 1250072
1.6015798 0.15952927 0.029922724 1512210
1.6031075 0.16173905 0.029628634 1446930
1.6042303 0.16453898 0.029735267 1446930
1.5837622 0.13424331 0.028969169 1973275
1.5852871 0.13744044 0.027714729 1907227
1.5869077 0.140405 0.029043257 1644571
1.5877359 0.1426276 0.029957175 2301728
1.5935982 0.15416306 0.028369129 658966
1.5971948 0.15626997 0.027644217 790553
1.5972613 0.15827703 0.027600765 790033
1.5987433 0.1602506 0.027660429 920854
1.6016814 0.16349047 0.029408813 1446169
1.6034505 0.16579705 0.027163804 724761
1.6035302 0.16785401 0.027109981 526877
1.5832119 0.13696754 0.028114617 1842210
1.583406 0.13950074 0.027712703 1447707
1.5850792 0.14168751 0.027729392 1118745
1.586019 0.14376831 0.027585804 1907483
1.5874318 0.14676213 0.02724129 987162
1.5887284 0.14945847 0.027566612 724253
1.5909307 0.15182018 0.026733696 461591
1.591361 0.15371639 0.0275594 527132
1.5947583 0.15752065 0.025757432 461342
1.5965154 0.15939111 0.025910318 461335
1.5972655 0.16209245 0.025144219 461602
1.5992553 0.16516471 0.024900973 592676
1.6003854 0.16736364 0.025645137 856365
1.6021328 0.1692372 0.026245832 593199
1.602388 0.17373371 0.025661111 790562
1.582539 0.14013928 0.026310623 1382171
1.582221 0.14329112 0.026154935 1513769
1.5846553 0.1456961 0.02612412 2235926
1.5857158 0.14834553 0.025755644 2498843
1.5866302 0.15094525 0.025720298 2761502
1.5878148 0.15322703 0.025791466 2170912
1.5907764 0.15497309 0.024986565 724779
1.592357 0.15773594 0.024554312 856358
1.5936381 0.16029596 0.024210036 1053228
1.5954587 0.16332942 0.024208963 988203
1.5971746 0.16563594 0.024375558 1251372
1.59781 0.16880149 0.02401346 1712440
1.5993955 0.17115664 0.02436614 1580608
1.6009309 0.17343706 0.024994075 1646149
1.5821788 0.14679062 0.024156511 1711395
1.5824754 0.14816886 0.02475059 725028
1.585636 0.15149969 0.024394631 2103828
1.5861456 0.15446776 0.024347365 1644311
1.5873253 0.1571489 0.024355471 2235416
1.589124 0.15912497 0.023552775 2104353
1.5911947 0.16208953 0.022845924 2303534
1.5922325 0.16478223 0.023563743 2040625
1.5941235 0.16760296 0.023609042 1778485
1.5958475 0.16949594 0.022867262 1383739
1.5971204 0.17258751 0.023501635 1383475
1.5985428 0.17424566 0.024542153 1580600
1.5812094 0.14858276 0.022721767 3025693
1.5816052 0.15064138 0.023292482 1842981
1.5815823 0.15352166 0.022895753 3683369
1.5859841 0.15663213 0.022647142 1643797
1.5878425 0.16152728 0.021994889 1840404
1.5886774 0.16347694 0.022430301 1775640
1.5900576 0.16577923 0.022052824 1382175
1.5918945 0.16881883 0.022193611 1448740
1.5932961 0.17146128 0.022629201 1054246
1.5944508 0.17312092 0.022932529 1317155
1.5823592 0.15688044 0.020988584 4470823
1.583109 0.15979528 0.021352947 4010782
1.5840237 0.16249472 0.02142185 3616282
1.5866222 0.16501141 0.02009964 1052691
1.5877007 0.16698146 0.020767272 1315345
1.5891324 0.1697619 0.021454871 527382
1.5914898 0.17198908 0.021919489 461590
1.5822738 0.1600346 0.01930815 7495716
1.5828233 0.16342926 0.019453526 7298325
1.5837331 0.16609132 0.019173682 5851923
1.5855037 0.16828936 0.019278526 1644050
1.5805328 0.16535443 0.017103136 9205273
1.5820532 0.16776496 0.017920315 4142357
1.5832068 0.16895199 0.018229306 3286801
1.5765967 0.16410005 0.01654464 11046970
1.5780551 0.1663788 0.016572773 8614434
1.5791194 0.16843975 0.016625226 4734485
1.5761008 0.16699636 0.015397906 6969618
1.7435141 0.12546921 0.10205144 1055266
1.7371986 0.11940467 0.10202867 3094862
1.7391686 0.12182677 0.10181373 2700615
1.7322561 0.11740714 0.099711895 3029598
1.7346063 0.11867273 0.10067743 2897743
1.7353187 0.12098944 0.10061198 2369847
1.728344 0.11574614 0.098802269 3094885
1.7296894 0.11728221 0.099961936 2635096
1.7316043 0.11959463 0.09930557 2238267
1.716663 0.10167432 0.099438488 5528950
1.7180321 0.10504472 0.09917599 5858173
1.720663 0.10666895 0.098193645 5791871
1.7206476 0.1081841 0.098894417 5463929
1.7220404 0.11043197 0.098715782 5134449
1.7245389 0.11345911 0.098306894 4213614
1.7260796 0.1159324 0.098504424 3159381
1.7275951 0.11731458 0.099796712 2501191
1.7090079 0.094836116 0.098921716 5923189
1.7110745 0.097248495 0.099260569 5792891
1.713441 0.099660933 0.098990917 6121599
1.7143486 0.10323232 0.099034429 5596301
1.7165124 0.10506737 0.098805487 5333388
1.7174363 0.10701662 0.099654496 5859457
1.7220925 0.11298275 0.097813904 5070211
1.7226716 0.1144805 0.098376811 4476544
1.703959 0.091922402 0.097247362 6054513
1.7056496 0.093465984 0.097872198 5726323
1.7076368 0.096647263 0.096064627 4413063
1.7091247 0.097568333 0.097197235 4808070
1.7101259 0.10007805 0.098410666 5004946
1.712126 0.1019181 0.098563373 5399193
1.7461181 0.15955383 0.093061507 6386305
1.7018157 0.092080832 0.09618479 5200493
1.7040622 0.094521642 0.096306622 4413315
1.7055558 0.09743309 0.097873449 4215941
1.741032 0.15640676 0.0916152 4275789
1.7421061 0.1588611 0.092310846 4408916
1.7435652 0.16029435 0.092838407 4146778
1.6983607 0.091583014 0.095426738 4542051
1.6997569 0.093200028 0.095506728 4347257
1.701703 0.095258713 0.096812427 4150146
1.7354074 0.15273803 0.090671837 4606280
1.7369277 0.15482813 0.091115057 4474187
1.7383723 0.1577152 0.091624856 3816012
1.7398005 0.15954661 0.091451943 4212842
1.7419362 0.16279757 0.091100752 2698308
1.6943169 0.090021908 0.093863189 4606553
1.6958759 0.09190917 0.093977988 3885414
1.7304322 0.14949447 0.088737249 3553598
1.7314483 0.1518147 0.090062439 3816775
1.73329 0.15313292 0.090456963 3948872
1.7346892 0.15575868 0.091123521 4344399
1.7356403 0.15919191 0.089285553 1384252
1.7385011 0.16078395 0.089788795 1976387
1.7386961 0.16288167 0.09094131 1252411
1.6921424 0.090976059 0.093116105 3491169
1.6947525 0.093010128 0.092419446 4016233
1.7256404 0.14868498 0.089220822 3092290
1.7277718 0.14973396 0.089227796 3092798
1.7292005 0.15202284 0.090108216 3553857
1.730427 0.15491962 0.088633478 2501701
1.7325959 0.15744752 0.088941276 1185851
1.6885322 0.090168118 0.091412783 3750216
1.6893973 0.091760099 0.091557801 2964315
1.7218728 0.14735842 0.087530315 1513010
1.7241495 0.14888465 0.088183343 2434364
1.7258483 0.15089619 0.087813795 2698820
1.7265011 0.15424025 0.087670207 1251135
1.7282909 0.15571225 0.088680744 922420
1.6858113 0.091606677 0.090171754 2766674
1.6875285 0.093929231 0.089242995 2895172
1.7182488 0.14618373 0.087890685 1908009
1.720345 0.14726341 0.086740792 855598
1.7213466 0.14922971 0.088013828 1316392
1.7223864 0.15227556 0.086808622 1645641
1.7248331 0.15373898 0.087157786 1448260
1.6835977 0.093048275 0.088454902 2372174
1.685259 0.094975412 0.08824712 2435905
1.7157829 0.14686984 0.086057484 658454
1.7175224 0.14761376 0.086787462 658206
1.7193716 0.15071446 0.085909128 2831448
1.6817997 0.094278395 0.087027371 1846351
1.6831234 0.095446825 0.087490737 1645104
1.6793749 0.095581353 0.086929262 2503243
1.6807439 0.096551359 0.085372746 1449272
1.6771575 0.096609175 0.085008204 1846871
1.6784172 0.098488212 0.083865464 1052701
1.6714499 0.09621644 0.083639383 1381149
1.6732234 0.098054707 0.083413184 790825
1.675828 0.09995985 0.082953036 1052188
1.6726242 0.097877562 0.08219564 726842
1.6733325 0.10172379 0.081217706 1052451
1.6704208 0.10048407 0.081845164 854800
1.6475707 0.14629424 0.057300746 1053986
1.6447998 0.14695299 0.055837095 1711145
1.6459951 0.14697582 0.054639935 1316898
1.6401613 0.1463905 0.054156005 2234133
1.6430488 0.14776385 0.053551257 1448228
1.6462654 0.15208149 0.054603994 855309
1.6381569 0.14681929 0.052714229 2430988
1.6407311 0.14897513 0.052218258 1579557
1.6372027 0.14774263 0.052581131 2497041
1.6376114 0.1496309 0.050682724 1710114
1.6353678 0.15051067 0.049845099 1841442
1.6325147 0.15155631 0.047648013 1250075
1.629127 0.15194046 0.047245443 1184280
1.6262127 0.15167588 0.04586345 1118742
1.5885888 0.12567478 0.035972536 4081486
1.5867614 0.12717909 0.036037982 4148318
1.5875877 0.13081676 0.035384238 5529425
1.5939846 0.14056557 0.035148144 3355180
1.5969456 0.14605188 0.034522355 2960694
1.5982147 0.14763951 0.034784079 2566192
1.5846826 0.12839186 0.034670174 2764847
1.5859724 0.13106298 0.034845352 4014406
1.5875231 0.13380808 0.033802092 2303282
1.5895388 0.13601226 0.033928752 3816759
1.591117 0.1378352 0.033816814 2763560
1.5914896 0.14101678 0.034240782 3026734
1.593277 0.14337468 0.034114599 2632252
1.594677 0.14584219 0.034416616 2500141
1.5964932 0.14900571 0.03425914 2368290
1.5970379 0.15104914 0.034784853 1908258
1.5996109 0.15385574 0.033402145 1908773
1.5999836 0.15617251 0.032824278 1644845
1.6052474 0.16500819 0.032254934 1315347
1.5855842 0.13224053 0.032947242 3421757
1.5849619 0.13455975 0.033281386 1645594
1.58701 0.13704395 0.033725321 3619897
1.5899718 0.14032495 0.032470524 2762014
1.5898945 0.14248067 0.032614529 2105123
1.5911369 0.14534152 0.033423722 1842215
1.5924288 0.14809597 0.033593059 2104600
1.5941968 0.15005541 0.033382654 2038811
1.5966976 0.15293515 0.033474565 1841944
1.5981257 0.15580136 0.031246185 1513489
1.5982654 0.15724277 0.031300366 1382158
1.6002768 0.15950328 0.030758083 1316112
1.6017959 0.16363358 0.030355692 1184015
1.6028371 0.16558921 0.031195998 1117973
1.5834334 0.13521844 0.031500995 1514260
1.5838718 0.13783926 0.031458199 2039581
1.5877194 0.14356369 0.030822575 1775645
1.5890832 0.14611131 0.030945241 1315867
1.5902085 0.14880961 0.031187713 1250328
1.5922067 0.15120953 0.031190634 1184536
1.5941715 0.15478563 0.030906022 1381393
1.5946994 0.156537 0.030290842 1118480
1.59622 0.1588707 0.030554473 1052945
1.5987792 0.16160882 0.029587626 1118228
1.6000741 0.16423094 0.030037165 1052691
1.6014283 0.16667694 0.030170858 1052697
1.603301 0.16819644 0.030526876 1052689
1.5826457 0.14015031 0.030541837 2105371
1.5821264 0.14273536 0.030291915 2499616
1.5863056 0.14432257 0.029244006 1841947
1.5871515 0.14737636 0.029312551 2630176
1.588174 0.14975154 0.029592633 2039073
1.5899512 0.15280128 0.029288709 1907226
1.5911806 0.15522105 0.02934444 1841690
1.5932519 0.15762937 0.029271305 1578521
1.5944364 0.16051477 0.028820336 1710360
1.5958242 0.1626398 0.028659701 1973792
1.5979245 0.16531956 0.028687179 2105636
1.5990024 0.16837525 0.029018998 2895149
1.6006675 0.1705547 0.0285061 1909051
1.6011591 0.17343801 0.027836502 658988
1.5821655 0.1439274 0.029061615 2236706
1.5821178 0.14645207 0.027691662 1382173
1.5873035 0.15138316 0.027650774 3354147
1.5882643 0.15363091 0.027486563 2893596
1.589373 0.15673018 0.027397692 2828317
1.5905461 0.15889829 0.027173579 3091232
1.5926778 0.160932 0.027592361 2762527
1.5934588 0.16445404 0.027374089 2960673
1.5954441 0.16682982 0.027760684 3093028
1.5962884 0.16924506 0.028139055 3224355
1.599196 0.17222494 0.026783049 2633030
1.5989156 0.17441946 0.026343763 1975102
1.6011218 0.17655748 0.026716053 659496
1.6010213 0.17923021 0.027295649 658726
1.5822097 0.149845 0.026980579 1447965
1.5833169 0.15322161 0.027691722 2106396
1.5854535 0.15533328 0.026910245 1776147
1.5881939 0.15701294 0.026013672 2959393
1.5890298 0.16047537 0.026287556 2893083
1.590081 0.16325247 0.026097417 2564638
1.5913762 0.165649 0.026433885 2696993
1.5927956 0.16821611 0.026976645 2697247
1.5941442 0.17033827 0.025215209 2173234
1.5961584 0.17286146 0.025666118 1778220
1.5973752 0.17548442 0.025236845 1646381
1.5988073 0.17798585 0.025911331 856606
1.6002942 0.17999697 0.026855826 855586
1.5821482 0.15331948 0.025276423 1251101
1.5832813 0.15694821 0.025767386 1316388
1.5836586 0.1589036 0.026257455 1579302
1.5877918 0.16513079 0.024451315 1577741
1.5893962 0.16688949 0.024857819 1315606
1.5905662 0.16898507 0.025010228 1316642
1.5921695 0.17181224 0.025888085 790821
1.5941727 0.17450964 0.023250341 790809
1.5950792 0.17689306 0.024321973 790556
1.5965354 0.1792298 0.025463045 592407
1.5837241 0.16074824 0.0244537 1644318
1.5845408 0.16381496 0.024279177 1380884
1.5851059 0.16602963 0.022966444 1906451
1.5869296 0.16804582 0.023289979 1118488
1.5883433 0.17134005 0.02220273 264464
1.5897605 0.1735338 0.022844255 264469
1.5916114 0.17606515 0.023732841 264215
1.5833653 0.16768217 0.0221349 1249818
1.5847502 0.1691879 0.021216929 1446936
1.587249 0.1704917 0.02138406 330004
1.5767356 0.165402 0.021473646 3287053
1.5776652 0.16658229 0.021267533 593700
1.5805078 0.16825122 0.020668209 2301467
1.5824487 0.16962087 0.020751297 2761241
1.5748955 0.1655004 0.02009362 4075284
1.5767106 0.1669805 0.019783676 1776680
1.5779406 0.16878819 0.018815279 4931860
1.5751302 0.16760093 0.017751873 7629601
1.7225622 0.11130089 0.1009261 3489636
1.7080042 0.096599877 0.10099137 5594739
1.7090924 0.097946227 0.10125262 6121085
1.7116051 0.10004365 0.10210776 6712454
1.7127895 0.10238314 0.10133964 6187649
1.7149892 0.10570687 0.10089809 5596297
1.7156405 0.10728341 0.10254222 5134425
1.7174243 0.1098693 0.10021454 6122633
1.7042534 0.094583035 0.10017842 5725809
1.7066611 0.095846057 0.10020667 5923961
1.7075737 0.098662794 0.10074693 5727624
1.7090993 0.10106641 0.10060358 5268880
1.7440062 0.15959519 0.095829546 5135234
1.7453961 0.15886974 0.095858991 6319486
1.7008855 0.093323231 0.099259496 5528683
1.7024345 0.095239639 0.099235535 5661049
1.7035086 0.098657608 0.09853822 4017793
1.7059175 0.099817455 0.099307537 3492484
1.7422582 0.16009188 0.096173763 3226973
1.7416226 0.16125983 0.095532119 3290706
1.6974945 0.092210889 0.097530782 5264994
1.6985751 0.093895435 0.097840071 5069425
1.7001084 0.097057343 0.097968519 4018300
1.7022495 0.098297715 0.098343492 4216197
1.7365205 0.15668368 0.092551947 3354172
1.7361972 0.15869248 0.093474269 3815486
1.7385783 0.16081613 0.093223453 2697534
1.7412273 0.16205662 0.093072712 2501193
1.6930721 0.091077209 0.09594214 5132893
1.6948295 0.092909932 0.096773922 4674150
1.6963682 0.094498813 0.096520841 4281475
1.7302439 0.15257299 0.091301858 4078406
1.7318666 0.155074 0.092012346 3552318
1.73347 0.15696287 0.092478931 3157564
1.7350218 0.15963483 0.092529058 2566715
1.736243 0.16168231 0.092996299 2106171
1.7379228 0.16326517 0.093434274 2632754
1.6893591 0.090675831 0.094603598 4737881
1.6910598 0.092047811 0.095084965 4278881
1.6918308 0.093752742 0.096073329 4149883
1.726572 0.15140337 0.090602338 3947331
1.7279017 0.1535815 0.091230571 3355451
1.7295604 0.15548491 0.091916025 3356224
1.7305449 0.15816963 0.091462672 2238524
1.7332494 0.16035026 0.091240466 1317935
1.6868715 0.091348171 0.094294131 4803670
1.6883897 0.092995167 0.09390682 3819365
1.7212422 0.14806437 0.08901912 4407121
1.7223172 0.14974177 0.089792311 3618622
1.7245514 0.15180606 0.090306699 3224633
1.7260103 0.15465903 0.091017544 2830650
1.7277 0.15722555 0.090363801 922415
1.6848879 0.091976047 0.092469573 4015962
1.6859615 0.093448102 0.092730045 3556185
1.7190335 0.14874303 0.088953614 2170922
1.7210265 0.15087867 0.089485824 2698035
1.7222753 0.15290707 0.089730799 2435896
1.7236128 0.15548027 0.089198887 724779
1.682656 0.093070149 0.091349781 4146776
1.6834959 0.094973505 0.091221511 3225937
1.7152829 0.14719439 0.087723136 1579039
1.7162901 0.14909738 0.088641286 1973542
1.7182531 0.1520378 0.087871611 1448505
1.7196766 0.15438884 0.08875823 658988
1.6802645 0.094989419 0.090000689 3423572
1.6805751 0.096445262 0.08908993 1843771
1.7106577 0.14651716 0.08687675 1316377
1.7128196 0.14790547 0.087388933 987415
1.7149627 0.1509921 0.08592695 2238540
1.7158105 0.15217024 0.086818933 921657
1.6755326 0.094955623 0.088380873 3158853
1.6781527 0.096078396 0.088713884 3093840
1.6786571 0.097478628 0.087860644 2436165
1.7095547 0.14707661 0.086003244 855856
1.7091901 0.15040147 0.085980237 2698841
1.7123122 0.15134412 0.08644259 1579837
1.674052 0.095295548 0.086850464 1251112
1.675607 0.097741723 0.086734414 2700111
1.6770089 0.098725855 0.087267041 1844288
1.7040687 0.14598984 0.084581316 3290684
1.7061747 0.14703184 0.085202515 1974316
1.671427 0.096185982 0.08584702 1911104
1.6736174 0.09826225 0.086198211 1976903
1.6751559 0.099507153 0.086207926 856354
1.6678896 0.095711887 0.084096849 331314
1.6680198 0.096413434 0.085401058 1583958
1.6711148 0.09944123 0.085189283 1117986
1.6654382 0.095959783 0.083579063 461868
1.6691506 0.10150445 0.083075225 1052193
1.6607239 0.095995784 0.08265692 395039
1.64477 0.14571452 0.059331775 2630168
1.6477523 0.14768267 0.057880044 1053983
1.6431414 0.14689732 0.05765909 2367779
1.6440624 0.14828181 0.057516515 2170136
1.6394972 0.14633393 0.056269228 2826270
1.6409371 0.1479733 0.056190789 2104095
1.641633 0.14990699 0.057400703 2892569
1.6435053 0.151721 0.055809021 1249806
1.6377424 0.14732981 0.05509299 2957593
1.638375 0.14909196 0.055066109 2104612
1.6414876 0.15203327 0.056210101 1446926
1.6355913 0.1486671 0.053639829 3023132
1.6361976 0.15071177 0.053332627 2105127
1.6331491 0.14975828 0.052291811 3023382
1.6342533 0.15137088 0.052437663 2367518
1.6296902 0.15017813 0.051271975 3023123
1.6318626 0.15219384 0.050555289 1776677
1.6280833 0.15213591 0.049720883 1513505
1.6237472 0.15201801 0.048102677 1381405
1.6255807 0.15203631 0.048423827 1315869
1.6212254 0.152255 0.047011197 1381657
1.6182699 0.1528101 0.045860708 1578779
1.5941706 0.14327216 0.036263466 2959669
1.5887365 0.13920343 0.036452949 2501684
1.5927082 0.14145643 0.036105454 2631468
1.5929699 0.14441711 0.036030412 2894645
1.5934635 0.14725953 0.035676658 2434349
1.5955436 0.14815152 0.035806119 2171944
1.6033194 0.16373211 0.034444511 920840
1.5854775 0.13815808 0.034832776 2698539
1.5865428 0.14027703 0.036037266 2106148
1.5908701 0.14517766 0.034593642 2235931
1.5927835 0.14926928 0.036258161 2106668
1.5937318 0.15115672 0.033683956 1644566
1.5946565 0.15382093 0.03474015 1381915
1.595777 0.15542525 0.035405099 1447201
1.5977275 0.15736568 0.034768879 1315353
1.598837 0.16047662 0.033402801 986898
1.6022897 0.16574746 0.034177423 1052432
1.5839024 0.13995117 0.033925056 1513750
1.5834942 0.1411503 0.03534025 1118741
1.5897267 0.14754915 0.033240259 1578769
1.592824 0.15528959 0.033493817 987408
1.5942962 0.15696907 0.033435285 987408
1.5954568 0.15911186 0.03404057 921361
1.5961773 0.16207224 0.033066452 790286
1.5988436 0.16534448 0.032254636 921874
1.6003507 0.16824752 0.032551765 1250079
1.5826621 0.14289254 0.032989085 2171170
1.5833225 0.1462428 0.033195794 1512734
1.5849355 0.14871383 0.033436179 1185058
1.5859892 0.15203118 0.032999814 987426
1.5898981 0.15602195 0.032997727 790550
1.5915136 0.15868384 0.031876624 658712
1.593032 0.16069853 0.032504797 592913
1.5941429 0.16406268 0.03196466 593172
1.5963565 0.16645759 0.031805396 658968
1.5982789 0.1689871 0.032413423 1251108
1.5992579 0.17176211 0.030892551 3355448
1.5824075 0.14645159 0.030645549 1710110
1.5835024 0.14956892 0.030811191 2960185
1.5850745 0.15262389 0.030667543 1514021
1.5861199 0.15499902 0.030394852 1777186
1.5881462 0.15726554 0.030762851 1316639
1.5891665 0.16026044 0.030471385 1842469
1.5910835 0.1630317 0.031251431 1447970
1.5924786 0.16522896 0.031621933 1646114
1.596005 0.17050213 0.028917193 3092517
1.5973387 0.17277378 0.029706001 3092260
1.5983324 0.17508775 0.029166877 1579298
1.6004245 0.17856473 0.028725088 790814
1.5841362 0.15318435 0.029524028 1842454
1.5850871 0.15650272 0.029043496 2829358
1.5858066 0.15884882 0.028886974 2368550
1.5869186 0.1615895 0.029205859 3091761
1.5881634 0.16363716 0.029726088 2500397
1.5913938 0.16949916 0.027991712 1512471
1.5934769 0.17128056 0.028473318 2170652
1.595 0.17427194 0.028687894 1775899
1.5966735 0.17683864 0.028561234 1184797
1.599628 0.18165284 0.0272066 723993
1.5839303 0.16041106 0.026799738 1250327
1.5847642 0.16191489 0.027770817 1709846
1.5856783 0.16482705 0.028290987 1513749
1.5879487 0.16784191 0.027317107 1315092
1.5900135 0.17059404 0.026920617 1118743
1.5905783 0.17240357 0.027457535 855836
1.5930033 0.17479086 0.027032077 527391
1.5943046 0.17750388 0.028157413 461847
1.5950259 0.18074799 0.026376307 197901
1.5971544 0.18175036 0.026887655 329231
1.5818565 0.16470784 0.026646614 1972507
1.5847025 0.1666944 0.025838733 1118228
1.5861501 0.1690079 0.026087165 725022
1.5875607 0.17098218 0.026908815 593963
1.5908685 0.17735249 0.024988949 264474
1.5929239 0.17921954 0.025666118 198164
1.5783616 0.16391528 0.024902344 1053738
1.5803565 0.16563171 0.024893939 1644578
1.5819001 0.16817993 0.024802804 1184540
1.5833353 0.17027664 0.02409023 462881
1.5859487 0.17274052 0.024248898 331296
1.5865648 0.17420232 0.025574923 528672
1.5760309 0.16420215 0.023649931 1315897
1.5778219 0.16700023 0.023494065 660008
1.5789077 0.16826862 0.024883151 857648
1.5754843 0.16771948 0.023035407 2630172
1.5777354 0.16877973 0.0215047 3221787
1.7189081 0.11036754 0.10306507 3817789
1.7085571 0.099357545 0.10310525 6121606
1.7099764 0.10164726 0.10356599 5661567
1.7109938 0.10368443 0.1048798 5331824
1.7126132 0.10545552 0.10194868 6846351
1.7158741 0.10782421 0.104168 4213587
1.7040039 0.095209897 0.10176951 5397360
1.7046753 0.097460568 0.10247201 5661306
1.7066483 0.1004833 0.10352057 5201788
1.7081417 0.10184211 0.10255378 4675965
1.710063 0.10447526 0.10276061 6189709
1.7134485 0.1078527 0.10154206 5729938
1.6994444 0.094456196 0.10063571 5595245
1.7011795 0.095727921 0.10154825 5661302
1.7023171 0.098048329 0.10271615 4608106
1.7044858 0.10134792 0.10155207 1186867
1.6960986 0.093703449 0.099112213 5659498
1.697515 0.09498471 0.10048681 5463920
1.6986909 0.098285913 0.10119259 2172733
1.7011168 0.099918306 0.10023373 593707
1.6927123 0.092463136 0.097839594 5790826
1.69333 0.094297409 0.099342167 5265772
1.6951983 0.095984936 0.099060833 3884661
1.6967198 0.098162532 0.099176228 1382704
1.731925 0.15797013 0.095471919 3091249
1.7336684 0.15919513 0.093823969 2367788
1.7343287 0.16216528 0.093387246 2236982
1.690076 0.093040109 0.097685814 5725031
1.6912088 0.094512582 0.098428011 4608357
1.6927958 0.097456157 0.097940981 658723
1.7276366 0.15523171 0.092631161 2564654
1.7283933 0.15650153 0.094134569 2630955
1.7300217 0.15888083 0.093316138 1974325
1.7318766 0.16087615 0.093282223 1448238
1.6872954 0.09345603 0.096855164 5001051
1.6895084 0.096123099 0.095924795 1712702
1.6900724 0.097661316 0.097215652 66328
1.7229013 0.15356654 0.092108548 2763568
1.7244937 0.15536249 0.092983425 2434351
1.7262585 0.15780181 0.093209565 1645867
1.7286077 0.1605072 0.093745112 1316649
1.6837801 0.093103468 0.094855487 5790303
1.6847991 0.094460368 0.095169008 3817550
1.6869467 0.096861482 0.095177889 329503
1.7190107 0.15202361 0.090774298 2632237
1.7207911 0.15367806 0.091883123 2500914
1.7224946 0.15659195 0.091551483 1120296
1.7250016 0.15801066 0.091759264 922407
1.6810725 0.094593227 0.093890786 5132372
1.6827593 0.096353829 0.094245374 1843246
1.7154946 0.15057874 0.090077519 2368553
1.7170672 0.15227365 0.090887129 2566957
1.7187815 0.15550011 0.090420902 593701
1.6781077 0.093819916 0.091648817 5000023
1.6789192 0.09606576 0.092671156 2764092
1.6803272 0.096751511 0.092038572 3161936
1.7118123 0.14914942 0.088954151 1973283
1.7129378 0.15172404 0.089373171 1316646
1.7151408 0.15411544 0.089538872 593445
1.6756258 0.094808221 0.091448903 5262936
1.676953 0.096892118 0.091264844 2304065
1.6776589 0.098527491 0.09086746 3621970
1.7084224 0.14841348 0.088054717 1973537
1.7093983 0.1499176 0.088345528 1250340
1.7098989 0.15210307 0.088344991 658735
1.6724441 0.09514457 0.090215147 4868440
1.6748328 0.098159969 0.089804709 2435903
1.6746849 0.099678397 0.088217556 2239572
1.7040722 0.14718801 0.086839974 2368297
1.7053182 0.1488319 0.087021172 1513770
1.7075188 0.15117776 0.086890757 1645375
1.6681571 0.096181333 0.088816822 4473939
1.6707373 0.096198261 0.087870896 3028303
1.6721133 0.098998547 0.088229358 2370373
1.7013531 0.14762574 0.08534044 2435133
1.7021859 0.14999563 0.086413443 3291745
1.666271 0.095337927 0.087376773 2237229
1.6677697 0.098073244 0.087446868 2898777
1.6692837 0.099266052 0.087183297 1579571
1.6983593 0.14727437 0.083650291 3093059
1.6987531 0.14789295 0.084942162 2697282
1.6624091 0.095472276 0.086144269 1052693
1.6645321 0.097253323 0.085896194 1845572
1.6652279 0.09842366 0.086744964 3426156
1.6952503 0.14720356 0.082878709 4278874
1.6602867 0.096430719 0.085502923 1052693
1.6621454 0.097851753 0.084483147 1384250
1.6636208 0.10070819 0.085108697 920606
1.6585195 0.09718281 0.082859218 723739
1.6594076 0.098946393 0.08336699 990010
1.6561486 0.098461449 0.081883967 855318
1.6562196 0.10051519 0.082106709 659761
1.6536052 0.099888086 0.080737054 526614
1.6516567 0.10133415 0.079413116 328978
1.6490411 0.10324866 0.078382492 263193
1.6464379 0.10677761 0.076663017 1511952
1.6453483 0.10662323 0.075739086 592151
1.6433038 0.10837269 0.074426651 460563
1.6408221 0.1103521 0.072836161 328973
1.6421549 0.1472972 0.060218573 2630950
1.6387229 0.14736748 0.058517456 3550243
1.6401801 0.14807487 0.059035003 2171180
1.6361769 0.14828461 0.057784498 3615521
1.6375089 0.14959538 0.057314336 2235941
1.6386523 0.15161836 0.057702363 3155999
1.6340967 0.14944696 0.056407511 3090213
1.6352413 0.15116531 0.056282222 2432800
1.63113 0.1504212 0.054898262 2892828
1.6325694 0.15163004 0.054865837 2039326
1.628197 0.15006518 0.054805458 3155485
1.629204 0.15129596 0.053285778 2301981
1.6255577 0.15002769 0.052826703 3154710
1.6260606 0.151739 0.053251445 1711909
1.6237653 0.15182132 0.050890326 1645092
1.6206089 0.15213883 0.049597621 1645093
1.6172919 0.15287089 0.048708975 1776424
1.6182806 0.15239245 0.047809601 1513501
1.6149454 0.15369046 0.046733201 1842211
1.6119621 0.15417999 0.046818316 2105125
1.6104171 0.15433329 0.045432985 2236448
1.6061399 0.15566701 0.043869019 2697513
1.6077644 0.15549743 0.043821275 2631720
1.5881963 0.14057302 0.038203359 3685951
1.5897346 0.14288336 0.038915932 2107703
1.5909387 0.14537638 0.038635671 2369870
1.5936425 0.15053487 0.037749946 1645615
1.5868182 0.14189106 0.037424684 3488058
1.5879836 0.14330804 0.037696421 2435890
1.5886873 0.14634949 0.037255466 1776676
1.5906935 0.14818567 0.03707242 2040619
1.5918294 0.15150338 0.03650105 1382685
1.5971322 0.16063786 0.038400829 1645083
1.5844259 0.14299995 0.035903573 1710625
1.5854306 0.1448825 0.03644973 1579036
1.5871994 0.14805162 0.036232531 1250836
1.5883536 0.15014416 0.036586821 1250839
1.5906956 0.15329427 0.035336256 988181
1.5970618 0.16566437 0.035848558 922148
1.5997047 0.16830122 0.035349488 1118236
