# .PCD v0.7 - Point Cloud Data file format
VERSION 0.7
FIELDS x y z
SIZE 4 4 4
TYPE F F F
COUNT 1 1 1
WIDTH 1097
HEIGHT 1
VIEWPOINT 0 0 0 1 0 0 0
POINTS 1097
DATA ascii
0.83231515 0.46804652 0.024632815
0.83516365 0.46790311 0.02476654
0.83801228 0.46775982 0.024900271
0.85097945 0.47471878 0.024623407
0.85806775 0.48110467 0.024570435
0.86094099 0.48096007 0.024705337
0.8063069 0.48516476 0.02462578
0.80918002 0.48502019 0.02476068
0.81518131 0.47035158 0.026292505
0.81802988 0.47020823 0.026426286
0.82087833 0.47006494 0.026560016
0.81233275 0.47049493 0.026158778
0.81087106 0.47818667 0.02521597
0.80184978 0.4944956 0.02608378
0.8279435 0.46210459 0.027788995
0.84366626 0.46891809 0.027629949
0.84651494 0.46877491 0.027763667
0.82372683 0.46992153 0.026693745
0.8351208 0.46934819 0.027228709
0.84081769 0.46906149 0.027496159
0.85379821 0.47602662 0.027231455
0.81082797 0.47963861 0.027689632
0.86089772 0.48241779 0.027188819
0.86377096 0.48227316 0.027323784
0.80339044 0.48676699 0.026974369
0.80626363 0.48662248 0.027109267
0.87116939 0.48954511 0.026841285
0.87405586 0.48939988 0.026976841
0.8151384 0.4717966 0.028754668
0.81798691 0.47165337 0.028888391
0.82083547 0.47151002 0.029022174
0.81228989 0.47193995 0.028620938
0.87112594 0.4910095 0.029336331
0.7989198 0.49610516 0.028443215
0.80180633 0.49595994 0.028578771
0.83640641 0.46311501 0.030638983
0.82506555 0.4636856 0.030106524
0.82790083 0.463543 0.030239651
0.8307361 0.46340036 0.030372778
0.8436234 0.47036329 0.030092107
0.84647197 0.47022 0.03022583
0.84932041 0.47007665 0.030359561
0.85661685 0.47733444 0.029839443
0.80792308 0.48123443 0.030028915
0.81078488 0.48109037 0.030163301
0.86660087 0.48358622 0.029942172
0.80334711 0.48822466 0.029457914
0.80622029 0.48808002 0.029592818
0.87401241 0.49086422 0.029471831
0.81224704 0.4733851 0.031083101
0.8033039 0.48968232 0.031941399
0.87396902 0.49232861 0.03196682
0.87685543 0.49218339 0.032102376
0.79887629 0.49756962 0.030938203
0.83352858 0.46469605 0.032956503
0.83636373 0.46455324 0.033089641
0.83919901 0.4644106 0.033222772
0.82218778 0.4652667 0.032424048
0.82502294 0.46512407 0.032557175
0.82785815 0.46498129 0.032690309
0.83069342 0.46483865 0.032823436
0.84927756 0.47152174 0.032821715
0.85212606 0.47137839 0.032955438
0.8565737 0.47878632 0.032313097
0.85943556 0.4786422 0.032447483
0.86229736 0.47849834 0.032581802
0.80788004 0.48268631 0.03250258
0.8107419 0.48254225 0.032636963
0.86655766 0.48504382 0.032425664
0.79594642 0.49917912 0.033297703
0.79883289 0.49903396 0.033433259
0.8136394 0.4671331 0.034475371
0.81647462 0.46699035 0.034608506
0.81930983 0.46684775 0.034741633
0.82214504 0.46670505 0.0348747
0.85939252 0.48009408 0.034921087
0.80497515 0.48428211 0.034841862
0.80783695 0.48413807 0.034976184
0.80038744 0.49128464 0.03428999
0.80326051 0.49113998 0.034424894
0.83348578 0.46613434 0.035407167
0.83632106 0.46599171 0.035540298
0.83915639 0.46584901 0.035673432
0.84199148 0.46570635 0.035806563
0.84482664 0.46556377 0.035939634
0.8249802 0.46656227 0.035007834
0.82781547 0.46641976 0.035140965
0.83065063 0.46627694 0.035274096
0.85208315 0.47282347 0.035417609
0.81076163 0.46871397 0.036792904
0.81359684 0.46857134 0.036926031
0.81643206 0.46842873 0.037059162
0.81926715 0.46828604 0.037192293
0.82210249 0.46814334 0.037325364
0.82493758 0.46800074 0.037458487
0.82777286 0.46785799 0.037591625
0.83060795 0.46771541 0.037724752
0.86507291 0.48125803 0.037663512
0.8679347 0.48111391 0.037797835
0.80493218 0.48573387 0.037315533
0.80034423 0.49274218 0.03677348
0.83344328 0.46757275 0.037857823
0.83627844 0.46743 0.037990957
0.83911365 0.46728736 0.038124084
0.84194881 0.4671447 0.038257211
0.84478396 0.46700206 0.03839029
0.84761924 0.46685943 0.038523421
0.85204029 0.47426859 0.037879765
0.85488886 0.47412524 0.038013488
0.86058587 0.47383854 0.038280942
0.80926991 0.47786382 0.038335789
0.79455447 0.49448898 0.038987234
0.79742771 0.49434441 0.039122123
0.83623564 0.46886846 0.04044161
0.83907086 0.46872565 0.040574744
0.81071889 0.47015244 0.03924356
0.81355411 0.4700098 0.039376684
0.8163892 0.46986702 0.039509822
0.81922454 0.46972445 0.039642952
0.82205969 0.46958187 0.039776012
0.82489485 0.46943909 0.039909154
0.82773006 0.4692964 0.040042281
0.83056539 0.46915364 0.040175416
0.83340049 0.46901104 0.040308483
0.86502999 0.48270974 0.040137172
0.86789161 0.48256579 0.040271491
0.87075347 0.48242173 0.040405877
0.87361532 0.48227787 0.040540256
0.80488896 0.48718587 0.039789129
0.80202717 0.48732993 0.039654806
0.84190613 0.46858311 0.040707879
0.84474134 0.46844041 0.040840946
0.8475765 0.46829772 0.040974081
0.81067622 0.47159073 0.041694216
0.81351137 0.47144809 0.041827351
0.81634665 0.47130543 0.041960478
0.85769439 0.47542709 0.040609375
0.80637842 0.47945219 0.040664226
0.80922705 0.47930884 0.040797956
0.79912227 0.4889257 0.041994087
0.79163802 0.49609131 0.041335814
0.79451126 0.49594665 0.041470714
0.79738444 0.49580202 0.041605622
0.83619303 0.47030675 0.042892274
0.83902818 0.47016406 0.043025404
0.84186339 0.47002152 0.043158468
0.84469855 0.4698787 0.043291606
0.81918186 0.47116274 0.042093609
0.82201701 0.47102016 0.04222668
0.82485223 0.4708775 0.042359807
0.82768744 0.47073475 0.042492941
0.83052266 0.47059211 0.042626068
0.83335781 0.47044945 0.042759135
0.80633557 0.48089734 0.043126389
0.80918413 0.48075405 0.043260116
0.80198407 0.48878169 0.042128474
0.80484599 0.48863769 0.042262796
0.84753382 0.46973613 0.043424733
0.85036898 0.46959347 0.043557864
0.85320419 0.46945077 0.043690994
0.85887462 0.46916547 0.043957192
0.81063348 0.4730292 0.044144936
0.81346875 0.47288656 0.044278003
0.81630397 0.47274378 0.044411138
0.819139 0.47260121 0.044544265
0.82197434 0.47245851 0.044677328
0.79907918 0.49037758 0.044467751
0.80194098 0.49023357 0.044602074
0.79446799 0.49740425 0.043954268
0.84465593 0.47131717 0.045742258
0.84749115 0.47117448 0.045875397
0.85032636 0.47103176 0.04600852
0.85316163 0.47088918 0.046141587
0.82480949 0.47231579 0.044810466
0.86900264 0.47774386 0.046068665
0.80629277 0.48234236 0.045588553
0.85599679 0.47074637 0.046274722
0.85883188 0.47060376 0.046407852
0.81059092 0.47446749 0.046595532
0.81342608 0.47432485 0.046728663
0.81626129 0.47418225 0.04686179
0.81909645 0.47403949 0.046994925
0.87185115 0.47760057 0.046202391
0.79617435 0.49197343 0.046807028
0.79903615 0.49182937 0.046941418
0.82634032 0.46691692 0.047694482
0.82916421 0.46677479 0.047827035
0.83198792 0.46663275 0.047959644
0.83481175 0.46649063 0.048092194
0.83763546 0.46634856 0.048224807
0.84045929 0.4662064 0.048357356
0.85028368 0.47247022 0.048459172
0.85311884 0.47232747 0.048592314
0.85595405 0.47218484 0.048725378
0.85878921 0.47204205 0.048858516
0.86162448 0.47189948 0.048991643
0.80771297 0.47604847 0.048913125
0.80340135 0.48393092 0.04791699
0.82065016 0.46863371 0.049870089
0.82347411 0.46849161 0.050002698
0.82629788 0.46834955 0.050135255
0.82912171 0.46820742 0.050267864
0.86445963 0.47175685 0.049124718
0.81054819 0.4759059 0.049046189
0.80051005 0.48551941 0.05024536
0.80335855 0.48537606 0.050379142
0.79326946 0.49356925 0.049146324
0.79613125 0.49342537 0.049280699
0.79899305 0.4932813 0.049415026
0.84324068 0.4674969 0.050930742
0.84606445 0.46735486 0.051063351
0.83194542 0.46806526 0.050400421
0.83476919 0.46792313 0.05053303
0.83759314 0.46778107 0.050665583
0.84041691 0.46763903 0.050798196
0.8644169 0.47319514 0.051575374
0.85307616 0.47376582 0.051042907
0.85591131 0.47362307 0.051176038
0.85874659 0.4734804 0.051309168
0.86158174 0.47333783 0.051442303
0.81050551 0.47734419 0.051496852
0.81334072 0.47720155 0.051629975
0.80483502 0.47762954 0.051230647
0.8076703 0.47748694 0.051363774
0.79322642 0.49502119 0.051619984
0.81496012 0.47035038 0.052045755
0.81778395 0.47020835 0.052178375
0.82060778 0.47006628 0.052310918
0.82343155 0.46992421 0.052443467
0.82625532 0.46978199 0.052576091
0.82907909 0.46963987 0.052708633
0.83190292 0.46949789 0.052841254
0.83472669 0.46935576 0.052973799
0.83755052 0.46921363 0.053106412
0.81213641 0.47049251 0.051913213
0.80046707 0.48696443 0.052707523
0.80331564 0.48682109 0.052841306
0.84319812 0.46892953 0.053371575
0.84602189 0.46878743 0.053504132
0.8488456 0.46864519 0.053636741
0.84037429 0.46907166 0.053238966
0.81491756 0.47178301 0.054486588
0.85586864 0.47506154 0.053626694
0.85870385 0.47491869 0.053759832
0.86153907 0.47477618 0.053892959
0.86437428 0.47463354 0.054026026
0.81046271 0.47878259 0.053947508
0.80479246 0.47906801 0.053681307
0.80762768 0.47892523 0.053814437
0.84315556 0.47036204 0.055812351
0.84597945 0.47021994 0.055944964
0.81774139 0.47164086 0.054619145
0.82056528 0.47149885 0.054751754
0.82338905 0.47135672 0.054884311
0.82621288 0.47121462 0.05501686
0.82903659 0.47107249 0.055149466
0.83186042 0.47093046 0.055282027
0.83468425 0.47078839 0.055414628
0.83750808 0.47064626 0.055547185
0.84033179 0.47050411 0.055679798
0.79757577 0.48855293 0.055035956
0.80042422 0.48840958 0.055169683
0.80327272 0.48826629 0.055303469
0.79472721 0.48869628 0.054902222
0.84880316 0.47007787 0.056077514
0.85162705 0.4699358 0.056210127
0.8176989 0.47307348 0.057059918
0.82052267 0.47293136 0.057192527
0.82334656 0.47278929 0.05732514
0.81205136 0.47335765 0.056794815
0.81487513 0.47321552 0.056927368
0.85582608 0.47649983 0.056077361
0.86149639 0.47621459 0.056343615
0.80474979 0.48050624 0.056131966
0.80758488 0.48036364 0.05626509
0.81042022 0.48022088 0.056398172
0.79468441 0.49014136 0.057364393
0.84311301 0.47179461 0.058253191
0.84593689 0.47165248 0.058385734
0.84876072 0.47151044 0.058518343
0.85158455 0.47136837 0.0586509
0.82617033 0.47264725 0.057457685
0.82899415 0.47250518 0.057590239
0.83181781 0.47236308 0.057722852
0.83464175 0.47222078 0.057855409
0.83746552 0.47207877 0.057988025
0.84028929 0.47193673 0.058120571
0.80470705 0.48194471 0.058582615
0.8075422 0.48180193 0.058715746
0.7975328 0.48999795 0.05749812
0.8003813 0.48985463 0.057631843
0.85723209 0.47108409 0.058916066
0.86287969 0.47079998 0.059181221
0.8176564 0.47450611 0.059500746
0.82048029 0.47436398 0.059633307
0.823304 0.47422192 0.059765913
0.81200874 0.47479028 0.059235588
0.81483257 0.47464815 0.059368201
0.79464144 0.49158648 0.059826553
0.79749 0.49144319 0.059960283
0.8458944 0.47308522 0.060826562
0.84871823 0.47294301 0.060959123
0.851542 0.47280088 0.061091736
0.85436583 0.47265878 0.061224282
0.85718954 0.47251666 0.061356902
0.86001337 0.47237465 0.061489448
0.8345992 0.47365347 0.060296237
0.83742309 0.4735114 0.060428791
0.84024686 0.4733693 0.060561396
0.84307057 0.47322723 0.060693957
0.80914253 0.47636491 0.0615438
0.85574061 0.47937658 0.060978673
0.85857576 0.47923392 0.0611118
0.80182916 0.48352563 0.060900152
0.80466443 0.483383 0.061033279
0.80749959 0.48324034 0.061166413
0.82482421 0.46879455 0.062600166
0.82763666 0.46865296 0.062732197
0.8304491 0.46851149 0.062864237
0.86283714 0.47223255 0.061622001
0.8176139 0.47593874 0.061941512
0.82043773 0.47579655 0.06207414
0.8232615 0.47565442 0.062206686
0.81196636 0.4762229 0.061676361
0.81479013 0.47608078 0.061808966
0.80029553 0.49274492 0.062556162
0.79459846 0.4930315 0.062288716
0.79744703 0.49288833 0.062422439
0.84585184 0.47451767 0.063267343
0.84867567 0.47437558 0.063399956
0.85149956 0.47423351 0.063532501
0.85997081 0.47380722 0.063930213
0.86279476 0.47366524 0.064062826
0.84302807 0.4746598 0.06313473
0.8175714 0.47737119 0.064382359
0.80910003 0.47779751 0.063984632
0.81192374 0.47765529 0.064117193
0.81474751 0.47751322 0.064249739
0.79895133 0.48510668 0.063217677
0.80178654 0.48496404 0.063350804
0.8046217 0.48482147 0.063483939
0.82478195 0.47022134 0.065031111
0.82759428 0.47007975 0.065163143
0.83040679 0.46993822 0.065295182
0.83321917 0.46979675 0.065427266
0.8360315 0.46965516 0.065559305
0.83884394 0.46951362 0.065691337
0.84580934 0.47595024 0.065708116
0.83169043 0.47666079 0.065045238
0.83451414 0.4765186 0.06517785
0.83733803 0.47637647 0.065310396
0.84016174 0.47623444 0.065443009
0.84298563 0.47609237 0.065575562
0.79740423 0.4943333 0.064884543
0.81911486 0.4719311 0.067197941
0.84863305 0.47580814 0.065840721
0.851457 0.47566608 0.065973334
0.85428077 0.47552404 0.066105887
0.85710454 0.47538179 0.066238441
0.85992825 0.47523972 0.066371053
0.86275214 0.47509769 0.066503607
0.8062337 0.47937214 0.06629286
0.80905753 0.47923002 0.066425413
0.81188136 0.47908792 0.066558026
0.80174381 0.48640233 0.065801471
0.80457908 0.4862597 0.065934598
0.82192719 0.4717896 0.06733004
0.82473958 0.47164807 0.067462064
0.82755196 0.47150666 0.067594096
0.84576696 0.47738293 0.068148948
0.84859067 0.47724083 0.068281494
0.8514145 0.47709858 0.068414122
0.85423827 0.47695649 0.068546668
0.83164781 0.47809324 0.067486078
0.84011918 0.47766706 0.067883782
0.79886591 0.48798344 0.068118997
0.80170113 0.4878408 0.068252124
0.82469732 0.47307485 0.06989301
0.81344777 0.47364089 0.069364816
0.8162601 0.47349936 0.069496855
0.81907248 0.47335789 0.069628887
0.82188487 0.47321638 0.069760978
0.8570621 0.47681442 0.068679266
0.85988587 0.47667235 0.068811826
0.86270958 0.47653025 0.068944432
0.80619115 0.48080471 0.06873364
0.80901492 0.48066264 0.068866245
0.8275097 0.47293332 0.070025049
0.83313441 0.47265032 0.070289172
0.83594692 0.47250879 0.070421197
0.84157157 0.47222579 0.070685275
0.85137194 0.47853115 0.070854947
0.85419577 0.47838917 0.070987493
0.85701948 0.47824705 0.071120106
0.85984331 0.47810498 0.071252659
0.86266708 0.47796288 0.071385205
0.80332488 0.48237941 0.071041852
0.80614871 0.48223728 0.071174465
0.80897248 0.48209521 0.071307011
0.79598802 0.48956457 0.070436582
0.79882324 0.48942184 0.070569716
0.80165845 0.48927903 0.070702791
0.82465482 0.47450164 0.072323963
0.82746738 0.47436011 0.072455995
0.83027977 0.47421852 0.072588027
0.83309203 0.47407705 0.072720118
0.81059295 0.47520927 0.071663737
0.81340539 0.47506779 0.071795762
0.81621766 0.4749262 0.071927808
0.81903017 0.47478467 0.072059833
0.82184255 0.47464317 0.072191931
0.83590448 0.47393557 0.07285215
0.83871692 0.47379404 0.072984174
0.84152937 0.47365257 0.073116221
0.8443417 0.47351104 0.073248245
0.84715408 0.47336945 0.073380284
0.81055069 0.47663611 0.074094675
0.85415328 0.47982174 0.073428266
0.85697699 0.47967967 0.073560879
0.86262459 0.47939545 0.07382606
0.80328244 0.48381203 0.073482685
0.80610615 0.48366997 0.073615246
0.80892992 0.48352772 0.073747851
0.79594541 0.49100292 0.072887234
0.7987805 0.49086007 0.073020309
0.80161577 0.4907175 0.073153436
0.83023739 0.47564536 0.07501898
0.83304971 0.47550383 0.075151071
0.83586222 0.4753623 0.07528311
0.8386746 0.47522083 0.075415127
0.84148687 0.47507942 0.075547166
0.81336296 0.47649458 0.074226715
0.8161754 0.47635305 0.074358746
0.82180023 0.47606996 0.074622877
0.79590273 0.49244118 0.075337902
0.79873788 0.49229854 0.075471021
0.85836136 0.47423014 0.076339431
0.84429938 0.47493783 0.075679198
0.84711182 0.47479624 0.075811237
0.84992403 0.47465473 0.075943321
0.81050825 0.4780629 0.076525621
0.8133207 0.47792137 0.07665766
0.85693443 0.48111218 0.076001659
0.85975826 0.48097005 0.076134264
0.86258209 0.48082802 0.076266825
0.80323994 0.4852446 0.075923465
0.80606365 0.48510247 0.076056071
0.81749463 0.47001031 0.077586442
0.82309276 0.46972853 0.077849321
0.82589185 0.46958777 0.077980757
0.84988183 0.47608161 0.078374274
0.80037355 0.48681921 0.078231685
0.80319732 0.48667717 0.07836429
0.79585999 0.49387959 0.077788547
0.85269427 0.47594005 0.078506313
0.80765355 0.4796311 0.07882455
0.81046593 0.47948956 0.078956582
0.85689199 0.48254481 0.078442492
0.85971576 0.48240268 0.078575045
0.86253965 0.48226064 0.078707658
0.83984524 0.47030354 0.081057265
0.84264439 0.47016278 0.081188701
0.81465334 0.47157124 0.079874508
0.81745243 0.47143036 0.080005877
0.82025152 0.47128946 0.08013732
0.82305068 0.47114858 0.080268763
0.82584971 0.47100782 0.080400132
0.82864898 0.47086689 0.080531575
0.83144802 0.4707261 0.080663018
0.83424705 0.47058529 0.080794446
0.83704621 0.47044435 0.08092583
0.85265183 0.47736683 0.080937244
0.84983945 0.4775084 0.08080522
0.80479878 0.48119941 0.081123464
0.90207273 0.48027125 0.080563739
0.79750729 0.48839396 0.080539905
0.80033106 0.48825184 0.080672525
0.80315483 0.48810974 0.080805063
0.79185975 0.48867807 0.080274753
0.84544343 0.47002175 0.081320085
0.81181222 0.47313204 0.082162522
0.8146112 0.47299123 0.08229395
0.81741035 0.47285035 0.082425334
0.80761117 0.48105794 0.081255488
0.81042355 0.48091641 0.081387535
0.8822636 0.48269838 0.082076527
0.86532086 0.48355103 0.081281036
0.86814463 0.48340896 0.081413582
0.87096852 0.48326686 0.081546195
0.87524557 0.48988479 0.081515737
0.87808079 0.48974216 0.081648864
0.88091594 0.48959944 0.081781991
0.88375109 0.48945686 0.081915125
0.83828765 0.53956079 0.082100816
0.83980304 0.47172359 0.083476707
0.84260225 0.47158271 0.083608158
0.84540129 0.47144181 0.083739594
0.82300854 0.47256875 0.082688205
0.83140582 0.47214609 0.08308246
0.83700407 0.4718644 0.083345279
0.85260957 0.47879368 0.083368197
0.85542196 0.47865209 0.083500236
0.85823435 0.47851056 0.083632268
0.86104673 0.47836909 0.0837643
0.84979707 0.47893512 0.083236165
0.80475646 0.48262626 0.083554402
0.80756897 0.48248467 0.083686434
0.8992064 0.48184595 0.082871951
0.90203011 0.48170388 0.083004564
0.86245459 0.48512572 0.083589248
0.86527842 0.48498359 0.083721809
0.86810213 0.48484159 0.083854415
0.87092596 0.48469949 0.083986975
0.79464096 0.48996857 0.082848124
0.79746473 0.48982653 0.08298073
0.8002885 0.48968434 0.08311329
0.80311239 0.48954225 0.083245896
0.8059361 0.48940012 0.083378449
0.79181713 0.49011075 0.082715578
0.81891853 0.46738333 0.085189909
0.81176996 0.47455215 0.084581949
0.81456906 0.47441122 0.084713407
0.88354588 0.47723699 0.08482068
0.88635832 0.47709545 0.084952712
0.88917071 0.47695386 0.085084744
0.89198303 0.47681233 0.085216783
0.89479548 0.4766708 0.085348867
0.88504487 0.48398897 0.084649913
0.8878687 0.4838469 0.084782459
0.89069241 0.48370478 0.084915064
0.89351624 0.48356274 0.085047625
0.89634001 0.48342049 0.085180178
0.89916396 0.48327839 0.085312791
0.87803805 0.49118051 0.084099524
0.88937885 0.49060985 0.084631979
0.79177463 0.49154332 0.085156351
0.79459846 0.49140114 0.085288964
0.83965492 0.533135 0.085192665
0.83096111 0.53357244 0.084784441
0.83385903 0.5334267 0.084920518
0.83824384 0.54103786 0.08461713
0.84115499 0.54089141 0.084753804
0.88307732 0.46274269 0.085790649
0.88586509 0.46260232 0.085921496
0.88865274 0.46246204 0.086052418
0.82449394 0.46710274 0.085451625
0.82728159 0.46696243 0.085582539
0.83285701 0.4666819 0.085844323
0.89578491 0.46890658 0.086105101
0.88738763 0.46932894 0.085710853
0.89018679 0.46918824 0.085842289
0.8929857 0.4690474 0.085973665
0.84256011 0.47300264 0.0860276
0.84535915 0.47286186 0.086159036
0.85819203 0.47993734 0.086063206
0.80752647 0.48391157 0.086117387
0.81033891 0.48376998 0.086249419
0.90198767 0.48313639 0.085445337
0.86805969 0.48627409 0.086295187
0.87088346 0.486132 0.0864278
0.87370718 0.48598987 0.086560354
0.79742217 0.49125904 0.08542151
0.80024606 0.49111691 0.085554123
0.80306989 0.49097487 0.085686676
0.8058936 0.49083287 0.085819222
0.87799531 0.4926188 0.086550184
0.81608886 0.46893781 0.087468609
0.81887656 0.46879753 0.087599471
0.82166421 0.46865717 0.087730385
0.82445198 0.46851701 0.087861247
0.82723957 0.46837676 0.087992169
0.83002734 0.46823642 0.088123024
0.81172788 0.47597209 0.087001406
0.80892879 0.47611302 0.086870022
0.87935489 0.48570576 0.08682552
0.8821786 0.48556364 0.086958125
0.88500232 0.48542154 0.087090686
0.89064991 0.48513728 0.087355852
0.8934738 0.48499519 0.087488398
0.89629757 0.48485306 0.087621003
0.89912128 0.48471099 0.087753564
0.79737967 0.49269161 0.087862335
0.80020344 0.49254948 0.087994881
0.80302733 0.4924075 0.088127501
0.88933617 0.4920482 0.087082647
0.89217138 0.49190551 0.087215781
0.7889083 0.49311796 0.087464578
0.79173213 0.49297583 0.087597184
0.79455596 0.4928337 0.08772973
0.84121799 0.52760726 0.087861255
0.84410459 0.52746201 0.087996759
0.84250921 0.53445941 0.087833554
0.84540701 0.5343135 0.087969631
0.82801968 0.53518856 0.087153301
0.83091748 0.53504264 0.087289318
0.83381546 0.53489685 0.087425388
0.83237755 0.54280776 0.086860113
0.83528882 0.54266119 0.086996846
0.83820003 0.54251468 0.087133512
0.84111112 0.54236817 0.087270185
0.88303536 0.4641569 0.088200197
0.83281499 0.46809611 0.088253886
0.83560276 0.46795595 0.0883848
0.83839047 0.46781564 0.088515654
0.85091519 0.47400028 0.088841297
0.85371435 0.4738594 0.088972725
0.81168574 0.47739214 0.089420848
0.85814965 0.48136419 0.088494159
0.86096197 0.48122272 0.088626191
0.86377448 0.48108113 0.088758282
0.80748421 0.4853383 0.088548332
0.87931222 0.48713833 0.089266293
0.88213605 0.48699608 0.089398913
0.88495982 0.48685405 0.089531459
0.86801714 0.4877066 0.088736027
0.87084091 0.48756462 0.088868573
0.87366474 0.4874225 0.089001186
0.88929343 0.49348661 0.089533299
0.82385552 0.52994317 0.089543097
0.82507807 0.5368045 0.089522108
0.83233362 0.54428464 0.089376494
0.83524495 0.54413813 0.08951316
0.81604695 0.47035208 0.089878172
0.81883466 0.47021174 0.090009086
0.82162231 0.47007155 0.090139948
0.82441002 0.46993122 0.090270869
0.82719773 0.46979097 0.090401724
0.82998544 0.46965075 0.090532579
0.83277297 0.46951044 0.0906635
0.83556074 0.46937019 0.090794355
0.83834851 0.46922991 0.090925276
0.81325924 0.47049239 0.089747302
0.80462945 0.48690668 0.090847239
0.80744183 0.48676515 0.090979278
0.89343125 0.48642781 0.089929223
0.89625508 0.48628575 0.090061784
0.79733723 0.49412429 0.090303108
0.800161 0.49398217 0.090435728
0.80298483 0.49384001 0.090568282
0.89212865 0.49334386 0.089666434
0.89496386 0.4932012 0.089799501
0.89779913 0.49305844 0.089932635
0.7888658 0.49455053 0.089905404
0.79168963 0.4944084 0.090037949
0.79451346 0.49426627 0.090170562
0.84694755 0.52878129 0.09062729
0.84983397 0.52863598 0.090762794
0.85272056 0.52849072 0.09089835
0.84246552 0.53592956 0.090338431
0.84536344 0.53578371 0.090474449
0.8482613 0.53563792 0.090610527
0.82797605 0.53665876 0.089658119
0.8381561 0.54399174 0.089649834
0.84106731 0.54384524 0.089786559
0.84688985 0.5435521 0.090059914
0.84392381 0.46894926 0.091186993
0.84671158 0.46880901 0.091317914
0.84113616 0.46908966 0.091056138
0.81600499 0.47176629 0.092287786
0.81321728 0.47190672 0.092156924
0.85367215 0.47527951 0.091392174
0.80884451 0.478953 0.091708921
0.86091971 0.48264951 0.091057204
0.86373216 0.48250791 0.091189235
0.88209355 0.48842871 0.091839679
0.88491732 0.48828667 0.091972284
0.87362218 0.48885512 0.091441959
0.87644601 0.48871288 0.091574579
0.8864156 0.49506754 0.09185084
0.88925081 0.49492484 0.091983967
0.89208603 0.49478233 0.092117086
0.89492124 0.49463955 0.092250161
0.78882331 0.49598309 0.092346169
0.78709835 0.50293767 0.09209311
0.7899335 0.50279498 0.092226245
0.85115349 0.52075005 0.091355383
0.85402673 0.52060574 0.091490276
0.84540719 0.52103931 0.091085576
0.84828025 0.52089471 0.091220476
0.82793242 0.53812891 0.092162997
0.83228999 0.54576164 0.091892876
0.8352012 0.54561508 0.092029542
0.83811235 0.54546851 0.092166223
0.84102356 0.54532206 0.092302881
0.84388185 0.47036347 0.093596615
0.84666967 0.47022322 0.093727536
0.81879258 0.47162607 0.092418715
0.82158035 0.47148576 0.09254957
0.824368 0.47134554 0.092680417
0.82715571 0.47120523 0.092811339
0.82994348 0.47106501 0.092942201
0.83273107 0.47092471 0.093073122
0.83551878 0.4707844 0.093203977
0.83830661 0.47064424 0.093334831
0.8410942 0.47050387 0.093465753
0.86087734 0.48407617 0.093488149
0.86368984 0.48393476 0.093620174
0.86650211 0.48379317 0.093752205
0.80458713 0.48833346 0.093278199
0.80739957 0.48819199 0.093410231
0.79729468 0.4955568 0.092743948
0.80011857 0.49541461 0.092876509
0.80294234 0.49527252 0.093009107
0.79164714 0.49584103 0.092478789
0.79447085 0.4956989 0.092611335
0.84979063 0.53010035 0.093257785
0.85267711 0.52995521 0.093393333
0.85556364 0.52980989 0.093528837
0.84242195 0.53739983 0.092843249
0.84821773 0.53710812 0.093115397
0.85111564 0.53696221 0.093251474
0.84393477 0.54517567 0.092439555
0.84684604 0.54502922 0.09257628
0.84945732 0.47008294 0.093858398
0.81596303 0.47318056 0.094697356
0.81875068 0.47304034 0.09482827
0.82153839 0.47290003 0.094959125
0.82432604 0.47275975 0.095090039
0.81038761 0.47346103 0.094435573
0.81317526 0.47332087 0.094566494
0.85362995 0.47669944 0.093811631
0.8564291 0.47655866 0.093943
0.80880237 0.48037305 0.094128363
0.86931455 0.48365164 0.093884237
0.87775165 0.48322704 0.094280399
0.88205099 0.4898614 0.094280504
0.87357968 0.49028763 0.093882799
0.87640351 0.4901455 0.094015352
0.87922728 0.49000347 0.094147965
0.79725224 0.49698937 0.095184721
0.8892082 0.49636331 0.094434611
0.79160464 0.49727359 0.094919555
0.79442841 0.49713147 0.095052168
0.78705561 0.50437605 0.094543777
0.78989077 0.50423342 0.094676897
0.79272604 0.50409061 0.094810031
0.85549676 0.51508266 0.094154403
0.8583585 0.51493871 0.094288774
0.85398346 0.5220632 0.093973771
0.8568567 0.52191854 0.094108671
0.85972995 0.52177411 0.094243564
0.81946182 0.52525592 0.094838515
0.82088208 0.53301722 0.094397582
0.82376856 0.53287196 0.094533131
0.82788879 0.53959906 0.094667874
0.84941524 0.47149727 0.096267954
0.82711369 0.47261956 0.095220909
0.82990146 0.47247922 0.095351823
0.83268917 0.47233897 0.095482685
0.83547676 0.47219872 0.095613539
0.83826452 0.47205845 0.095744453
0.84105223 0.47191802 0.095875315
0.85358793 0.47811949 0.096231058
0.8563869 0.47797871 0.096362494
0.80876023 0.48179322 0.096547805
0.86364746 0.48536143 0.096051134
0.86645979 0.48521996 0.096183158
0.86927235 0.48507842 0.096315198
0.80454475 0.48976019 0.095709138
0.80735713 0.48961866 0.095841177
0.87353712 0.4917202 0.096323565
0.87636101 0.49157813 0.096456178
0.80007595 0.49684724 0.095317334
0.80289984 0.49670517 0.09544988
0.8778246 0.49837223 0.096352808
0.85681337 0.52337635 0.096592166
0.85263371 0.53141952 0.095888339
0.85552019 0.53127432 0.096023895
0.85840666 0.531129 0.096159376
0.8481741 0.53857833 0.095620282
0.85107201 0.53843248 0.095756344
0.81592089 0.47459483 0.097106971
0.81870878 0.47445455 0.097237885
0.82149637 0.4743143 0.09736874
0.82428408 0.47417402 0.097499661
0.82707185 0.47403377 0.097630516
0.82985955 0.4738934 0.097761378
0.8326472 0.47375324 0.097892292
0.81034565 0.47487536 0.096845195
0.81313336 0.47473508 0.096976124
0.88200849 0.49129397 0.096721329
0.88483232 0.49115175 0.096853897
0.80003351 0.49827987 0.097758107
0.8028574 0.49813762 0.097890727
0.8891654 0.4978016 0.096885279
0.79438585 0.49856409 0.097492941
0.79720962 0.498422 0.097625554
0.79835373 0.50524372 0.097526886
0.78701293 0.50581437 0.096994422
0.78984821 0.50567162 0.097127557
0.79268336 0.50552917 0.097260691
0.85955656 0.50852114 0.097372688
0.86117727 0.51624656 0.09689682
0.81534529 0.52000242 0.097220629
0.85968667 0.52323169 0.096727118
0.81654525 0.52685809 0.097187109
0.82083869 0.5344817 0.096892565
0.82372516 0.53433633 0.097028129
0.84233463 0.54034007 0.097853005
0.84523255 0.54019427 0.097989075
0.83074301 0.54092336 0.097308762
0.83364087 0.5407775 0.09744484
0.83653879 0.54063177 0.09758085
0.83943677 0.54048598 0.097716935
0.84244704 0.46643358 0.098595224
0.84522331 0.46629387 0.098725565
0.84937334 0.47291148 0.098677568
0.83543491 0.47361299 0.098023154
0.84101033 0.47333223 0.098284937
0.81030375 0.47628963 0.099254802
0.8130914 0.47614935 0.099385664
0.85634482 0.47939876 0.098781943
0.85914391 0.47925776 0.098913319
0.80871814 0.48321322 0.098967247
0.86079264 0.4869298 0.098349988
0.86360508 0.48678827 0.098482087
0.86641741 0.48664674 0.098614112
0.86922997 0.48650527 0.098746136
0.87766707 0.48608068 0.099142231
0.80450249 0.49118698 0.098140091
0.80731487 0.49104539 0.098272122
0.88196599 0.49272648 0.099162109
0.88478982 0.49258435 0.09929473
0.86784708 0.49343699 0.098499231
0.87067091 0.49329489 0.098631784
0.87349463 0.49315277 0.098764397
0.87914228 0.49286854 0.099029504
0.86113423 0.51769841 0.099370487
0.8596434 0.52468944 0.099210605
0.86251664 0.52454472 0.099345513
0.8525902 0.53288394 0.098383322
0.85547674 0.53273851 0.098518878
0.85836315 0.53259337 0.098654374
0.86124974 0.53244817 0.09878993
0.82079518 0.53594601 0.099387571
0.84813052 0.54004836 0.098125152
0.85102838 0.53990257 0.09826117
0.83685273 0.46812129 0.10073423
0.81866676 0.47586888 0.09964744
0.82145447 0.47572851 0.099778362
0.82424212 0.47558835 0.099909224
0.82702982 0.47544798 0.10004008
0.82981747 0.47530773 0.10017099
0.83260524 0.47516757 0.10030185
0.83539295 0.4750272 0.10043278
0.83818054 0.47488698 0.10056364
0.84096825 0.4747465 0.10069449
0.81587899 0.4760091 0.099516578
0.85793793 0.48849806 0.10064889
0.86075038 0.48835653 0.10078093
0.80445999 0.49261382 0.10057104
0.85650939 0.49543792 0.10040968
0.85933316 0.49529585 0.10054229
0.86215711 0.49515378 0.10067485
0.79999095 0.49971238 0.10019894
0.80281484 0.49957025 0.10033149
0.79434347 0.4999966 0.099933773
0.86072809 0.502105 0.10045541
0.79831111 0.50668222 0.099977553
0.78697038 0.50725281 0.099445082
0.78980547 0.50711006 0.099578217
0.79264069 0.50696737 0.099711351
0.86236227 0.50982291 0.099968642
0.86399597 0.51755434 0.099504814
0.8653897 0.52440006 0.099480413
0.81650203 0.52831566 0.099670596
0.82368165 0.53580076 0.09952312
0.82656819 0.53565538 0.099658675
0.84518892 0.54166442 0.1004939
0.84808689 0.54151857 0.10062997
0.85098475 0.54137272 0.10076606
0.82780153 0.54253942 0.099677563
0.83069944 0.54239351 0.099813648
0.83359736 0.54224777 0.09994965
0.83649522 0.54210186 0.10008574
0.83939308 0.54195613 0.10022181
0.842291 0.54181027 0.10035782
0.84240526 0.46784201 0.10099496
0.84518164 0.4677023 0.1011253
0.84933132 0.47432575 0.10108719
0.85211903 0.4741855 0.10121805
0.81862473 0.47728309 0.10205707
0.8214125 0.47714284 0.10218792
0.81026173 0.47770384 0.10166437
0.81304944 0.47756362 0.10179529
0.81583703 0.47742337 0.10192614
0.85350358 0.48095965 0.10106996
0.85630262 0.48081869 0.10120139
0.80867594 0.48463321 0.1013867
0.86356288 0.48821506 0.10091302
0.86498076 0.49501169 0.10080746
0.86780465 0.4948695 0.10094001
0.87062836 0.4947274 0.10107263
0.87345225 0.49458528 0.10120518
0.87627596 0.49444321 0.10133778
0.78692764 0.50869119 0.1018958
0.78976268 0.50854844 0.10202888
0.79259801 0.50840586 0.102162
0.79676104 0.51600987 0.10181689
0.79960948 0.51586652 0.10195063
0.86681467 0.51886225 0.10211287
0.81239742 0.52305019 0.10203357
0.86247337 0.52600229 0.101829
0.86534649 0.52585787 0.1019639
0.86821967 0.52571326 0.1020988
0.81358552 0.52991802 0.10201924
0.81645888 0.52977335 0.10215414
0.85254681 0.53434831 0.10087832
0.85543329 0.53420299 0.10101386
0.8583197 0.53405774 0.10114942
0.86120629 0.53391248 0.10128493
0.82075179 0.53741044 0.10188261
0.82363826 0.53726506 0.10201811
0.85388267 0.54122698 0.10090213
0.85678053 0.54108107 0.10103814
0.85967845 0.54093534 0.10117421
0.86127061 0.54872745 0.10080877
0.84236354 0.46925044 0.10339469
0.84513974 0.46911073 0.10352503
0.84650171 0.47588024 0.10336589
0.84928936 0.47574002 0.10349675
0.82420015 0.47700256 0.10231877
0.82977563 0.476722 0.10258055
0.83256322 0.47658178 0.10271148
0.83535093 0.47644147 0.10284233
0.8381387 0.47630119 0.10297325
0.84092629 0.47616082 0.10310412
0.84371412 0.47602054 0.10323504
0.8534615 0.48237959 0.10348941
0.80441779 0.49404067 0.10300199
0.86211455 0.49658623 0.10311568
0.86493826 0.4964442 0.10324823
0.86776209 0.49630207 0.10338084
0.87058586 0.49616003 0.1035134
0.79994851 0.50114495 0.10263971
0.80277234 0.50100291 0.10277233
0.81124365 0.50057662 0.10317003
0.79430085 0.50142914 0.10237455
0.86352068 0.50340074 0.1030392
0.86635584 0.50325799 0.10317233
0.79826838 0.50812048 0.10242821
0.80110353 0.50797778 0.10256134
0.80960917 0.50754982 0.10296067
0.8680163 0.51098132 0.10269825
0.86516792 0.51112467 0.10256446
0.81100351 0.51529318 0.10248566
0.87109298 0.52556866 0.1022337
0.8451454 0.54313463 0.10299877
0.8480432 0.54298872 0.10313486
0.85383904 0.54269701 0.10340694
0.8567369 0.54255134 0.10354301
0.83065575 0.54386377 0.10231846
0.86122662 0.55020434 0.10332509
0.81858277 0.47869736 0.10446662
0.82137054 0.47855711 0.10459755
0.82415819 0.4784168 0.1047284
0.82973361 0.47813627 0.10499017
0.81021971 0.47911817 0.10407399
0.81300741 0.47897789 0.1042049
0.81579512 0.47883764 0.10433576
0.83382565 0.48478562 0.10498895
0.80583471 0.48619419 0.10367476
0.80863386 0.48605326 0.10380614
0.87758237 0.48893425 0.1040042
0.88039488 0.48879272 0.10413622
0.88320714 0.48865128 0.10426826
0.87340963 0.49601796 0.103646
0.87623346 0.49587584 0.10377855
0.79425836 0.50286174 0.10481537
0.78972012 0.50998682 0.10447954
0.79255533 0.50984412 0.10461266
0.79956663 0.51731169 0.10441278
0.80241513 0.5171684 0.10454657
0.80526352 0.51702505 0.10468029
0.80811208 0.5168817 0.10481402
0.80376887 0.52493399 0.10410416
0.80663067 0.52479011 0.10423853
0.80949247 0.52464598 0.10437286
0.80090708 0.52507812 0.10396978
0.8624301 0.52746004 0.10431249
0.86530334 0.52731544 0.10444745
0.86817646 0.52717084 0.10458229
0.80204952 0.53195381 0.10396313
0.80492276 0.53180921 0.10409803
0.80779594 0.53166479 0.10423294
0.81066918 0.53152019 0.10436784
0.81354231 0.53137547 0.10450274
0.81641561 0.53123093 0.10463763
0.79917628 0.53209853 0.10382823
0.86116284 0.53537691 0.10377991
0.86404938 0.53523165 0.10391547
0.86693579 0.53508633 0.10405096
0.82070827 0.53887469 0.10437761
0.82359481 0.53872949 0.10451311
0.82648128 0.53858435 0.10464866
0.83225423 0.53829378 0.10491971
0.81493527 0.53916526 0.10410655
0.81782174 0.53902006 0.10424211
0.86253279 0.54225951 0.10381512
0.82566392 0.47149709 0.10501233
0.84645975 0.4772945 0.1057755
0.84924746 0.47715434 0.10590637
0.8325212 0.47799605 0.10512102
0.83530897 0.47785574 0.10525195
0.83809674 0.47771546 0.10538281
0.84088427 0.47757503 0.10551373
0.84367198 0.47743481 0.1056446
0.84222293 0.48436302 0.10538321
0.80579257 0.48761418 0.10609415
0.80859166 0.48747331 0.10622559
0.80437535 0.49546745 0.10543294
0.8071878 0.49532586 0.10556497
0.81281269 0.4950428 0.10582904
0.86771953 0.49773464 0.10582162
0.80272973 0.50243545 0.10521309
0.8055535 0.50229329 0.1053457
0.80106097 0.50941616 0.105012
0.80389607 0.50927353 0.10514513
0.80673128 0.50913084 0.10527826
0.84957337 0.53742236 0.10573287
0.83514076 0.53814852 0.10505521
0.8380273 0.53800321 0.10519077
0.84091383 0.53785807 0.10532626
0.80911881 0.54092008 0.10633056
0.84799963 0.54445899 0.10563973
0.85379541 0.54416728 0.10591181
0.85669333 0.54402155 0.10604789
0.86248916 0.54372984 0.10632003
0.86409414 0.55153483 0.1059782
0.86118293 0.55168134 0.10584147
0.8256222 0.47290552 0.10741206
0.82132858 0.47997132 0.10700709
0.82411623 0.47983107 0.10713802
0.82690394 0.47969079 0.10726887
0.82969165 0.47955048 0.10739974
0.83526701 0.47926995 0.10766151
0.83805472 0.47912973 0.10779244
0.81017774 0.48053238 0.10648361
0.81575316 0.48025191 0.10674533
0.79251266 0.5112825 0.10706332
0.79534787 0.51113981 0.10719646
0.80775279 0.53312236 0.10671642
0.81062591 0.53297776 0.10685132
0.86400586 0.53669596 0.10641046
0.86689234 0.53655082 0.10654595
0.82066488 0.54033917 0.10687259
0.82355136 0.54019397 0.10700814
0.82643789 0.54004866 0.10714366
0.82932442 0.5399034 0.10727921
0.83221078 0.53975815 0.10741469
0.83509737 0.53961289 0.10755019
0.83798385 0.53946775 0.10768574
0.81200528 0.540775 0.10646605
0.81489176 0.5406298 0.10660154
0.81777835 0.54048431 0.10673709
0.86538702 0.54358393 0.10645605
0.82767069 0.54694992 0.10719213
0.83056861 0.54680413 0.10732821
0.81169891 0.4750126 0.10916004
0.84641784 0.47870883 0.10818508
0.84920549 0.47856855 0.10831598
0.84363008 0.47884902 0.10805421
0.81013578 0.48194665 0.10889318
0.79795909 0.52812588 0.10878272
0.80082089 0.52798176 0.1089171
0.8036828 0.52783787 0.10905147
0.8495298 0.53888667 0.10822786
0.84087038 0.5393225 0.10782131
0.84375691 0.53917718 0.1079568
0.85664964 0.54549158 0.10855272
0.84216022 0.54622066 0.10787245
0.84505808 0.54607505 0.10800853
0.81725144 0.4747332 0.10942078
0.79246998 0.51272088 0.10951398
0.79530513 0.51257825 0.10964706
0.82350779 0.54165828 0.10950314
0.83216733 0.54122251 0.1099097
0.8350538 0.54107732 0.11004525
0.83794051 0.54093206 0.11018075
0.81773484 0.5419488 0.10923211
0.82062143 0.54180366 0.10936764
0.82472908 0.54856592 0.10956094
0.827627 0.54842007 0.10969702
0.83052498 0.54827422 0.10983309
0.83342278 0.54812843 0.10996917
0.83632076 0.54798257 0.11010517
0.82907194 0.55624658 0.10937068
0.81165707 0.47642103 0.11155982
0.8144334 0.4762814 0.11169018
0.80077779 0.52943367 0.11139077
0.80363965 0.52928978 0.1115251
0.81341267 0.53574854 0.11195326
0.81769133 0.54341328 0.1117271
0.82057792 0.54326791 0.11186266
0.82468539 0.55003613 0.11206581
0.83048129 0.54974437 0.11233797
0.82053453 0.54473239 0.11435764
