# .PCD v0.7 - Point Cloud Data file format
VERSION 0.7
FIELDS x y z
SIZE 4 4 4
TYPE F F F
COUNT 1 1 1
WIDTH 790
HEIGHT 1
VIEWPOINT 0 0 0 1 0 0 0
POINTS 790
DATA ascii
0.62456757 0.6969595 0.026963545
0.6277619 0.69679874 0.027113471
0.63095629 0.69663799 0.027263459
0.63415062 0.69647723 0.027413446
0.63734496 0.69631666 0.027563429
0.64053935 0.69615579 0.02771342
0.64373356 0.69599515 0.027863404
0.70229173 0.70128238 0.026823593
0.70550323 0.70112097 0.026974384
0.7087146 0.70095927 0.027125182
0.71192604 0.70079762 0.02727598
0.71513754 0.70063621 0.027426712
0.71834904 0.7004745 0.027577506
0.72156048 0.70031285 0.027728302
0.72477186 0.70015132 0.027879031
0.65012234 0.69567353 0.028163375
0.65331668 0.69551283 0.028313359
0.65651101 0.6953522 0.028463284
0.65970546 0.69519132 0.028613271
0.66289973 0.69503069 0.028763255
0.66609412 0.69486988 0.028913243
0.66928846 0.69470912 0.02906323
0.64692801 0.6958344 0.028013388
0.60854775 0.6993838 0.028974736
0.61174214 0.6992231 0.029124727
0.72798342 0.69998968 0.028029831
0.73119485 0.69982797 0.028180623
0.73440635 0.69966662 0.028331416
0.73761773 0.69950491 0.028482208
0.74082917 0.69934326 0.028632944
0.68939763 0.70355821 0.028996335
0.63090813 0.69825864 0.030024571
0.63410258 0.69809777 0.030174566
0.63729692 0.69793713 0.030324543
0.64368552 0.69761562 0.030624522
0.70545483 0.70275021 0.029750241
0.70866627 0.7025885 0.029901037
0.7118777 0.70242691 0.030051833
0.7150892 0.70226538 0.030202629
0.7183007 0.70210373 0.030353365
0.72151214 0.70194209 0.030504154
0.72472352 0.70178068 0.030654946
0.69903195 0.70307332 0.029448712
0.70224339 0.70291173 0.029599452
0.74941534 0.7184763 0.03071315
0.74414682 0.72865248 0.02954025
0.74740571 0.72848845 0.029693255
0.65646291 0.69697273 0.031224402
0.66285169 0.69665116 0.031524312
0.66604602 0.69649047 0.031674303
0.6692403 0.69632983 0.031824283
0.67243469 0.6961689 0.031974271
0.67562908 0.69600815 0.032124255
0.73435795 0.70129579 0.031107267
0.73756939 0.70113409 0.031258062
0.74078083 0.7009725 0.031408858
0.72793502 0.70161891 0.030805683
0.73114645 0.70145732 0.030956479
0.75265723 0.71831328 0.030865343
0.62076348 0.69144201 0.032903306
0.62394267 0.69128215 0.033052556
0.62712163 0.69112229 0.033201873
0.61440516 0.69176209 0.032604795
0.61758429 0.69160217 0.032754045
0.68201774 0.69568676 0.032424219
0.68521214 0.69552588 0.03257421
0.69160074 0.69520456 0.03287413
0.69479525 0.6950438 0.033024106
0.67882335 0.69584757 0.032274239
0.63405454 0.69971842 0.032935675
0.71182936 0.70405608 0.032827683
0.71504086 0.70389467 0.032978475
0.71825236 0.70373303 0.033129275
0.72146374 0.70357138 0.033280011
0.72467524 0.70340973 0.0334308
0.72788674 0.70324814 0.033581596
0.70861793 0.70421785 0.032676946
0.74936652 0.72012103 0.033515301
0.74409783 0.73030579 0.032357149
0.74735677 0.73014188 0.032510206
0.64619654 0.69016224 0.0340974
0.64937574 0.69000226 0.03424665
0.65255487 0.68984246 0.034395963
0.65891314 0.68952239 0.03469447
0.63983834 0.69048232 0.033798885
0.66599804 0.698111 0.034435414
0.66919231 0.69795024 0.034585401
0.67238665 0.69778955 0.034735385
0.6755811 0.69762868 0.034885373
0.60525733 0.70278567 0.034346923
0.73752105 0.70276344 0.034033917
0.74073249 0.70260173 0.034184713
0.73109812 0.7030865 0.033732392
0.73430961 0.70292497 0.033883184
0.76233393 0.71946859 0.034124091
0.75260848 0.71995777 0.033667505
0.7558502 0.71979475 0.033819702
0.75909215 0.71963155 0.033971891
0.62389475 0.692895 0.035800554
0.62707376 0.69273496 0.035949811
0.6302529 0.69257504 0.036099061
0.63661122 0.69225502 0.036397573
0.60799909 0.69369501 0.035054218
0.61117816 0.69353491 0.035203483
0.61435735 0.69337505 0.035352729
0.61753637 0.69321507 0.035501987
0.62071562 0.69305509 0.0356513
0.68516409 0.69714659 0.035335265
0.68835843 0.69698578 0.035485253
0.69155282 0.69682503 0.035635237
0.69474709 0.69666433 0.035785232
0.69794154 0.6965037 0.035935216
0.70113581 0.69634295 0.036085136
0.70433015 0.69618219 0.036235116
0.67877543 0.69746798 0.035035357
0.68196976 0.69730729 0.035185345
0.71499246 0.70552385 0.035754334
0.71820402 0.70536226 0.03590513
0.72141546 0.70520049 0.036055923
0.7246269 0.70503902 0.036206715
0.7278384 0.70487744 0.036357511
0.70856959 0.70584702 0.035452805
0.71178102 0.70568544 0.035603605
0.73530591 0.71347862 0.036170691
0.7385326 0.71331608 0.036322229
0.74931777 0.72176564 0.03631746
0.74404866 0.7319591 0.035174094
0.65250695 0.6914553 0.037143894
0.65568626 0.69129527 0.037293158
0.65886533 0.69113535 0.037442405
0.66204447 0.69097549 0.037591726
0.63979036 0.69209516 0.036546826
0.64296955 0.69193518 0.036696069
0.6461488 0.69177514 0.036845397
0.64932787 0.69161522 0.036994644
0.6723386 0.69941014 0.037496444
0.73104972 0.70471579 0.036508247
0.73426127 0.70455432 0.036659036
0.73747265 0.70439261 0.036809832
0.74068409 0.7042309 0.036960565
0.75255966 0.72160244 0.036469653
0.75580144 0.72143954 0.036621846
0.75904334 0.72127628 0.036774054
0.76228523 0.7211132 0.036926251
0.62702596 0.6943478 0.038697746
0.63020515 0.69418788 0.038846996
0.63338423 0.69402802 0.038996249
0.63656342 0.69386798 0.039145507
0.6079511 0.69530779 0.037802152
0.61113024 0.69514781 0.037951417
0.62384695 0.69450784 0.038548492
0.69150472 0.69844562 0.038396291
0.69469899 0.69828492 0.038546283
0.69789332 0.69812417 0.038696274
0.70108771 0.69796342 0.038846251
0.70428216 0.69780272 0.038996235
0.68192166 0.69892782 0.037946399
0.68511599 0.69876713 0.038096387
0.68831027 0.69860631 0.038246378
0.72457856 0.70666832 0.038982566
0.72779006 0.70650667 0.03913337
0.73525745 0.71511549 0.038959734
0.73848403 0.71495295 0.039111204
0.74602705 0.72357351 0.038967412
0.74926895 0.72341037 0.039119609
0.65563822 0.69290817 0.040041149
0.65881747 0.69274819 0.040190399
0.66199648 0.69258815 0.040339664
0.66517568 0.69242823 0.04048891
0.63974261 0.69370806 0.039294764
0.64292163 0.69354814 0.039444074
0.64610088 0.69338804 0.039593324
0.60472423 0.69708055 0.040400844
0.60790336 0.69692051 0.040550157
0.67229038 0.70103061 0.040257558
0.73100144 0.70634508 0.039284166
0.76429731 0.71365404 0.040323172
0.62010646 0.68735379 0.041701559
0.61377859 0.68767232 0.041404456
0.61694252 0.68751293 0.041552983
0.66835475 0.69226831 0.04063816
0.67471319 0.69194829 0.040936671
0.67789233 0.69178838 0.041085929
0.69784534 0.6997447 0.041457385
0.70742834 0.69926256 0.041907344
0.72774166 0.7081359 0.041909222
0.73520887 0.71675229 0.041748773
0.73843551 0.71659005 0.041900232
0.74922025 0.72505504 0.041921768
0.7427364 0.72538131 0.041617371
0.74597818 0.72521818 0.041769575
0.64858186 0.68592077 0.04303851
0.65174586 0.68576163 0.043187082
0.65876961 0.69436097 0.042938337
0.6619488 0.69420093 0.043087602
0.66512793 0.69404113 0.043236844
0.66830713 0.69388121 0.043386094
0.64287388 0.69516081 0.042192012
0.65241134 0.69468081 0.042639837
0.65559053 0.69452095 0.042789087
0.71062273 0.69910181 0.042057328
0.713817 0.69894105 0.042207312
0.71701139 0.6987803 0.042357296
0.72020566 0.69861954 0.042507224
0.7309531 0.70797426 0.042060018
0.76424873 0.71529108 0.043112203
0.75134218 0.71594048 0.042506225
0.75456876 0.71577811 0.042657685
0.75779545 0.71561575 0.042809218
0.76102215 0.71545339 0.042960688
0.75246203 0.7248919 0.042073961
0.76218766 0.72440243 0.042530566
0.76542938 0.72423947 0.042682812
0.76867127 0.72407627 0.042835016
0.77191311 0.72391301 0.042987216
0.62322289 0.68879968 0.044584904
0.6263867 0.68864059 0.044733487
0.61056697 0.68943655 0.043990694
0.61373097 0.68927729 0.044139277
0.6168949 0.68911815 0.044287864
0.62005883 0.68895894 0.044436373
0.68738192 0.69292116 0.04428174
0.69056112 0.69276118 0.044430993
0.69374025 0.6926012 0.044580251
0.67466539 0.69356114 0.043684665
0.67784452 0.69340122 0.043833926
0.6810236 0.69324112 0.04398318
0.68420279 0.69308108 0.044132434
0.69779718 0.70136529 0.044218503
0.73838687 0.71822691 0.044689275
0.74268764 0.72702599 0.044419531
0.74592954 0.72686279 0.044571728
0.6295507 0.68848127 0.044882007
0.63271457 0.68832207 0.04503059
0.6358785 0.68816286 0.045179106
0.63904244 0.6880036 0.045327693
0.64537036 0.68768519 0.045624796
0.6485343 0.68752605 0.04577332
0.70009845 0.69228119 0.044878758
0.70327759 0.69212127 0.045028012
0.66508007 0.69565398 0.045984842
0.66825926 0.69549394 0.046134092
0.64282596 0.69677371 0.04494001
0.65236336 0.69629371 0.045387767
0.65554267 0.69613385 0.045537025
0.65872175 0.69597393 0.045686271
0.66190088 0.69581389 0.04583554
0.7137689 0.70056164 0.044968367
0.72015756 0.70024014 0.045268342
0.72335202 0.70007938 0.045418262
0.73090476 0.70960349 0.044835873
0.75452018 0.71741509 0.04544672
0.75774688 0.71725291 0.045598242
0.76862246 0.72572088 0.045637175
0.77186424 0.72555768 0.045789376
0.60735548 0.69120091 0.046576984
0.61051935 0.69104165 0.046725571
0.6136834 0.69088244 0.046874087
0.61684728 0.69072336 0.047022611
0.62001121 0.6905641 0.04717119
0.62317514 0.69040489 0.047319714
0.62633902 0.69024563 0.047468305
0.69051325 0.69437402 0.047178932
0.69369239 0.69421411 0.047328189
0.67143834 0.69533396 0.046283357
0.67461747 0.69517404 0.046432599
0.6777966 0.69501412 0.046581857
0.68097585 0.69485408 0.04673117
0.68415493 0.69469404 0.04688042
0.68733406 0.69453394 0.047029685
0.69136041 0.70330727 0.046679646
0.69455469 0.70314658 0.046829633
0.69774914 0.70298576 0.046979621
0.62950295 0.69008648 0.047616817
0.63266695 0.68992728 0.047765404
0.63583088 0.68976802 0.047913924
0.63899487 0.68960875 0.0480625
0.64532268 0.6892904 0.048359551
0.64848661 0.68913114 0.04850813
0.70005071 0.69389415 0.047626697
0.70322978 0.69373417 0.047775947
0.70640892 0.69357419 0.047925264
0.70958811 0.69341421 0.048074514
0.71594644 0.69309419 0.048373029
0.66821128 0.69710672 0.048882034
0.6427781 0.69838649 0.047687944
0.64595735 0.69822669 0.04783719
0.65231556 0.69790667 0.048135705
0.65549475 0.69774669 0.048284963
0.65867394 0.69758677 0.048434213
0.66185302 0.69742674 0.04858353
0.72649825 0.70153916 0.048329368
0.73406786 0.71107125 0.047762517
0.75447166 0.71905196 0.048235763
0.7576983 0.71888965 0.048387229
0.76092499 0.71872741 0.048538752
0.76415157 0.71856505 0.048690218
0.6041438 0.69296515 0.049163222
0.61047167 0.69264686 0.049460329
0.61363566 0.6924876 0.049608909
0.61679959 0.69232845 0.049757432
0.61996359 0.69216919 0.049906015
0.62312752 0.69201005 0.050054535
0.62629133 0.69185084 0.050203059
0.62945533 0.69169152 0.050351642
0.70000279 0.69550705 0.050374694
0.67139047 0.69694686 0.049031295
0.67456961 0.69678688 0.049180537
0.67774874 0.69662684 0.049329862
0.68092787 0.69646692 0.049479108
0.68410707 0.69630688 0.049628355
0.6872862 0.69614691 0.04977762
0.63261938 0.69153243 0.050500218
0.63578326 0.69137317 0.050648738
0.63894719 0.69121385 0.050797265
0.64843905 0.69073617 0.051242955
0.72225678 0.69438708 0.051419538
0.70318186 0.69534689 0.050523952
0.70636111 0.69518703 0.050673202
0.70954019 0.69502711 0.050822452
0.71271938 0.69486707 0.050971709
0.71589857 0.6947071 0.051121026
0.71907777 0.69454718 0.051270269
0.67134255 0.69855964 0.051779285
0.66180515 0.69903958 0.051331468
0.66816348 0.69871956 0.051630031
0.72964454 0.702999 0.051240467
0.75442308 0.72068906 0.051024728
0.75764972 0.72052664 0.051176261
0.76087636 0.72036439 0.051327787
0.764103 0.72020197 0.05147925
0.76732969 0.72003949 0.051630724
0.77055633 0.71987724 0.051782243
0.60680801 0.68546569 0.05257757
0.66425878 0.68994021 0.051985681
0.61042404 0.69425195 0.052195147
0.61358804 0.69409281 0.052343722
0.61675203 0.69393355 0.052492246
0.6199159 0.69377434 0.052640826
0.62307984 0.69361526 0.052789349
0.62624377 0.69345582 0.052937925
0.6294077 0.69329673 0.053086452
0.60409629 0.69457042 0.051898032
0.60726017 0.69441122 0.052046616
0.67452174 0.69839972 0.051928535
0.67770088 0.69823968 0.052077793
0.68088001 0.69807976 0.052227043
0.6840592 0.69791979 0.052376293
0.68723834 0.69775975 0.052525558
0.69041753 0.69759977 0.052674863
0.69359666 0.69743985 0.052824121
0.69677579 0.69727975 0.052973375
0.63573557 0.69297826 0.053383559
0.63889951 0.692819 0.053532138
0.64206344 0.6926598 0.053680666
0.64522743 0.69250059 0.053829182
0.64839137 0.69234133 0.053977773
0.65155524 0.69218218 0.054126289
0.65471923 0.69202304 0.054274868
0.65788323 0.69186378 0.054423392
0.63257164 0.69313747 0.053234983
0.70631319 0.69679987 0.053421196
0.70949244 0.69664001 0.053570449
0.71267152 0.6964798 0.053719707
0.71585065 0.69631994 0.053868964
0.71902984 0.69616002 0.054018203
0.72220898 0.69600004 0.054167472
0.72538811 0.69584 0.054316722
0.67129475 0.70017254 0.054527219
0.73279071 0.70445877 0.05415152
0.7359851 0.70429808 0.054301508
0.75760108 0.72216368 0.053965293
0.76405442 0.72183901 0.054268289
0.76728117 0.72167665 0.054419748
0.66421109 0.69154531 0.054720502
0.61354041 0.6956979 0.05507854
0.61670434 0.6955387 0.055227064
0.61986834 0.69537944 0.055375636
0.62303227 0.69522017 0.05552417
0.62619609 0.69506109 0.055672679
0.62936008 0.69490176 0.05582127
0.63252407 0.69474268 0.055969853
0.60404855 0.69617552 0.054632843
0.60721248 0.69601637 0.054781437
0.61037654 0.69585717 0.054929953
0.67765301 0.69985253 0.054825734
0.68083221 0.69969261 0.054974981
0.68401134 0.69953251 0.055124234
0.68719047 0.69937265 0.055273548
0.69036961 0.69921273 0.055422798
0.6935488 0.69905257 0.055572063
0.69672787 0.69889271 0.055721313
0.69990706 0.69873273 0.055870626
0.67447394 0.70001251 0.054676477
0.69901448 0.68979406 0.056354541
0.70217842 0.68963492 0.056503125
0.64201599 0.69426501 0.056415472
0.64517981 0.69410563 0.056564
0.6483438 0.69394654 0.056712583
0.65150768 0.69378746 0.056861103
0.65467167 0.69362813 0.057009682
0.6578356 0.69346893 0.057158202
0.66099954 0.69330972 0.057306796
0.63568801 0.69458354 0.056118369
0.63885206 0.69442415 0.056266896
0.60400099 0.69778079 0.057367668
0.70626533 0.69841278 0.05616913
0.70944446 0.69825286 0.056318384
0.7126236 0.69809282 0.056467637
0.72534031 0.69745284 0.057064719
0.72851938 0.69729275 0.05721397
0.75319153 0.71498942 0.056994908
0.75961441 0.71466607 0.057296433
0.6673274 0.69299126 0.057603832
0.66416347 0.69315052 0.057455312
0.61665678 0.69714379 0.057961881
0.61982065 0.69698459 0.058110453
0.62298471 0.6968255 0.058258981
0.62931246 0.69650698 0.058556084
0.63247639 0.69634771 0.058704615
0.60716498 0.69762146 0.057516247
0.61032885 0.69746226 0.057664767
0.61349279 0.69730306 0.05781335
0.68078429 0.70130551 0.057722971
0.68396342 0.70114547 0.057872232
0.69032174 0.70082551 0.058170736
0.693501 0.70066547 0.058319997
0.69668007 0.70050555 0.058469303
0.67442596 0.70162529 0.057424411
0.67760509 0.70146549 0.057573669
0.76924872 0.7141813 0.05774875
0.74892724 0.73492295 0.058734708
0.70213079 0.69123995 0.059237935
0.71478653 0.69060326 0.059832141
0.71795058 0.69044381 0.059980668
0.72111452 0.69028467 0.060129181
0.64513218 0.6957109 0.059298821
0.64829612 0.69555163 0.0594474
0.65146005 0.69539255 0.05959592
0.65462399 0.69523329 0.0597445
0.65778798 0.69507396 0.059893019
0.66095185 0.69491488 0.060041606
0.66411591 0.69475567 0.060190119
0.63564038 0.69618845 0.058853187
0.63880426 0.69602942 0.059001774
0.64196819 0.6958701 0.059150293
0.6039533 0.69938576 0.060102485
0.70939666 0.69986564 0.059066318
0.71257573 0.6997056 0.059215575
0.70621753 0.70002562 0.058917068
0.74993169 0.7167803 0.059619971
0.75314313 0.7166186 0.059770763
0.75635457 0.71645689 0.059921555
0.68626344 0.69364119 0.061229959
0.66727984 0.69459641 0.060338706
0.67044377 0.69443727 0.060487233
0.61977303 0.69858968 0.060845278
0.62293696 0.69843048 0.060993798
0.62926483 0.69811213 0.061290905
0.63242877 0.69795293 0.061439484
0.63559258 0.69779366 0.061588004
0.6071173 0.69922662 0.060251065
0.61028117 0.69906741 0.060399584
0.69027394 0.70243829 0.060918726
0.69663221 0.7021184 0.061217241
0.76277751 0.71613371 0.06022308
0.76598901 0.71597207 0.06037388
0.76920044 0.7158106 0.060524665
0.6255582 0.68930745 0.061629646
0.70208323 0.69284517 0.061972752
0.71473902 0.69220817 0.062566899
0.71790296 0.69204903 0.062715486
0.72106671 0.6918897 0.062864065
0.6989193 0.69300431 0.061824173
0.64824855 0.69715685 0.062182218
0.65141243 0.69699758 0.06233073
0.65457636 0.69683844 0.062479317
0.65774029 0.69667923 0.06262783
0.66090429 0.69651991 0.062776424
0.66406822 0.69636071 0.062924944
0.63875669 0.69763446 0.061736532
0.64192069 0.69747525 0.061885104
0.64508456 0.69731599 0.062033638
0.60390568 0.70099103 0.062837295
0.60706961 0.70083171 0.062985875
0.74988341 0.71840954 0.062395878
0.75309485 0.71824777 0.062546618
0.61291593 0.69153845 0.063759997
0.61606467 0.69138014 0.063907847
0.62551081 0.6909048 0.064351335
0.72739476 0.69157141 0.063161105
0.73055869 0.69141215 0.063309692
0.72423083 0.69173062 0.063012585
0.67672396 0.69572383 0.063519157
0.67988789 0.69556475 0.06366767
0.68305194 0.6954056 0.063816257
0.68621576 0.69524622 0.063964784
0.69254375 0.69492787 0.064261883
0.66723222 0.69620144 0.063073471
0.67039615 0.69604242 0.063222051
0.67356008 0.69588315 0.063370623
0.62921721 0.69971722 0.064025715
0.63554507 0.69939882 0.064322822
0.6228894 0.70003581 0.063728608
0.7582013 0.70803452 0.063634634
0.70519954 0.694291 0.06485609
0.70836353 0.69413179 0.065004617
0.71152741 0.69397247 0.065153189
0.7146914 0.69381344 0.065301776
0.71785527 0.69365412 0.065450296
0.72101921 0.69349492 0.065598823
0.7241832 0.69333565 0.06574741
0.69887167 0.69460952 0.064558983
0.70203561 0.69445026 0.06470757
0.6545288 0.69844347 0.065214135
0.65769267 0.69828433 0.065362655
0.66085654 0.69812518 0.065511234
0.6640206 0.69796586 0.065659754
0.63870901 0.69923973 0.064471401
0.641873 0.69908041 0.064619921
0.64503688 0.69892126 0.064768441
0.64820081 0.69876194 0.064917028
0.65136468 0.69860274 0.065065548
0.60385805 0.70259595 0.06557212
0.60702205 0.7024368 0.0657207
0.74983501 0.72003871 0.065171741
0.75095356 0.72903621 0.064818382
0.61601722 0.69297749 0.066629544
0.61916596 0.69281912 0.066777326
0.62546337 0.6925022 0.067073032
0.60971975 0.69329441 0.066333838
0.61286849 0.69313598 0.066481687
0.72734714 0.69317657 0.065895922
0.67984033 0.69716978 0.066402547
0.68300432 0.69701064 0.066551067
0.68616819 0.69685149 0.066699594
0.68933213 0.69669223 0.066848174
0.69249606 0.69653302 0.066996701
0.69566005 0.69637376 0.067145281
0.66718453 0.69780678 0.065808341
0.67034847 0.69764757 0.065956861
0.67351246 0.69748819 0.066105381
0.67667645 0.69732904 0.066253968
0.62916958 0.70132244 0.066760533
0.63233352 0.70116323 0.066909112
0.63549739 0.70100409 0.067057632
0.61018598 0.70227778 0.065869212
0.61651385 0.70195919 0.066166326
0.61967778 0.70179999 0.066314913
0.62284172 0.70164078 0.066463433
0.62600565 0.70148158 0.066611946
0.7581532 0.70965505 0.066395693
0.76134759 0.70949441 0.066545673
0.76454198 0.70933366 0.066695653
0.75495893 0.70981598 0.066245757
0.63176084 0.69218534 0.067368664
0.70831585 0.69573694 0.067739487
0.71147972 0.69557768 0.067888007
0.71464366 0.69541842 0.068036534
0.71780771 0.69525933 0.068185106
0.72097152 0.69510007 0.068333693
0.72413558 0.69494087 0.06848222
0.69882399 0.69621456 0.0672938
0.70198792 0.69605541 0.067442387
0.70515192 0.69589609 0.067590907
0.66397297 0.69957095 0.068394572
0.66713697 0.69941187 0.068543091
0.63866144 0.70084482 0.067206159
0.64182538 0.70068556 0.067354739
0.64498925 0.70052624 0.067503259
0.64815336 0.70036715 0.067651838
0.65131724 0.70020789 0.067800365
0.76970482 0.70005172 0.067398258
0.60697442 0.70404196 0.068455517
0.60381043 0.70420116 0.06830693
0.75299817 0.72150624 0.068098381
0.63728911 0.73058236 0.068222046
0.64050061 0.73042089 0.068372838
0.75090492 0.73067313 0.067607366
0.63086629 0.73090577 0.067920461
0.70245653 0.73474556 0.068123989
0.70568323 0.73458314 0.068275511
0.71213651 0.73425847 0.068578497
0.6128211 0.69473356 0.069203332
0.72729951 0.6947816 0.06863074
0.68612045 0.69845659 0.069434412
0.6892845 0.69829744 0.069582991
0.6924485 0.69813812 0.069731519
0.69561231 0.69797903 0.069880091
0.6703009 0.69925255 0.068691686
0.67346483 0.69909346 0.068840258
0.67662877 0.6989342 0.068988793
0.67979276 0.69877499 0.069137305
0.68295664 0.69861591 0.069285884
0.63228589 0.70276833 0.06964387
0.63544983 0.70260918 0.069792449
0.63861376 0.70245004 0.069941036
0.76647776 0.70182461 0.069996946
0.61013824 0.70388275 0.06860403
0.61330223 0.70372361 0.068752609
0.61646628 0.70356441 0.068901144
0.61963022 0.7034052 0.069049723
0.62279409 0.70324594 0.069198243
0.62595797 0.70308679 0.069346823
0.62912196 0.70292753 0.069495358
0.70602608 0.70647699 0.06990888
0.76129949 0.71111494 0.069306791
0.76449382 0.71095425 0.069456778
0.75171643 0.7115972 0.068856835
0.75491083 0.71143651 0.069006816
0.76905543 0.72069824 0.068852291
0.64692354 0.73009759 0.068674371
0.65013498 0.729936 0.068825163
0.65334642 0.72977442 0.068975955
0.65655786 0.72961295 0.069126688
0.60833794 0.733666 0.069640882
0.71536314 0.73409611 0.068729967
0.7185899 0.73393381 0.068881489
0.72181654 0.73377138 0.06903296
0.65375465 0.69267362 0.071125209
0.65690339 0.69251519 0.071273059
0.71143216 0.69718277 0.070622817
0.71459609 0.69702369 0.070771411
0.71776003 0.69686443 0.070919931
0.72092396 0.69670522 0.071068458
0.6987763 0.69781989 0.070028625
0.70194036 0.69766051 0.070177205
0.70510423 0.69750136 0.070325717
0.70826823 0.69734198 0.070474245
0.66392535 0.70117617 0.071129389
0.66708928 0.70101696 0.071277976
0.64177775 0.70229065 0.070089564
0.64494169 0.70213151 0.070238084
0.64810562 0.70197213 0.070386663
0.6512695 0.70181298 0.070535176
0.65443349 0.70165378 0.070683762
0.7696569 0.70166469 0.070146196
0.61009067 0.70548797 0.071338855
0.60376281 0.70580631 0.071041755
0.60692668 0.70564711 0.071190335
0.70920527 0.70631707 0.070058137
0.71238434 0.70615703 0.070207439
0.71556348 0.70599705 0.070356704
0.71874273 0.70583707 0.070505947
0.61691433 0.71418202 0.071225464
0.75294977 0.72313559 0.070874251
0.75616115 0.72297388 0.071025036
0.76258415 0.72265071 0.071326628
0.76376289 0.73166066 0.071002387
0.76698965 0.73149818 0.071153909
0.75085646 0.73231012 0.070396394
0.66005218 0.69235671 0.071420901
0.68923694 0.69990253 0.072317801
0.69240081 0.69974333 0.072466336
0.69556481 0.69958413 0.072614908
0.69872874 0.69942486 0.072763436
0.67025316 0.70085776 0.071426496
0.67341721 0.70069849 0.071575016
0.6765812 0.70053941 0.071723603
0.67974502 0.70038009 0.07187219
0.68290907 0.70022088 0.07202071
0.68607301 0.70006186 0.072169237
0.63856614 0.70405507 0.072675787
0.75689238 0.70391744 0.072297119
0.76642984 0.70343739 0.072744876
0.61325467 0.7053287 0.071487449
0.6164186 0.70516962 0.071635962
0.61958247 0.70501024 0.071784541
0.62274641 0.70485109 0.071933068
0.62591028 0.70469195 0.072081573
0.62907428 0.70453274 0.072230175
0.63223821 0.70437354 0.072378747
0.63540214 0.70421427 0.072527267
0.70279902 0.70824981 0.072507612
0.70597816 0.70808965 0.07265687
0.69961995 0.70840979 0.072358362
0.64870578 0.71258235 0.072718062
0.76444572 0.71257472 0.072217904
0.62645161 0.7137022 0.071673222
0.6296308 0.71354228 0.071822472
0.63281 0.71338224 0.071971729
0.63598907 0.71322221 0.072121046
0.6391682 0.71306217 0.072270297
0.64234746 0.71290219 0.072419547
0.64552653 0.71274227 0.072568804
0.75486267 0.71305704 0.071767941
0.76125145 0.71273565 0.072067909
0.71328807 0.71676725 0.072579347
0.7164824 0.71660656 0.072729342
0.70370495 0.71724963 0.072129406
0.70689934 0.7170887 0.072279394
0.71009374 0.71692801 0.072429381
0.64296424 0.72192413 0.072040908
0.76579559 0.722489 0.071477421
0.65685612 0.69411266 0.073994689
0.66000479 0.69395411 0.074142538
0.72087628 0.69831032 0.073803328
0.72404027 0.69815117 0.073951855
0.70189267 0.69926566 0.072912015
0.66387767 0.70278138 0.073864214
0.66704166 0.70262206 0.074012741
0.67020559 0.70246285 0.074161321
0.64173007 0.70389575 0.072824374
0.644894 0.70373648 0.072972901
0.648058 0.70357734 0.073121473
0.65122187 0.70341814 0.073270008
0.65438592 0.70325899 0.073418587
0.65754986 0.70309979 0.073567107
0.76960909 0.70327735 0.072894141
0.60371518 0.70741147 0.073776565
0.60687912 0.70725244 0.073925152
0.61004305 0.70709306 0.074073672
0.70915729 0.70792985 0.072806127
0.71233648 0.70776987 0.072955377
0.71551567 0.70760995 0.073104642
0.71869475 0.70744997 0.073253885
0.72187394 0.70729005 0.073403135
0.65188491 0.71242231 0.072867379
0.65506411 0.71226233 0.073016636
0.60732907 0.71627492 0.073525637
0.71967679 0.7164458 0.072879329
0.72287107 0.71628511 0.073029257
0.61416709 0.72499138 0.073452272
0.75290149 0.72476482 0.073650151
0.75611293 0.72460318 0.073800892
0.75932437 0.72444165 0.073951684
0.67898977 0.73011088 0.072958104
0.68220127 0.7299493 0.073108844
0.6854127 0.72978771 0.073259629
0.68862408 0.72962606 0.073410429
0.76048774 0.73345989 0.073639944
0.75403452 0.73378468 0.073336907
0.75726116 0.73362231 0.073488422
0.72302705 0.68918771 0.074377611
0.72617579 0.68902934 0.074525453
0.69235319 0.70134836 0.075201146
0.69551706 0.70118928 0.075349726
0.67336953 0.70230383 0.074309886
0.6765334 0.70214456 0.074458428
0.67969745 0.70198536 0.07460694
0.68286139 0.7018261 0.07475552
0.68602526 0.70166683 0.074904047
0.68918926 0.70150769 0.075052634
0.75684458 0.70553029 0.075045049
0.61320704 0.70693386 0.074222252
0.61953491 0.70661545 0.074519351
0.6226989 0.70645624 0.074667878
0.69639289 0.71018267 0.07495705
0.69957209 0.71002269 0.0751063
0.75800896 0.71451694 0.074679047
0.69087952 0.71951294 0.074290581
0.69407386 0.7193523 0.074440561
0.65995729 0.69555157 0.076864235
0.72399271 0.69975626 0.07668668
0.72715664 0.69959712 0.076835193
0.73032057 0.69943792 0.076983772
0.67015785 0.70406812 0.076896131
0.65750211 0.70470482 0.076301917
0.66066605 0.70454568 0.076450504
0.66383004 0.70438647 0.076599024
0.66699398 0.70422727 0.076747611
0.60366756 0.70901668 0.076511391
0.60999548 0.70869827 0.076808482
0.61315936 0.70853901 0.076957069
0.72500527 0.70874292 0.076300398
0.66137439 0.71355528 0.076063067
0.61046028 0.71772778 0.076422818
0.68215287 0.73157847 0.075884759
0.68536431 0.73141688 0.076035492
0.7261284 0.6906268 0.077247091
0.72927713 0.69046837 0.07739494
0.73348451 0.69927859 0.077132292
0.6733219 0.70390886 0.077044643
0.67648584 0.70374966 0.077193238
0.67964977 0.70359039 0.077341825
0.68281382 0.70343125 0.077490345
0.68597764 0.70327204 0.07763885
0.68914163 0.70311278 0.077787451
0.69230562 0.70295358 0.077935964
0.61632335 0.70837986 0.077105597
0.69634509 0.71179557 0.077704981
0.67327428 0.70551407 0.079779528
0.65745461 0.70631009 0.079036728
0.66378248 0.70599163 0.079333834
0.66694641 0.70583248 0.079482369
0.67011034 0.70567322 0.079630949
0.67643827 0.70535481 0.079928048
0.67960215 0.70519555 0.080076568
0.68276614 0.7050364 0.080225147
0.68593007 0.70487714 0.080373667
