# .PCD v0.7 - Point Cloud Data file format
VERSION 0.7
FIELDS x y z
SIZE 4 4 4
TYPE F F F
COUNT 1 1 1
WIDTH 1464
HEIGHT 1
VIEWPOINT 0 0 0 1 0 0 0
POINTS 1464
DATA ascii
0.36592805 0.43145382 0.17983034
0.36850861 0.43132386 0.17995149
0.37315354 0.43703929 0.18041195
0.3757436 0.43690887 0.18053353
0.39087307 0.4407894 0.17925389
0.39347264 0.44065863 0.17937596
0.39607218 0.4405278 0.17949799
0.39867175 0.44039699 0.17962006
0.40127137 0.44026622 0.1797421
0.40387094 0.44013533 0.17986417
0.40647045 0.44000462 0.17998621
0.40907004 0.43987373 0.18010826
0.41166961 0.43974301 0.18023032
0.44782129 0.44349411 0.17953958
0.41383943 0.44652665 0.1802028
0.41645035 0.44639534 0.18032536
0.41906136 0.44626394 0.18044795
0.42167234 0.44613251 0.18057057
0.4502005 0.44934368 0.17992815
0.45282093 0.44921178 0.18005121
0.45544142 0.44907993 0.18017426
0.45806184 0.44894812 0.18029727
0.4606823 0.44881627 0.18042029
0.43709818 0.45000309 0.179313
0.43971851 0.44987112 0.17943604
0.44233906 0.44973937 0.17955907
0.44495949 0.44960746 0.17968214
0.4630892 0.45560455 0.18043187
0.46572104 0.45547208 0.18055542
0.48671642 0.45906702 0.17956761
0.48143366 0.45933285 0.17931958
0.48407501 0.45919997 0.1794436
0.49456325 0.46559775 0.1798626
0.49721605 0.46546426 0.17998713
0.49986881 0.46533078 0.18011172
0.50252151 0.46519738 0.18023627
0.50517434 0.46506378 0.18036076
0.5078271 0.46493036 0.18048537
0.53981674 0.46890825 0.17962883
0.54248089 0.46877417 0.17975394
0.53182417 0.4693104 0.17925361
0.53448844 0.46917638 0.17937869
0.53715259 0.46904224 0.1795038
0.58539945 0.4712708 0.17980367
0.5479278 0.47451082 0.18035726
0.55060148 0.47437623 0.18048279
0.57496893 0.47874355 0.17927825
0.57765394 0.47860843 0.17940432
0.58033913 0.47847337 0.17953038
0.24733099 0.4098188 0.18067659
0.24986029 0.40969157 0.18079539
0.25238949 0.40956426 0.18091412
0.22452965 0.41224739 0.18179408
0.22705889 0.41212019 0.18191284
0.25394756 0.41539931 0.18116884
0.2564863 0.41527164 0.18128802
0.25902504 0.41514382 0.1814072
0.26156378 0.41501608 0.18152641
0.26664132 0.41476053 0.1817648
0.26918006 0.41463286 0.18188401
0.27574077 0.42115325 0.1819904
0.26299003 0.42179489 0.18139173
0.26809031 0.42153811 0.18163116
0.30816856 0.42415863 0.18151461
0.31072822 0.4240298 0.18163477
0.31328782 0.4239009 0.18175496
0.31840724 0.42364341 0.18199532
0.2902509 0.42506015 0.18067333
0.29281059 0.42493144 0.18079351
0.29537025 0.42480254 0.18091369
0.29792994 0.42467377 0.18103386
0.30048957 0.42454505 0.18115406
0.30304924 0.42441627 0.18127422
0.3459816 0.426893 0.18129171
0.34855089 0.42676374 0.18141231
0.35112002 0.42663437 0.18153298
0.35368919 0.42650512 0.18165362
0.35625833 0.42637581 0.18177421
0.35882747 0.42624655 0.18189485
0.33313584 0.42753941 0.18068859
0.33570504 0.42741022 0.1808092
0.33827415 0.42728084 0.18092984
0.34084335 0.42715147 0.18105046
0.34341252 0.42702234 0.18117109
0.30483648 0.43026492 0.18158242
0.3581475 0.43315247 0.18169741
0.36330864 0.43289277 0.18193975
0.37833363 0.43677852 0.18065517
0.38092366 0.43664825 0.18077675
0.38563481 0.44236979 0.1812568
0.38823432 0.44223902 0.18137881
0.39083394 0.4421083 0.18150087
0.39343345 0.44197747 0.18162292
0.39603311 0.44184676 0.18174498
0.39863262 0.44171581 0.18186703
0.40123221 0.441585 0.18198906
0.38303524 0.44250068 0.18113473
0.44778198 0.44481868 0.18179642
0.42428327 0.44600126 0.18069312
0.42689425 0.44586977 0.18081571
0.42919728 0.45172811 0.18120894
0.43181768 0.45159614 0.18133198
0.4344382 0.45146435 0.18145505
0.43705866 0.45133242 0.18157808
0.43967909 0.45120063 0.18170106
0.4422996 0.45106876 0.18182415
0.44492006 0.45093691 0.18194717
0.47624853 0.45494235 0.1810497
0.46835294 0.45533967 0.18067901
0.47098482 0.45520711 0.18080257
0.47361663 0.45507464 0.18092614
0.48403528 0.46054003 0.18172674
0.4866766 0.46040708 0.18185076
0.48931804 0.46027425 0.18197475
0.48139393 0.46067286 0.18160273
0.51047981 0.46479687 0.1806099
0.51313269 0.46466327 0.18073447
0.5157854 0.46452978 0.18085901
0.51843816 0.46439639 0.18098354
0.52109098 0.4642629 0.18110809
0.52374375 0.46412936 0.18123266
0.52639645 0.46399587 0.18135719
0.52904934 0.46386233 0.18148175
0.53711247 0.47039396 0.18180658
0.53178412 0.47066215 0.18155643
0.58268553 0.47276184 0.18198918
0.55327511 0.47424182 0.18060832
0.57492846 0.48010573 0.18159914
0.57761359 0.47997066 0.1817252
0.5802986 0.47983554 0.18185127
0.55881804 0.48091647 0.18084273
0.56150311 0.48078141 0.18096879
0.56418818 0.48064628 0.18109487
0.56687325 0.48051104 0.18122093
0.56955838 0.48037598 0.18134701
0.57224345 0.48024085 0.18147308
0.23970515 0.41148382 0.18250659
0.24223438 0.41135651 0.18262532
0.24476369 0.41122919 0.18274407
0.24729292 0.41110194 0.1828628
0.24982215 0.41097477 0.18298158
0.25235143 0.4108474 0.1831003
0.23211737 0.41186559 0.18215033
0.23464666 0.41173828 0.18226907
0.23717588 0.41161108 0.18238783
0.27425754 0.41437724 0.18212241
0.27171883 0.41450509 0.18200317
0.2782909 0.42102486 0.18211012
0.28084105 0.4208965 0.18222986
0.28849158 0.42051157 0.18258901
0.32096687 0.42351452 0.1821155
0.32352653 0.4233858 0.18223569
0.32608616 0.42325702 0.18235582
0.32864577 0.42312813 0.18247601
0.28253344 0.42674515 0.18252529
0.28509307 0.42661637 0.18264548
0.29021236 0.42635879 0.18288584
0.29277208 0.42623001 0.18300602
0.29533175 0.42610124 0.18312621
0.29789138 0.4259724 0.18324636
0.30045101 0.42584363 0.18336652
0.36139667 0.4261173 0.18201548
0.34337386 0.42832565 0.18339176
0.34080464 0.42845494 0.18327115
0.37105033 0.43250316 0.18230322
0.36588922 0.43276295 0.18206088
0.36846983 0.43263298 0.18218203
0.37829465 0.4380925 0.18289393
0.38088468 0.43796223 0.18301554
0.37570453 0.43822291 0.18277234
0.40383181 0.44145411 0.18211114
0.40643129 0.4413234 0.18223318
0.40903091 0.44119251 0.18235524
0.41163042 0.44106174 0.1824773
0.38299614 0.44381946 0.18338172
0.41380015 0.44785133 0.18245959
0.41902202 0.4475885 0.18270481
0.42163303 0.44745713 0.18282738
0.42424399 0.44732583 0.18294996
0.42685494 0.4471944 0.18307257
0.45016101 0.45067325 0.18219322
0.45278147 0.45054123 0.18231627
0.45540196 0.45040941 0.18243931
0.45802242 0.45027757 0.18256234
0.46064287 0.45014572 0.18268535
0.47620898 0.45627746 0.18332462
0.46304962 0.45693976 0.18270676
0.46568143 0.4568072 0.18283035
0.46831337 0.45667478 0.18295391
0.47094518 0.45654237 0.18307748
0.47357705 0.45640993 0.18320103
0.49195942 0.46014124 0.18209876
0.51043999 0.46614271 0.18290286
0.51309276 0.46600917 0.18302743
0.51574546 0.46587563 0.18315199
0.51839828 0.46574223 0.18327652
0.49452338 0.46694365 0.18215558
0.49717608 0.46681017 0.18228011
0.4998289 0.46667662 0.1824047
0.5024817 0.46654311 0.18252923
0.50513446 0.46640956 0.18265377
0.50778711 0.4662762 0.18277833
0.54244077 0.47012585 0.18205677
0.54510504 0.46999174 0.18218186
0.58535928 0.47262731 0.18211471
0.55323493 0.47559816 0.18291934
0.55590856 0.47546366 0.1830449
0.55877751 0.48227859 0.18316366
0.5614627 0.48214346 0.18328972
0.23061638 0.40730891 0.18408631
0.23713781 0.41289422 0.18457402
0.23966707 0.4127669 0.1846928
0.22449158 0.41353059 0.18398027
0.22702076 0.41340333 0.18409905
0.23207933 0.41314873 0.18433654
0.23460856 0.41302159 0.18445526
0.27168068 0.41579312 0.18419759
0.27421933 0.41566533 0.18431683
0.25644806 0.41655958 0.18348244
0.25898686 0.4164319 0.18360162
0.26152554 0.41630411 0.18372083
0.26660311 0.41604856 0.18395922
0.27060202 0.42270359 0.18395519
0.27825245 0.42231867 0.18431436
0.28080267 0.42219031 0.1844341
0.28845313 0.42180532 0.18479332
0.26295152 0.42308852 0.183596
0.26805189 0.42283204 0.18383548
0.30813003 0.42545724 0.18372707
0.31068972 0.42532831 0.18384726
0.31324929 0.42519954 0.18396741
0.31580898 0.42507082 0.18408759
0.31836867 0.42494193 0.18420777
0.32092831 0.42481309 0.18432795
0.32348794 0.42468438 0.18444812
0.3260476 0.42455548 0.18456832
0.32860729 0.4244267 0.18468849
0.30301064 0.42571479 0.18348671
0.28249493 0.42804378 0.18473782
0.34594297 0.4281964 0.1835124
0.34851214 0.42806709 0.18363303
0.35108131 0.4279379 0.18375367
0.35365051 0.42780846 0.18387429
0.35621968 0.42767933 0.1839949
0.36135799 0.42742077 0.18423617
0.36843085 0.43394223 0.18441261
0.3710115 0.43381247 0.18453377
0.37359205 0.43368256 0.18465494
0.3581087 0.43446165 0.18392798
0.36326978 0.43420196 0.18417029
0.36585039 0.43407208 0.18429144
0.41159129 0.44238052 0.18472427
0.38559565 0.44368875 0.18350375
0.38819519 0.44355792 0.18362583
0.39079484 0.44342715 0.18374786
0.39339438 0.44329613 0.18386993
0.39599392 0.44316554 0.18399195
0.39859352 0.44303459 0.18411401
0.40119311 0.44290379 0.18423608
0.40379265 0.44277301 0.18435811
0.40639216 0.44264218 0.18448016
0.40899178 0.44251141 0.18460223
0.44774267 0.4461433 0.18405323
0.45012158 0.45200253 0.18445827
0.45274204 0.45187074 0.18458129
0.45536247 0.4517388 0.18470438
0.43439871 0.45279369 0.1837201
0.4370192 0.45266187 0.18384311
0.43963963 0.45253003 0.18396613
0.44226018 0.45239815 0.18408918
0.44488066 0.45226625 0.18421222
0.47884083 0.45614505 0.1834482
0.4839955 0.46187997 0.18400982
0.48663688 0.46174714 0.18413386
0.48927829 0.46161413 0.18425788
0.49191961 0.46148124 0.18438189
0.48135415 0.46201292 0.18388581
0.5396204 0.46467426 0.18427292
0.52105105 0.46560869 0.18340108
0.52370375 0.46547526 0.18352562
0.52635664 0.46534172 0.18365017
0.52900946 0.46520823 0.18377471
0.53431487 0.46494123 0.18402381
0.49448332 0.46828938 0.18444856
0.49713612 0.46815583 0.1845731
0.49978897 0.46802247 0.18469767
0.54506487 0.47134337 0.18448468
0.54772907 0.47120929 0.18460974
0.55039322 0.47107524 0.18473485
0.5826453 0.47411823 0.18430021
0.58025831 0.48119777 0.18417217
0.56414777 0.4820084 0.18341579
0.56683278 0.48187327 0.18354185
0.56951797 0.48173815 0.1836679
0.57220304 0.48160309 0.18379398
0.24219631 0.41263965 0.18481155
0.24472561 0.41251245 0.18493029
0.24725479 0.41238511 0.18504903
0.24978408 0.41225785 0.1851678
0.25231335 0.41213053 0.18528652
0.25484267 0.41200334 0.1854053
0.22445351 0.41481367 0.18616647
0.25894856 0.41771975 0.18579604
0.26148731 0.41759202 0.18591525
0.26656488 0.41733652 0.18615364
0.26801351 0.42412567 0.18603972
0.2705636 0.42399734 0.18615945
0.33372658 0.42416912 0.18492886
0.33628619 0.42404029 0.18504903
0.33884588 0.42391157 0.18516922
0.26291317 0.42438236 0.18580028
0.26546332 0.42425403 0.18591997
0.33116698 0.42429799 0.18480867
0.3055318 0.42688459 0.18581937
0.30809149 0.42675582 0.18593955
0.31065115 0.42662689 0.18605976
0.31321079 0.42649812 0.18617992
0.28505459 0.42791501 0.18485795
0.29273352 0.42752859 0.1852185
0.29529315 0.42739969 0.18533869
0.34076607 0.42975834 0.18549187
0.34333518 0.42962912 0.18561248
0.34590426 0.42949975 0.18573312
0.34847346 0.42937055 0.18585372
0.35104266 0.42924124 0.18597436
0.35361183 0.42911205 0.18609498
0.33562768 0.43001691 0.18525063
0.33819678 0.42988765 0.18537125
0.37566555 0.43953681 0.1850111
0.37825561 0.43940657 0.1851327
0.38084573 0.43927619 0.18525432
0.41679043 0.44211897 0.18496838
0.38295701 0.44513831 0.18562868
0.38555649 0.44500759 0.18575074
0.38815612 0.44487664 0.18587278
0.39075571 0.44474593 0.18599485
0.39335525 0.4446151 0.1861169
0.42159376 0.44878176 0.18508422
0.42681566 0.44851902 0.18532941
0.42942664 0.44838759 0.185452
0.43203756 0.44825628 0.18557455
0.45798293 0.45160708 0.18482737
0.46060339 0.45147511 0.18495041
0.43697977 0.45399126 0.18610814
0.47353747 0.45774505 0.18547595
0.47616929 0.45761269 0.18559952
0.47880116 0.45748034 0.1857231
0.47090554 0.45787761 0.18535237
0.48131442 0.46335298 0.18616895
0.5104 0.46748844 0.18519583
0.51305276 0.46735501 0.18532041
0.51570559 0.46722147 0.18544497
0.51835829 0.46708801 0.18556949
0.52101105 0.46695453 0.18569404
0.52366388 0.46682099 0.18581861
0.52631664 0.46668744 0.18594313
0.52896947 0.46655408 0.1860677
0.53162223 0.4664205 0.18619226
0.50244164 0.46788901 0.1848222
0.50509447 0.46775547 0.18494672
0.50774723 0.46762198 0.18507132
0.55319464 0.47695449 0.1852304
0.55586827 0.47681999 0.18535596
0.56410742 0.48337063 0.18573664
0.56679231 0.48323557 0.18586273
0.56947744 0.48310038 0.18598878
0.23057842 0.40858716 0.18626432
0.23457046 0.41430461 0.18664145
0.23709977 0.41417736 0.18676025
0.23962906 0.4140501 0.18687899
0.2421582 0.41392279 0.18699774
0.24468748 0.41379562 0.18711649
0.24721672 0.4136683 0.18723524
0.24974604 0.41354099 0.18735403
0.25227529 0.41341367 0.18747272
0.25480449 0.41328648 0.18759151
0.22698268 0.4146865 0.18628527
0.23204122 0.41443187 0.18652277
0.27418107 0.4169533 0.18651125
0.2767199 0.41682553 0.18663043
0.29861537 0.42258573 0.18747652
0.30116552 0.42245752 0.18759626
0.27566397 0.42374074 0.18639894
0.27821413 0.42361242 0.18651867
0.28076431 0.423484 0.18663841
0.28841475 0.42309913 0.18699756
0.29096493 0.42297077 0.18711731
0.33112839 0.42559645 0.1870212
0.33368805 0.42546773 0.18714136
0.31577042 0.42636928 0.18630011
0.31833011 0.4262405 0.18642028
0.32088977 0.42611173 0.18654047
0.32344946 0.42598289 0.18666065
0.32600909 0.42585418 0.18678083
0.32856873 0.42572528 0.186901
0.28501603 0.42921352 0.18707044
0.29269505 0.42882705 0.18743099
0.35618097 0.42898268 0.18621559
0.36131933 0.42872405 0.18645687
0.33815819 0.431191 0.18759197
0.33558899 0.43132031 0.18747133
0.36581153 0.43538126 0.18652201
0.36839205 0.43525141 0.18664317
0.3709726 0.4351216 0.18676433
0.37355316 0.43499169 0.18688549
0.36323097 0.43551111 0.18640083
0.37562653 0.44085088 0.18724988
0.37821662 0.44072059 0.18737149
0.38080671 0.4405902 0.18749307
0.41155222 0.44369936 0.18697128
0.41415173 0.44356859 0.1870933
0.41675135 0.44343781 0.18721536
0.41935092 0.44330692 0.18733743
0.42455003 0.44304529 0.18758152
0.39595482 0.4444842 0.18623893
0.39855438 0.44435355 0.18636099
0.40115392 0.44422257 0.18648304
0.40375346 0.44409186 0.1866051
0.40635309 0.44396096 0.18672717
0.40895262 0.44383025 0.18684921
0.44770336 0.44746798 0.18631008
0.4137215 0.45050058 0.18697329
0.42155439 0.45010644 0.18734105
0.42677635 0.44984359 0.18758623
0.45008212 0.45333204 0.18672331
0.45270258 0.45320013 0.18684636
0.45532307 0.45306832 0.18696938
0.45794347 0.45293641 0.18709241
0.46056405 0.45280457 0.18721543
0.46318445 0.45267263 0.18733852
0.4658049 0.45254084 0.18746151
0.46842539 0.45240897 0.18758453
0.43960017 0.45385948 0.1862312
0.44222072 0.45372754 0.18635423
0.48395571 0.46321997 0.18629298
0.48659715 0.4630872 0.18641697
0.48923847 0.46295419 0.18654099
0.49187985 0.46282136 0.18666498
0.53692776 0.46615353 0.18644133
0.53958052 0.46601999 0.18656591
0.54223329 0.46588662 0.18669041
0.53427494 0.46628708 0.18631679
0.5077073 0.46896777 0.18736428
0.51036012 0.46883428 0.18748882
0.499749 0.46936819 0.18699065
0.50240183 0.46923479 0.18711516
0.50505459 0.46910125 0.18723972
0.54236066 0.47282901 0.18666247
0.57458407 0.47587818 0.18623465
0.57725775 0.47574377 0.18636017
0.58260512 0.47547469 0.18661128
0.55315441 0.47831094 0.18754147
0.57753265 0.48269501 0.18636701
0.58021784 0.48255989 0.18649307
0.58290285 0.48242477 0.18661913
0.2305405 0.40986553 0.18844232
0.25733379 0.41315916 0.18771023
0.23200315 0.41571501 0.18870898
0.23453245 0.41558781 0.18882768
0.23706168 0.4154605 0.18894647
0.22441544 0.41609687 0.18835269
0.22694467 0.41596958 0.18847147
0.27414292 0.4182412 0.18870565
0.25891039 0.41900778 0.18799046
0.26144916 0.41887993 0.18810968
0.30371568 0.42232916 0.18771599
0.26542494 0.42554772 0.18812427
0.26797509 0.42541948 0.18824403
0.27052528 0.42529112 0.18836375
0.27562559 0.42503443 0.18860321
0.27817571 0.42490613 0.18872292
0.2807259 0.42477781 0.18884264
0.28327605 0.42464951 0.1889624
0.26287478 0.42567611 0.18800455
0.30549332 0.42818311 0.1880319
0.30805296 0.42805427 0.18815206
0.31061265 0.42792556 0.18827224
0.31317228 0.42779669 0.18839242
0.31573191 0.42766786 0.18851258
0.31829157 0.42753914 0.18863276
0.32085121 0.42741024 0.18875295
0.32341087 0.42728147 0.18887313
0.32597056 0.42715269 0.18899326
0.34072739 0.43106177 0.18771258
0.34329653 0.43093246 0.1878332
0.34586561 0.43080321 0.18795383
0.34843484 0.43067384 0.18807445
0.351004 0.43054464 0.18819506
0.35357314 0.43041533 0.18831572
0.35614228 0.43028608 0.1884363
0.35871142 0.43015671 0.18855695
0.36128062 0.43002754 0.18867758
0.36577263 0.43669057 0.18875258
0.36835316 0.4365606 0.18887374
0.3709338 0.43643072 0.18899488
0.36319211 0.4368203 0.1886314
0.38551742 0.44632632 0.18799773
0.38811699 0.44619554 0.18811977
0.39071655 0.44606471 0.18824184
0.39331609 0.44593394 0.18836387
0.39591569 0.44580305 0.18848597
0.39851525 0.44567233 0.18860798
0.40111479 0.44554144 0.18873003
0.40371433 0.44541064 0.1888521
0.40631396 0.44527993 0.18897413
0.44505307 0.44892392 0.18844433
0.44766405 0.44879255 0.18856691
0.42938724 0.44971228 0.18770881
0.43199825 0.44958085 0.1878314
0.43460929 0.44944945 0.18795399
0.40846029 0.45208794 0.18898499
0.47612974 0.45894793 0.18787439
0.47876152 0.45881546 0.18799798
0.47086599 0.45921272 0.18762727
0.48655742 0.4644272 0.18870009
0.48919877 0.46429425 0.18882412
0.49184006 0.46416125 0.18894812
0.53688782 0.46749938 0.18873434
0.53954059 0.46736589 0.18885887
0.51301295 0.4687008 0.1876134
0.51566559 0.46856722 0.18773794
0.51831847 0.46843386 0.18786246
0.52097118 0.46830031 0.18798704
0.52362388 0.46816683 0.18811157
0.52627677 0.46803328 0.18823615
0.52892959 0.4678998 0.18836069
0.53158218 0.46776646 0.18848523
0.534235 0.46763292 0.18860978
0.54232043 0.47418064 0.18896525
0.57187015 0.47736919 0.18842021
0.57454377 0.47723457 0.18854569
0.55582809 0.47817636 0.187667
0.55850166 0.47804192 0.18779249
0.56117547 0.47790745 0.18791805
0.58017737 0.48392218 0.18881397
0.58286244 0.483787 0.18894
0.56675208 0.48459768 0.18818365
0.23959087 0.41533318 0.1890652
0.24212013 0.41520604 0.18918395
0.24464941 0.4150787 0.1893027
0.24717867 0.41495138 0.18942146
0.24970788 0.41482407 0.18954022
0.25223717 0.41469681 0.18965895
0.25476646 0.41456968 0.1897777
0.25729576 0.41444236 0.18989643
0.25887221 0.42029569 0.19018488
0.26141092 0.42016798 0.1903041
0.29602683 0.42400777 0.18956105
0.29857692 0.42387959 0.1896808
0.30112717 0.42375121 0.18980052
0.30367729 0.42362285 0.18992023
0.28837636 0.42439282 0.18920188
0.29092655 0.42426446 0.18932159
0.33108985 0.42689508 0.18923366
0.33364949 0.42676631 0.18935382
0.32853022 0.42702386 0.18911347
0.30545473 0.42948163 0.19024436
0.30801439 0.42935285 0.19036457
0.33811945 0.43249449 0.18981262
0.34068868 0.43236518 0.18993326
0.34325776 0.43223593 0.19005385
0.34582698 0.43210655 0.19017451
0.34839609 0.43197718 0.19029514
0.33555034 0.43262365 0.18969199
0.37351435 0.43630087 0.18911608
0.3781777 0.44203448 0.18961023
0.3807677 0.44190425 0.18973185
0.38335782 0.44177386 0.18985347
0.40891352 0.44514897 0.18909621
0.41151303 0.44501826 0.18921824
0.41671225 0.44475666 0.18946235
0.41931179 0.44462577 0.18958442
0.42451087 0.44436407 0.18982849
0.38547826 0.4476451 0.19024469
0.38807786 0.44751438 0.19036677
0.43456998 0.45077401 0.19021083
0.43718091 0.45064276 0.19033341
0.41368219 0.45182514 0.18923014
0.42934802 0.4510369 0.18996565
0.431959 0.45090544 0.19008826
0.47362688 0.45347449 0.19009568
0.45266306 0.45452958 0.18911143
0.45528355 0.45439765 0.18923447
0.45790401 0.45426586 0.18935747
0.4605245 0.45413396 0.18948051
0.46314502 0.45400214 0.18960355
0.46576551 0.45387018 0.18972659
0.46838596 0.4537383 0.18984963
0.4708263 0.46054807 0.18990219
0.4734582 0.46041551 0.19002578
0.47609001 0.4602831 0.19014934
0.47872195 0.46015063 0.1902729
0.48135385 0.46001825 0.19039647
0.46819445 0.46068037 0.18977864
0.49448144 0.46402842 0.18907215
0.49712279 0.46389547 0.18919615
0.54484612 0.4670988 0.18910797
0.54749894 0.46696547 0.18923251
0.55015165 0.46683192 0.1893571
0.50766742 0.47031355 0.18965724
0.51032013 0.47018006 0.18978179
0.51297289 0.47004658 0.18990634
0.51562566 0.46991307 0.1900309
0.51827848 0.46977964 0.19015543
0.5209313 0.46964604 0.19027999
0.50236183 0.47058052 0.18940814
0.50501466 0.47044703 0.18953267
0.5557878 0.47953287 0.18997803
0.55846149 0.47939837 0.19010359
0.56113511 0.47926378 0.19022906
0.56380886 0.47912925 0.19035462
0.23050255 0.4111439 0.19062027
0.22943583 0.4171254 0.19077641
0.23196511 0.41699827 0.19089518
0.23449434 0.41687095 0.1910139
0.23702361 0.41674364 0.19113268
0.23955286 0.41661626 0.19125143
0.24208209 0.41648915 0.19137016
0.24461132 0.41636184 0.19148891
0.24714057 0.41623452 0.19160765
0.24966986 0.41610721 0.19172643
0.22437736 0.41738003 0.19053893
0.22690654 0.41725278 0.19065768
0.27410468 0.41952917 0.19090007
0.29088819 0.42555827 0.19152588
0.29343829 0.42543003 0.19164559
0.2959885 0.42530164 0.19176532
0.26793674 0.42671317 0.19044828
0.27048689 0.42658481 0.19056801
0.27303708 0.42645654 0.19068773
0.27558726 0.42632812 0.19080749
0.27813739 0.4262 0.19092722
0.28068754 0.42607155 0.19104695
0.28323767 0.42594326 0.19116671
0.28578785 0.4258149 0.19128643
0.28833804 0.42568657 0.19140615
0.32849166 0.42832243 0.19132596
0.33105135 0.4281936 0.19144616
0.33361101 0.42806494 0.19156632
0.31057405 0.42922413 0.19048473
0.31313375 0.4290953 0.19060488
0.31569335 0.42896643 0.19072507
0.31825304 0.42883772 0.19084525
0.3208127 0.42870882 0.19096541
0.32337233 0.42857999 0.19108562
0.325932 0.42845133 0.19120577
0.35096529 0.43184799 0.19041577
0.35353443 0.4317188 0.19053641
0.35610363 0.43158942 0.190657
0.35867271 0.43146005 0.19077764
0.36124197 0.43133089 0.19089827
0.36573383 0.43799967 0.19098313
0.37089494 0.43773985 0.19122545
0.37347546 0.43761012 0.19134662
0.37605605 0.43748024 0.19146775
0.40627483 0.44659871 0.1912211
0.41147396 0.44633704 0.19146521
0.41667309 0.44607538 0.19170931
0.39067742 0.44738349 0.1904888
0.39327693 0.44725272 0.19061087
0.3958765 0.44712201 0.1907329
0.39847612 0.44699106 0.19085495
0.40107569 0.44686034 0.19097701
0.4036752 0.44672948 0.19109908
0.43979189 0.45051134 0.19045602
0.44240284 0.45037985 0.19057859
0.44501379 0.4502486 0.19070116
0.44762477 0.45011711 0.19082379
0.45023569 0.44998577 0.19094637
0.41364291 0.45314986 0.19148697
0.45262364 0.45585892 0.19137648
0.45524418 0.45572716 0.19149952
0.45786458 0.4555952 0.19162256
0.46048513 0.45546347 0.19174556
0.48398569 0.45988578 0.19052005
0.49180037 0.46550131 0.19123122
0.49444178 0.46536848 0.19135526
0.49708307 0.46523553 0.19147925
0.49972442 0.46510258 0.19160327
0.53419513 0.46897858 0.19090274
0.53684795 0.4688451 0.19102728
0.53950077 0.46871167 0.19115184
0.54480618 0.46844473 0.19140097
0.54745901 0.46831119 0.19152549
0.55011171 0.46817771 0.19165006
0.52358407 0.46951267 0.19040455
0.52623683 0.46937919 0.19052906
0.52888966 0.4692457 0.19065365
0.53154236 0.46911219 0.1907782
0.50232196 0.47192642 0.19170111
0.54760873 0.47526401 0.19151826
0.55293709 0.47499591 0.19176842
0.57182992 0.47872558 0.19073121
0.57450354 0.47859097 0.19085675
0.57717717 0.4784565 0.19098227
0.56915617 0.47886017 0.1906057
0.5801369 0.48528442 0.19113487
0.58282197 0.48514923 0.19126093
0.25725764 0.41572544 0.19208266
0.25219914 0.41598007 0.19184516
0.25472844 0.4158527 0.19196394
0.22686853 0.41853586 0.1928439
0.22939776 0.41840854 0.19296262
0.23192704 0.41828141 0.19308136
0.22433929 0.41866317 0.19272512
0.26391149 0.42132822 0.1926177
0.26645023 0.42120036 0.19273689
0.26137269 0.42145595 0.19249851
0.29853866 0.42517328 0.19188507
0.30108884 0.42504498 0.19200481
0.30363894 0.42491665 0.19212455
0.26279798 0.42826355 0.19241309
0.2653482 0.42813516 0.19253284
0.26789838 0.42800692 0.19265257
0.27044851 0.42787868 0.19277231
0.27299863 0.42775035 0.19289203
0.27554882 0.42762193 0.19301179
0.27809894 0.42749363 0.19313151
0.30797586 0.43065143 0.19257702
0.31053555 0.43052271 0.19269721
0.31309515 0.43039393 0.19281739
0.31565481 0.43026504 0.19293757
0.31821448 0.43013629 0.19305775
0.32077411 0.4300074 0.19317794
0.33551165 0.43392712 0.19191271
0.33808079 0.43379784 0.19203335
0.34064996 0.43366846 0.19215398
0.3432191 0.43353921 0.19227459
0.34578824 0.43341008 0.19239523
0.34835747 0.43328071 0.19251585
0.35092658 0.43315133 0.19263649
0.35349578 0.43302214 0.19275711
0.35606495 0.43289277 0.19287772
0.35863408 0.43276355 0.19299835
0.36120325 0.43263429 0.19311899
0.36311436 0.43943858 0.19309253
0.37813869 0.44334856 0.19184904
0.38072869 0.44321814 0.19197063
0.38331878 0.44308788 0.19209222
0.41927263 0.44594467 0.19183141
0.42187223 0.44581383 0.19195342
0.42447177 0.44568303 0.19207548
0.4270713 0.44555214 0.19219755
0.38803872 0.44883311 0.19261372
0.39323783 0.4485715 0.19285785
0.39583746 0.44844073 0.19297992
0.39843696 0.44830984 0.19310196
0.43453068 0.45209864 0.19246764
0.43714166 0.45196733 0.19259025
0.43975255 0.45183584 0.19271286
0.4423635 0.45170441 0.19283539
0.44497448 0.4515731 0.19295801
0.44758543 0.45144168 0.19308062
0.46310556 0.45533153 0.1918686
0.46572599 0.45519963 0.19199166
0.48394611 0.46122101 0.19279498
0.48657796 0.4610886 0.19291855
0.48920986 0.46095616 0.1930421
0.53415513 0.47032455 0.19319572
0.50497472 0.47179282 0.19182566
0.50762749 0.47165939 0.19195023
0.51028025 0.47152591 0.19207476
0.51293296 0.47139242 0.19219935
0.51558572 0.47125897 0.19232388
0.51823854 0.47112542 0.19244839
0.52089137 0.47099194 0.19257298
0.52354401 0.4708584 0.19269753
0.52619684 0.47072491 0.19282207
0.52884966 0.47059152 0.19294664
0.53150237 0.47045803 0.19307117
0.57178956 0.48008198 0.19304228
0.57446331 0.47994748 0.19316776
0.55842125 0.48075464 0.19241458
0.56109494 0.48062024 0.19254014
0.56376863 0.48048571 0.19266564
0.56644225 0.48035109 0.19279118
0.56911594 0.48021662 0.19291672
0.25469026 0.41713589 0.19415013
0.25721958 0.41700858 0.19426887
0.25974879 0.41688123 0.19438764
0.23445624 0.41815409 0.1932001
0.2369855 0.41802678 0.19331887
0.23951481 0.41789946 0.19343765
0.24204402 0.41777235 0.1935564
0.24457325 0.41764498 0.19367513
0.24710253 0.41751766 0.19379388
0.24963179 0.41739047 0.19391264
0.25216109 0.41726321 0.19403137
0.28829959 0.42698038 0.19361041
0.29084969 0.42685208 0.19373016
0.2933999 0.42672372 0.19384989
0.29595011 0.42659527 0.19396964
0.29850018 0.42646697 0.19408938
0.3061507 0.42608204 0.19444853
0.28064916 0.4273653 0.19325122
0.28319925 0.42723688 0.19337094
0.28574944 0.42710876 0.19349067
0.32589349 0.42974991 0.19341831
0.32845315 0.42962107 0.19353847
0.33101279 0.42949218 0.19365865
0.33357242 0.42936352 0.19377886
0.32333386 0.42987862 0.19329812
0.36377248 0.43250504 0.19323958
0.36891079 0.43224648 0.19348083
0.33547297 0.43523049 0.19413343
0.33804208 0.43510118 0.19425407
0.34061131 0.43497193 0.19437468
0.34318042 0.43484262 0.19449531
0.36569494 0.43930879 0.19321369
0.37085608 0.43904912 0.19345601
0.37343669 0.43891922 0.19357716
0.37601721 0.43878934 0.19369833
0.37809971 0.44466257 0.19408782
0.38068974 0.44453222 0.1942094
0.38327986 0.44440189 0.19433099
0.38586989 0.44427153 0.19445261
0.40623569 0.44791743 0.19346811
0.40883523 0.44778672 0.19359015
0.41143483 0.44765583 0.1937122
0.41663396 0.44739422 0.19395633
0.41923347 0.44726345 0.19407836
0.4218331 0.44713256 0.19420041
0.42443267 0.44700184 0.19432245
0.42703217 0.44687092 0.19444454
0.42963174 0.44674015 0.19456658
0.4010365 0.44817913 0.19322398
0.40363613 0.44804823 0.19334608
0.45019642 0.45131034 0.1932032
0.4083817 0.45473719 0.19349864
0.4136036 0.45447442 0.19374382
0.46830708 0.45639732 0.19437969
0.47092751 0.4562653 0.19450276
0.4630661 0.45666099 0.19413367
0.46568656 0.45652908 0.19425669
0.48911923 0.46697438 0.19339037
0.49176055 0.46684137 0.19351438
0.4944019 0.46670854 0.19363838
0.49704331 0.46657559 0.19376239
0.49968469 0.46644264 0.19388641
0.53680795 0.47019094 0.19332027
0.53946072 0.47005746 0.19344482
0.54211342 0.46992403 0.19356935
0.54476631 0.46979058 0.19369394
0.55007178 0.46952355 0.19394304
0.54756862 0.4766157 0.1938211
0.57713693 0.47981295 0.19329332
0.22683042 0.41981906 0.19503011
0.22935972 0.4196918 0.19514883
0.23188893 0.41956449 0.1952676
0.23441817 0.41943723 0.19538632
0.23694743 0.41930991 0.19550508
0.23947674 0.41918269 0.19562384
0.24200597 0.41905543 0.19574258
0.24453515 0.41892812 0.19586134
0.24706449 0.41880086 0.19598007
0.28826118 0.42827407 0.19581468
0.29081139 0.42814571 0.19593444
0.26275963 0.42955729 0.19461741
0.26530981 0.42942908 0.19473711
0.26786 0.42930073 0.19485684
0.27041009 0.42917237 0.19497655
0.27296025 0.42904404 0.1950963
0.27551046 0.42891568 0.19521604
0.27806056 0.42878732 0.19533578
0.28061071 0.42865911 0.19545551
0.28316087 0.42853075 0.19557525
0.28571102 0.42840245 0.19569498
0.32329533 0.4311772 0.1955106
0.32585496 0.43104848 0.19563076
0.32841459 0.43091959 0.19575094
0.33097428 0.43079075 0.19587111
0.33353394 0.4306621 0.19599129
0.31817597 0.43143487 0.19527024
0.32073557 0.43130597 0.19539043
0.3611646 0.4339377 0.19533968
0.36887211 0.43354976 0.19570154
0.34574959 0.43471336 0.19461593
0.34831879 0.43458399 0.19473654
0.35088795 0.43445486 0.19485717
0.35345709 0.43432549 0.19497782
0.35602629 0.43419626 0.19509842
0.3585954 0.43406689 0.19521905
0.36307549 0.44074783 0.19532308
0.36565614 0.44061786 0.19544427
0.37081721 0.44035825 0.19568658
0.37339777 0.4402284 0.19580773
0.37597832 0.44009846 0.19592892
0.39105004 0.44401085 0.1946958
0.43223131 0.44660938 0.19468862
0.403597 0.44936714 0.19559304
0.4061965 0.44923633 0.19571505
0.41139564 0.44897461 0.19595917
0.38799956 0.45015195 0.19486073
0.3931987 0.44989023 0.19510482
0.39579824 0.44975951 0.19522689
0.39839783 0.4496288 0.19534892
0.40099734 0.44949791 0.19547096
0.46060094 0.45210943 0.19595036
0.43449131 0.45342326 0.1947245
0.43710232 0.45329195 0.19484709
0.43971321 0.45316052 0.19496971
0.44232419 0.45302904 0.19509225
0.44493514 0.45289773 0.19521484
0.44754609 0.45276633 0.19533747
0.45015708 0.4526349 0.19546004
0.45276803 0.45250359 0.19558261
0.45537904 0.45237216 0.19570522
0.45798999 0.45224074 0.1958278
0.47354797 0.4561334 0.19462579
0.47616842 0.45600164 0.1947488
0.47878888 0.45586979 0.19487183
0.4814094 0.45573786 0.19499488
0.48390648 0.4625563 0.19506985
0.48653832 0.46242383 0.19519342
0.49436221 0.46804842 0.1959215
0.53411525 0.47167033 0.19548869
0.53676808 0.47153684 0.19561325
0.5394209 0.4714033 0.19573778
0.54207349 0.47126982 0.19586234
0.54472631 0.4711363 0.1959869
0.51819861 0.47247139 0.19474137
0.52085143 0.47233778 0.19486597
0.52350414 0.47220424 0.19499049
0.52615696 0.47207075 0.19511506
0.52880973 0.4719373 0.19523962
0.53146243 0.47180375 0.19536415
0.57174939 0.48143843 0.1953533
0.57442302 0.48130387 0.19547883
0.5770967 0.48116934 0.19560438
0.57977045 0.48103476 0.1957299
0.58244407 0.48090023 0.19585542
0.56640202 0.4817076 0.19510223
0.22534923 0.41523239 0.19691765
0.252123 0.41854623 0.19621755
0.25465226 0.41841897 0.19633636
0.2571815 0.41829175 0.19645509
0.25971079 0.41816449 0.19657385
0.26223996 0.41803724 0.1966926
0.24959372 0.4186736 0.19609886
0.3019546 0.42069983 0.19660009
0.3044934 0.4205721 0.19671927
0.2587575 0.42415959 0.19676816
0.26129627 0.42403194 0.19688734
0.31376278 0.42699087 0.19701201
0.31631291 0.42686245 0.19713174
0.29336151 0.42801747 0.19605413
0.2959117 0.42788914 0.19617388
0.29846182 0.42776078 0.19629361
0.30611229 0.42737591 0.19665281
0.30866247 0.42724749 0.19677256
0.31121263 0.42711917 0.19689228
0.26017106 0.43097946 0.19670191
0.26272127 0.4308511 0.19682163
0.2652714 0.4307228 0.19694138
0.26782155 0.43059447 0.19706112
0.27037168 0.43046606 0.19718087
0.27292186 0.43033788 0.1973006
0.30789879 0.43324858 0.19700202
0.31301811 0.43299109 0.19724236
0.31557778 0.43286225 0.19736256
0.33543432 0.4365339 0.19635412
0.33800343 0.43640465 0.19647476
0.34057266 0.43627527 0.19659539
0.34314176 0.43614602 0.196716
0.34571093 0.43601677 0.19683664
0.34828013 0.43588752 0.19695723
0.35084924 0.43575814 0.1970779
0.35341844 0.43562889 0.19719853
0.35598758 0.43549961 0.19731914
0.38065076 0.44584623 0.19644815
0.38324079 0.44571584 0.19656976
0.38583091 0.44558555 0.19669139
0.391011 0.44532475 0.19693463
0.43219215 0.44792822 0.19693561
0.41659477 0.448713 0.19620329
0.41919434 0.44858223 0.19632535
0.42179397 0.44845146 0.1964474
0.4243935 0.44832063 0.19656943
0.42699295 0.44818982 0.19669153
0.42959261 0.44805893 0.19681354
0.38796043 0.45147085 0.1971077
0.39315954 0.45120925 0.19735183
0.43445203 0.45474783 0.19698134
0.43706301 0.45461652 0.19710393
0.4396739 0.45448509 0.19722655
0.44228491 0.45435372 0.1973491
0.46826759 0.4577266 0.19664477
0.47088802 0.45759481 0.19676781
0.47350845 0.45746288 0.19689085
0.47612897 0.45733109 0.19701387
0.47874942 0.45719919 0.19713689
0.48136991 0.45706737 0.19725992
0.4656471 0.45785853 0.19652173
0.50492769 0.46751687 0.19641754
0.50756902 0.46738386 0.19654156
0.51021039 0.467251 0.1966656
0.51285177 0.46711805 0.19678959
0.51549315 0.46698523 0.19691361
0.4970035 0.46791565 0.19604549
0.49964496 0.46778265 0.1961695
0.50228631 0.46764982 0.19629353
0.5500319 0.47086939 0.19623601
0.55268461 0.47073591 0.19636054
0.55533749 0.47060236 0.19648507
0.5234642 0.47355008 0.19728346
0.56084937 0.47729692 0.19674934
0.56351364 0.47716296 0.19687444
0.56884181 0.47689471 0.1971246
0.55285686 0.47769913 0.19637407
0.55552101 0.47756505 0.19649918
0.55818522 0.47743091 0.19662425
0.24955562 0.41995674 0.19828507
0.25208488 0.41982949 0.19840379
0.25461417 0.41970214 0.19852257
0.25714344 0.41957489 0.19864127
0.23438013 0.42072037 0.19757253
0.23690939 0.42059302 0.19769131
0.23943864 0.42046583 0.19781005
0.24196787 0.42033857 0.1979288
0.24449711 0.42021126 0.19804756
0.24702641 0.42008388 0.1981663
0.30191642 0.4219878 0.19879451
0.28567261 0.42969608 0.19789924
0.28822285 0.42956787 0.19801897
0.290773 0.42943951 0.1981387
0.29332316 0.42931116 0.19825844
0.29587334 0.42918283 0.19837819
0.29842341 0.42905447 0.19849792
0.27547204 0.43020943 0.19742033
0.27802214 0.43008119 0.19754006
0.28057235 0.42995283 0.19765976
0.28312248 0.42982444 0.19777949
0.32325679 0.43247578 0.19772309
0.32581642 0.43234694 0.19784325
0.33093575 0.43208945 0.19808362
0.33349541 0.43196043 0.1982038
0.31813741 0.43273336 0.19748272
0.32069713 0.43260461 0.1976029
0.35855672 0.43537042 0.19743977
0.36112586 0.43524104 0.1975604
0.36883339 0.43485323 0.19792226
0.33796474 0.43770793 0.19869548
0.37593949 0.44140765 0.19815944
0.3785201 0.44127786 0.1982806
0.38061178 0.4471603 0.19868696
0.40355787 0.45068592 0.19784002
0.40615737 0.45055509 0.19796208
0.40875694 0.45042428 0.19808412
0.41135657 0.45029351 0.19820619
0.41395605 0.45016268 0.19832824
0.41655564 0.45003191 0.19845028
0.41915518 0.44990101 0.19857235
0.42175484 0.4497703 0.19869436
0.39575911 0.45107836 0.19747387
0.3983587 0.45094758 0.19759591
0.40095827 0.45081669 0.19771796
0.45795071 0.45356536 0.19808465
0.46056163 0.45343399 0.1982072
0.46317264 0.45330262 0.19832982
0.44489586 0.45422235 0.19747169
0.44750682 0.45409089 0.1975943
0.45011777 0.45395952 0.19771689
0.45272878 0.45382816 0.19783944
0.45533976 0.45369673 0.19796206
0.48649868 0.46375901 0.19746833
0.48913053 0.46362644 0.1975919
0.4917624 0.46349415 0.19771548
0.50224656 0.46898976 0.19857666
0.50488794 0.46885687 0.19870065
0.49432239 0.46938848 0.19820462
0.49696374 0.46925566 0.19832863
0.49960518 0.46912271 0.19845265
0.53142256 0.4731496 0.19765712
0.53407532 0.47301605 0.19778167
0.53672808 0.47288257 0.19790623
0.53938091 0.47274914 0.19803075
0.54203361 0.4726156 0.1981553
0.54468638 0.47248214 0.19827989
0.5473392 0.47234866 0.1984044
0.54999197 0.47221512 0.19852899
0.52611697 0.4734166 0.19740802
0.52876973 0.47328314 0.19753259
0.55281669 0.47905082 0.19867694
0.57438284 0.48266026 0.19778988
0.57705647 0.48252574 0.19791538
0.57973021 0.48239121 0.19804093
0.5824039 0.48225662 0.19816647
0.22783105 0.41638398 0.19921398
0.23035081 0.41625714 0.19933227
0.23287053 0.41613042 0.1994506
0.22928354 0.42225808 0.19952124
0.23434202 0.42200351 0.19975874
0.23687126 0.42187622 0.19987753
0.23940057 0.42174897 0.19999628
0.2419298 0.42162165 0.200115
0.30445516 0.42186013 0.19891372
0.2561805 0.42557523 0.19884339
0.25871927 0.42544761 0.19896257
0.32902533 0.4275147 0.19993465
0.30607393 0.42866954 0.19885708
0.31117418 0.42841291 0.19909655
0.28308412 0.43111831 0.19998381
0.28563431 0.43098995 0.20010352
0.26013264 0.43227321 0.19890621
0.26268288 0.43214491 0.19902594
0.26523304 0.43201643 0.19914566
0.26778322 0.4318881 0.19926538
0.32321823 0.43377441 0.1999356
0.32577789 0.43364552 0.20005575
0.32833749 0.43351674 0.20017593
0.30786026 0.43454716 0.1992145
0.31297961 0.4342896 0.19945487
0.31553921 0.43416077 0.19957505
0.3180989 0.43403193 0.19969524
0.35851803 0.43667376 0.19966048
0.3610872 0.43654451 0.19978112
0.36365643 0.4364152 0.19990173
0.3662256 0.43628588 0.20002235
0.36879468 0.43615663 0.20014298
0.34053394 0.43757874 0.19881611
0.34310308 0.43744943 0.19893672
0.34567225 0.43732017 0.19905734
0.34824148 0.4371908 0.19917795
0.35081059 0.43706161 0.19929862
0.35337982 0.43693227 0.19941925
0.35594895 0.43680301 0.19953986
0.37073958 0.44297656 0.20014766
0.38320187 0.44702986 0.19880854
0.38579187 0.44689944 0.19893016
0.39097202 0.44663888 0.19917336
0.42955348 0.44937772 0.19906054
0.43215308 0.44924694 0.19918258
0.42435431 0.44963935 0.19881646
0.42695388 0.4495087 0.19893849
0.40091911 0.45213559 0.19996497
0.40351871 0.45200476 0.20008703
0.39312038 0.45252803 0.19959879
0.39571998 0.45239714 0.19972087
0.39831957 0.45226637 0.1998429
0.44224563 0.45567828 0.19960594
0.45268947 0.45515284 0.20009632
0.46822816 0.45905611 0.1989098
0.47084862 0.4589242 0.19903286
0.47346905 0.45879239 0.1991559
0.47608951 0.45866042 0.19927894
0.47871003 0.45852864 0.19940192
0.48133051 0.4583967 0.199525
0.483951 0.45826486 0.19964804
0.48645908 0.46509418 0.19974324
0.48909098 0.46496189 0.1998668
0.49172279 0.46482927 0.19999038
0.50752926 0.46872398 0.19882467
0.51017076 0.46859109 0.1989487
0.51281208 0.46845806 0.19907273
0.5154534 0.46832511 0.19919673
0.51809478 0.46819228 0.19932076
0.52073616 0.46805933 0.19944477
0.53138262 0.47449544 0.19995008
0.53403533 0.4743619 0.20007464
0.53668821 0.47422835 0.2001992
0.52607703 0.47476226 0.19970103
0.52872992 0.47462898 0.19982556
0.55814511 0.47878247 0.1989271
0.56080925 0.47864848 0.1990522
0.56347346 0.4785144 0.19917725
0.57146597 0.47811222 0.19955251
0.5554809 0.47891662 0.19880201
0.22635949 0.41179204 0.20109376
0.22527334 0.4177891 0.20127366
0.2277931 0.41766229 0.20139199
0.24698831 0.42136714 0.20035249
0.24951755 0.42123988 0.20047128
0.25204685 0.42111257 0.20059
0.25457606 0.42098528 0.20070879
0.24445903 0.42149439 0.20023376
0.30187818 0.42327583 0.20098892
0.30441695 0.42314804 0.20110816
0.25614229 0.42686331 0.20103781
0.25868109 0.42673555 0.20115703
0.31113586 0.42970672 0.20130084
0.28818446 0.43086159 0.20022324
0.29073462 0.4307332 0.20034298
0.29328471 0.4306049 0.2004627
0.2958349 0.43047667 0.20058241
0.29838508 0.43034834 0.20070218
0.30093524 0.43021998 0.20082191
0.30348533 0.43009159 0.20094165
0.30603555 0.42996329 0.20106137
0.33089718 0.43338796 0.2002961
0.33345684 0.43325913 0.2004163
0.33601648 0.43313035 0.20053646
0.30526212 0.43597463 0.20130683
0.30782172 0.43584579 0.20142703
0.31038141 0.4357169 0.20154721
0.37136382 0.43602744 0.20026359
0.37393308 0.4358981 0.20038423
0.33535695 0.43914062 0.20079553
0.33792603 0.43901137 0.20091617
0.34049532 0.43888199 0.20103678
0.3430644 0.43875286 0.20115741
0.34563357 0.43862349 0.20127805
0.34820274 0.43849424 0.20139864
0.35077193 0.43836492 0.20151928
0.3733201 0.44284669 0.20026885
0.37590069 0.4427169 0.20039001
0.37848121 0.44258699 0.20051113
0.39093307 0.44795284 0.20141213
0.38057277 0.44847414 0.20092571
0.38316283 0.4483439 0.20104732
0.38575289 0.44821352 0.20116894
0.38834292 0.44808316 0.20129053
0.42951441 0.45069668 0.20130752
0.43211389 0.45056573 0.20142959
0.43471351 0.45043501 0.20155162
0.40611824 0.45187393 0.20020904
0.40871784 0.45174307 0.20033114
0.41131741 0.45161235 0.20045315
0.41391689 0.45148146 0.20057523
0.41651651 0.45135069 0.20069727
0.41911608 0.45121986 0.20081934
0.42171565 0.45108914 0.20094138
0.42431518 0.45095831 0.20106341
0.42691481 0.45082742 0.20118551
0.4579114 0.45488992 0.20034149
0.46052238 0.45475861 0.20046407
0.46313339 0.45462722 0.20058666
0.46574429 0.45449573 0.20070927
0.45530045 0.45502135 0.2002189
0.46818867 0.46038544 0.20117486
0.47080913 0.4602536 0.20129789
0.47342959 0.46012172 0.20142095
0.47605002 0.45998999 0.20154396
0.50220674 0.47032976 0.2008598
0.50484812 0.47019693 0.20098381
0.50748944 0.47006398 0.20110781
0.51013088 0.46993098 0.20123184
0.5127722 0.46979818 0.20135583
0.5154137 0.46966517 0.20147985
0.49692398 0.4705956 0.20061176
0.49956536 0.47046277 0.20073576
0.56586868 0.47276008 0.20156924
0.53934097 0.47409493 0.20032373
0.54199362 0.47396147 0.20044829
0.5446465 0.47382799 0.20057285
0.54729921 0.4736945 0.20069739
0.54995197 0.47356096 0.20082195
0.55810493 0.48013422 0.20122996
0.5607692 0.48000017 0.20135503
0.56343335 0.47986609 0.20148011
0.58236355 0.48361307 0.20047753
0.23283263 0.41740873 0.20162858
0.24442096 0.42277753 0.20241998
0.24695024 0.42265028 0.20253871
0.24947947 0.42252302 0.20265749
0.25200874 0.42239568 0.20277621
0.254538 0.42226842 0.202895
0.23936248 0.42303216 0.20218247
0.24189176 0.42290491 0.20230123
0.28152984 0.42558581 0.20222981
0.27137488 0.42609668 0.20175301
0.27391362 0.42596909 0.20187218
0.27645239 0.4258413 0.20199139
0.2789911 0.4257136 0.2021106
0.32133648 0.42919332 0.20177977
0.28304571 0.43241194 0.20218806
0.28559583 0.43228364 0.20230781
0.28814605 0.43215528 0.20242752
0.2932463 0.43189871 0.20266698
0.29579654 0.43177041 0.20278673
0.29834661 0.43164203 0.20290649
0.31806043 0.43533051 0.20190771
0.32317972 0.43507287 0.20214808
0.32573938 0.43494409 0.20226823
0.32829902 0.43481538 0.20238839
0.33085871 0.43468654 0.20250858
0.33341831 0.43455771 0.20262878
0.31294107 0.43558818 0.20166734
0.31550071 0.43545935 0.20178755
0.35591024 0.43810639 0.20176052
0.35847935 0.43797708 0.20188116
0.36104855 0.43784782 0.20200178
0.36361769 0.43771848 0.20212239
0.36618689 0.43758929 0.20224302
0.36875597 0.43745998 0.20236364
0.3533411 0.43823576 0.20163991
0.37070069 0.44428569 0.20237827
0.37328127 0.44415593 0.2024994
0.37844238 0.44389617 0.20274176
0.43731305 0.45030412 0.20167369
0.43991259 0.45017335 0.20179576
0.44511175 0.44991174 0.20203982
0.44771129 0.44978097 0.20216189
0.4503108 0.44965011 0.20228392
0.39828044 0.45358515 0.20208986
0.40088001 0.45345438 0.20221195
0.40347958 0.45332354 0.20233399
0.40607911 0.45319283 0.20245603
0.40867868 0.45306188 0.2025781
0.41127822 0.45293108 0.20270014
0.41387782 0.45280036 0.20282221
0.41647735 0.45266953 0.20294423
0.39308128 0.45384681 0.20184579
0.39568087 0.45371604 0.20196784
0.45787206 0.45621455 0.20259832
0.46048304 0.45608324 0.20272091
0.463094 0.45595184 0.2028435
0.46570498 0.45582041 0.20296606
0.44220626 0.45700285 0.20186278
0.44481722 0.45687157 0.2019854
0.44742826 0.4567402 0.20210795
0.47867063 0.45985797 0.201667
0.48129106 0.45972621 0.20179003
0.48391151 0.45959425 0.20191309
0.49168316 0.46616444 0.20226531
0.49431503 0.46603215 0.20238885
0.48641941 0.46642947 0.20201816
0.48905131 0.466297 0.20214172
0.51805502 0.46953234 0.20160384
0.5206964 0.46939939 0.20172788
0.52333772 0.46926644 0.20185187
0.49424288 0.47206861 0.20277086
0.49688429 0.47193566 0.20289487
0.5685215 0.47262648 0.20169379
0.52868986 0.47597471 0.20211855
0.53134263 0.47584122 0.20224309
0.53399551 0.4757078 0.20236765
0.53664821 0.47557425 0.20249218
0.53930104 0.47544077 0.20261674
0.5419538 0.47530726 0.2027413
0.54460651 0.47517377 0.20286582
0.54725933 0.47504035 0.20299037
0.57409 0.47932988 0.20198044
0.57675415 0.47919571 0.20210551
0.57941842 0.47906169 0.20223062
0.23531449 0.41856021 0.20392488
0.23783419 0.41843343 0.20404316
0.22523539 0.41906747 0.20345166
0.2277552 0.41894063 0.20356993
0.23027493 0.41881382 0.20368828
0.23279467 0.41868699 0.20380655
0.25610408 0.42815134 0.20323221
0.25864288 0.42802352 0.20335145
0.26118162 0.42789578 0.20347065
0.26372036 0.42776805 0.20358983
0.2662591 0.42764023 0.20370907
0.26879784 0.42751256 0.20382822
0.27133664 0.42738473 0.20394742
0.27387539 0.427257 0.20406662
0.27641419 0.42712927 0.20418581
0.27895287 0.42700145 0.20430504
0.32129806 0.43048713 0.20398405
0.30089682 0.43151367 0.20302621
0.30344692 0.43138537 0.20314595
0.26260608 0.43473235 0.20343451
0.31546217 0.43675792 0.20400001
0.31802189 0.43662909 0.2041202
0.3205815 0.43650037 0.20424038
0.32314116 0.43637148 0.20436054
0.30266383 0.43740186 0.20339915
0.30522355 0.43727309 0.20351933
0.30778325 0.43714431 0.20363949
0.31034291 0.43701553 0.20375969
0.31290251 0.4368867 0.20387985
0.35330242 0.43953905 0.20386063
0.35587156 0.43940973 0.20398124
0.35844073 0.43928048 0.20410186
0.36100987 0.43915117 0.2042225
0.36357903 0.43902192 0.20434311
0.33788738 0.44031471 0.20313689
0.34302571 0.44005615 0.20337813
0.34559488 0.43992695 0.20349875
0.34816408 0.43979758 0.20361936
0.35073319 0.4396683 0.20374
0.36550072 0.44585469 0.20436646
0.38830397 0.44939718 0.20352928
0.39089409 0.44926694 0.20365092
0.38312387 0.44965786 0.20328608
0.38571391 0.44952753 0.20340769
0.42687568 0.45214614 0.20343246
0.42947525 0.45201543 0.20355448
0.43207479 0.45188463 0.20367657
0.43467438 0.4517538 0.20379859
0.43727389 0.45162308 0.20392066
0.43987346 0.45149219 0.20404272
0.41907698 0.4525387 0.20306633
0.42167658 0.45240787 0.20318834
0.42427608 0.45227715 0.20331042
0.39824131 0.45490393 0.20433688
0.44738892 0.45806471 0.20436482
0.47339016 0.46145123 0.203686
0.47601068 0.46131927 0.20380902
0.47863114 0.46118754 0.20393205
0.48125163 0.46105555 0.20405509
0.48387212 0.4609237 0.20417812
0.48374799 0.467897 0.20416948
0.4863798 0.46776459 0.20429306
0.50216711 0.47166982 0.2031429
0.50480843 0.47153693 0.20326689
0.50744969 0.47140405 0.20339091
0.51009113 0.4712711 0.20351496
0.51273257 0.47113827 0.20363896
0.51537383 0.47100523 0.20376296
0.51801521 0.4708724 0.20388702
0.52065659 0.47073945 0.20401101
0.52329797 0.47060645 0.20413505
0.52593935 0.47047362 0.20425902
0.49952564 0.47180283 0.20301887
0.56582874 0.47410592 0.20386223
0.56848145 0.47397238 0.20398679
0.57113421 0.47383887 0.20411135
0.54991215 0.47490692 0.20311494
0.5525648 0.47477332 0.20323947
0.55521762 0.47463983 0.20336401
0.52599716 0.47745404 0.20428693
0.56605738 0.4810836 0.20390801
0.5713858 0.48081547 0.2041582
0.57404989 0.48068145 0.20428327
0.22771719 0.420219 0.20574793
0.24691212 0.42393348 0.20472494
0.2494414 0.4238061 0.20484366
0.25197065 0.42367893 0.20496243
0.25449991 0.42355156 0.20508116
0.28149164 0.42687377 0.20442423
0.29164672 0.42636278 0.20490101
0.25606585 0.42943925 0.20542665
0.25860468 0.42931154 0.20554587
0.26114339 0.42918375 0.20566505
0.29575816 0.43306404 0.204991
0.29830828 0.43293583 0.20511073
0.30085847 0.43280748 0.20523044
0.26001748 0.43615443 0.20551904
0.26256764 0.43602604 0.20563878
0.26511785 0.4358978 0.20575847
0.32570082 0.43624267 0.20448075
0.32826048 0.43611383 0.20460092
0.33082014 0.43598506 0.20472109
0.33337981 0.43585628 0.20484129
0.33593941 0.43572745 0.20496148
0.34105873 0.4354699 0.20520182
0.30518505 0.43857163 0.20573181
0.36614817 0.43889254 0.20446374
0.36871734 0.43876329 0.20458436
0.37642479 0.4383755 0.20494623
0.33527961 0.44174743 0.20523694
0.33784875 0.44161817 0.20535757
0.34555623 0.4412303 0.20571946
0.3809841 0.4450756 0.20509343
0.3680813 0.44572479 0.20448764
0.37066182 0.445595 0.20460881
0.37324238 0.44546512 0.20472994
0.37840354 0.44520533 0.2049723
0.38826504 0.45071125 0.20576806
0.45547086 0.45070723 0.20477502
0.38567489 0.45084143 0.20564646
0.4502717 0.45096889 0.20453092
0.45287126 0.45083812 0.20465298
0.42423695 0.45359588 0.20555741
0.42683658 0.4534651 0.20567945
0.40084088 0.45477322 0.20445892
0.40344048 0.45464244 0.20458099
0.40603998 0.45451155 0.20470302
0.40863958 0.45438078 0.20482507
0.41123909 0.45424992 0.20494713
0.41383868 0.45411915 0.20506917
