# .PCD v0.7 - Point Cloud Data file format
VERSION 0.7
FIELDS x y z
SIZE 4 4 4
TYPE F F F
COUNT 1 1 1
WIDTH 1354
HEIGHT 1
VIEWPOINT 0 0 0 1 0 0 0
POINTS 1354
DATA ascii
1.0334707 0.1581931 -0.0017587256
1.0358633 0.15807274 -0.0016464158
1.0382557 0.15795232 -0.0015341057
1.1746409 0.15715851 -0.0026169531
0.095136732 0.15864867 -0.0026986115
0.097411327 0.15853409 -0.0025918768
0.099685863 0.15841967 -0.0024850296
0.10196047 0.1583052 -0.0023782426
0.15738718 0.15958047 -0.0027522461
0.15967128 0.15946551 -0.0026450153
0.16195542 0.15935059 -0.0025377837
0.1642395 0.15923564 -0.0024305526
0.16652367 0.15912069 -0.0023233215
0.16880776 0.15900576 -0.0022160308
0.17109187 0.1588908 -0.0021088002
0.17337592 0.15877588 -0.0020015694
0.17566006 0.15866092 -0.0018943378
0.17794421 0.158546 -0.0017871065
0.18022838 0.15843104 -0.0016798158
0.18251246 0.15831608 -0.001572585
0.1847966 0.15820117 -0.0014653534
1.0143313 0.15915626 -0.0026573911
1.0167239 0.15903586 -0.002545021
1.019116 0.15891549 -0.0024327114
1.0215086 0.15879509 -0.0023204014
1.023901 0.15867472 -0.0022080918
1.0286859 0.15843384 -0.0019834051
1.0310785 0.15831348 -0.0018710953
1.0711559 0.1595367 -0.0023901965
1.0735561 0.1594159 -0.0022775163
1.0759559 0.15929517 -0.0021648449
1.078356 0.15917435 -0.0020521656
1.0855559 0.15881202 -0.0017141341
1.087956 0.15869133 -0.0016014024
1.0903562 0.15857048 -0.0014887224
1.1529187 0.15947215 -0.0015523396
0.072356172 0.1609472 -0.0018005183
0.076905489 0.16071817 -0.0015868762
0.079180077 0.16060375 -0.0014800883
0.26775181 0.16052987 -0.0023327428
0.27005109 0.16041414 -0.0022247802
0.2723504 0.16029845 -0.0021168762
0.27464974 0.16018274 -0.0020089131
1.0639559 0.15989906 -0.0027282867
1.0663557 0.15977822 -0.0026155477
1.0687557 0.15965742 -0.0025028698
1.1312329 0.16056342 -0.0025705295
1.1336424 0.16044222 -0.0024574138
1.1360518 0.16032091 -0.0023442903
1.1384615 0.16019973 -0.0022311732
1.140871 0.16007839 -0.0021179924
1.1432805 0.15995717 -0.0020048758
1.1480997 0.15971468 -0.001778638
1.1888078 0.16090629 -0.0022682124
1.1912251 0.16078463 -0.0021547265
1.1936421 0.16066298 -0.0020412416
1.1960592 0.16054133 -0.0019277567
1.1984766 0.1604197 -0.0018142704
1.2008936 0.16029806 -0.0017007859
1.2033106 0.1601765 -0.0015873075
1.2057277 0.16005491 -0.0014738217
0.12537505 0.16234836 -0.0022792937
0.12765923 0.16223343 -0.0021720622
0.12994334 0.16211846 -0.0020648311
0.13222745 0.16200355 -0.0019576
0.1345115 0.16188858 -0.0018503689
0.13679565 0.16177365 -0.0017430782
0.13907979 0.16165872 -0.0016358474
0.1413639 0.16154379 -0.0015286163
1.0399193 0.16232432 -0.0017805716
1.0471193 0.16196196 -0.0014425409
1.1791395 0.16139285 -0.002722153
1.1815566 0.16127118 -0.0026086685
1.1839737 0.16114956 -0.0024951822
1.1863908 0.16102791 -0.0023816978
0.11852276 0.16269317 -0.0026010466
0.12080686 0.1625782 -0.0024938155
0.12309097 0.16246329 -0.0023865844
0.16995184 0.1633607 -0.0025609897
0.17224361 0.16324529 -0.0024533896
1.0327189 0.16268666 -0.0021186029
1.0351192 0.16256586 -0.0020059231
1.0375191 0.16244513 -0.0018932507
1.0998727 0.16336215 -0.0019585099
1.102282 0.16324082 -0.0018453887
1.1046916 0.16311961 -0.0017322125
1.1573488 0.16371375 -0.0016542389
1.159766 0.1635921 -0.0015407521
1.162183 0.16347046 -0.0014272667
0.095647059 0.1650013 -0.0016991101
0.097931258 0.16488637 -0.0015918782
0.10021533 0.16477144 -0.0014846472
0.26693842 0.16499093 -0.0027563726
0.26924542 0.16487478 -0.0026480402
1.1355945 0.16480842 -0.0026755994
1.1380116 0.16468678 -0.0025621154
1.142846 0.16444361 -0.0023351503
1.1452633 0.16432197 -0.0022216635
1.1476802 0.16420032 -0.0021081804
1.1500973 0.16407868 -0.0019946941
1.1525145 0.16395704 -0.0018812087
1.1549318 0.16383539 -0.0017677224
0.075089969 0.16603576 -0.0026643095
0.081942372 0.16569099 -0.0023425564
0.084226504 0.16557603 -0.0022353248
0.086510576 0.16546108 -0.002128094
0.088794775 0.16534616 -0.0020208615
0.091078907 0.16523121 -0.0019136308
0.12866637 0.16659909 -0.0025168387
0.72937351 0.16575101 -0.0014936582
1.0014825 0.16547428 -0.0015090378
1.0612838 0.16652454 -0.001685848
1.0636934 0.16640323 -0.0015727244
0.12408293 0.16682976 -0.0027320329
0.12637469 0.16671436 -0.0026244326
0.17341034 0.16760667 -0.002784004
0.23460676 0.16778649 -0.0022787196
0.2369137 0.16767034 -0.0021703867
1.0395979 0.16761585 -0.0027039787
1.0420073 0.16749451 -0.002590856
1.0444169 0.1673733 -0.0024777395
1.0468264 0.167252 -0.0023646164
1.0492358 0.16713077 -0.0022515007
1.0516455 0.16700947 -0.0021383781
1.0540551 0.16688828 -0.0020252024
1.0564647 0.16676705 -0.0019120858
1.0588741 0.16664575 -0.0017989632
1.1138037 0.16712946 -0.0016076905
1.1162211 0.1670078 -0.0014942051
0.22537905 0.16825075 -0.0027119098
0.68675286 0.16909422 -0.0014480951
1.1550298 0.16911446 -0.0026566698
1.1574566 0.1689923 -0.0025427407
1.1598834 0.16887017 -0.002428812
1.1623098 0.16874802 -0.0023148241
1.1720165 0.16825958 -0.0018591145
1.174443 0.16813755 -0.0017451928
0.13428719 0.17074014 -0.0026317672
0.72769076 0.17028964 -0.0019006142
0.73006415 0.17017014 -0.0017891838
0.73481101 0.16993138 -0.0015662792
1.0034184 0.17065696 -0.0023181923
1.0058281 0.17053571 -0.0022050762
1.0082377 0.1704144 -0.0020919535
1.0654248 0.1707883 -0.0017881067
1.0678419 0.17066668 -0.0016746209
1.0702589 0.17054503 -0.001561136
1.0726759 0.17042349 -0.0014476583
0.13198785 0.17085584 -0.0027397308
0.25199667 0.1721587 -0.0024182003
0.25662953 0.17192566 -0.0022007213
0.25894594 0.17180899 -0.0020919454
0.26126236 0.17169249 -0.0019831758
0.2635788 0.17157593 -0.0018744665
0.26589519 0.17145927 -0.0017656906
0.26821166 0.17134276 -0.0016569213
1.0485047 0.17163971 -0.0025824984
1.0581732 0.17115325 -0.0021285634
1.0605905 0.17103159 -0.0020150775
1.0630076 0.17090996 -0.0019015926
0.10206215 0.17352648 -0.0021556406
0.24504739 0.17250843 -0.002744514
0.24736382 0.17239189 -0.0026357449
0.24968024 0.17227523 -0.0025269692
1.1161673 0.17229919 -0.0023820745
1.1721618 0.17354591 -0.0027293768
1.1745981 0.17342329 -0.0026150043
1.1770341 0.17330065 -0.0025006323
1.1794704 0.17317812 -0.0023862654
1.1819066 0.17305551 -0.0022718934
1.1843426 0.17293288 -0.0021575224
1.1867788 0.17281033 -0.0020430963
1.1892149 0.17268769 -0.0019287243
1.191651 0.17256521 -0.0018143584
1.1940873 0.17244256 -0.0016999864
0.090565473 0.17410506 -0.0026954559
0.092864811 0.17398933 -0.0025874935
0.095164202 0.17387362 -0.0024795302
0.097463362 0.17375791 -0.0023715678
0.099762753 0.1736422 -0.0022636042
0.13995351 0.17488666 -0.0027313824
0.21953183 0.17496574 -0.0019385894
1.007377 0.17493373 -0.0024225242
1.0097941 0.17481209 -0.0023090392
1.0122112 0.17469044 -0.0021955534
1.0146285 0.17456892 -0.0020820745
1.0170454 0.1744473 -0.0019685891
1.0194626 0.17432563 -0.0018550451
0.074435547 0.17608143 -0.0014636479
0.2033169 0.17578168 -0.0026998678
0.20563331 0.17566517 -0.002591158
0.20794973 0.17554863 -0.0024823891
0.21026617 0.1754321 -0.0023736199
0.21258265 0.17531545 -0.0022648438
0.21489899 0.17519893 -0.002156134
0.21721543 0.17508237 -0.0020473651
0.25810924 0.17629147 -0.002482106
0.26043329 0.17617449 -0.0023730267
0.26275724 0.1760575 -0.0022638887
1.0049597 0.1750554 -0.0025360095
1.0651712 0.17609464 -0.0026771235
1.0700245 0.17585045 -0.0024492727
1.1404556 0.17637545 -0.0021106079
1.1428915 0.17625283 -0.0019961754
1.1453278 0.17613031 -0.0018818104
1.1477641 0.17600764 -0.0017674379
1.1502001 0.17588502 -0.0016530654
1.1526362 0.17576252 -0.0015387
1.1550723 0.17563987 -0.001424328
0.060639653 0.17677566 -0.0021113672
0.062938988 0.17665996 -0.0020034034
0.067537598 0.17642854 -0.0017875372
0.10531487 0.17779838 -0.0023620622
0.1076218 0.17768224 -0.0022537289
0.10992861 0.17756619 -0.002145404
0.25346112 0.17652532 -0.0027003761
0.25578517 0.17640834 -0.0025912384
1.1258386 0.17711093 -0.0027968804
1.1380193 0.17649797 -0.0022249734
1.1942991 0.17773518 -0.0025507342
1.1967447 0.17761216 -0.0024358663
1.2089729 0.17699686 -0.0018617474
0.096087128 0.17826265 -0.0027953126
0.098394156 0.17814662 -0.0026869855
0.100701 0.17803046 -0.0025786543
0.15926987 0.17917161 -0.0027640574
0.16158628 0.17905509 -0.002655288
0.16390279 0.17893857 -0.0025465186
0.16621917 0.17882191 -0.0024378032
0.16853561 0.17870535 -0.0023290333
1.0384414 0.1786689 -0.0018328992
1.0408682 0.17854688 -0.0017189765
1.0432948 0.17842478 -0.001604988
1.0457214 0.17830263 -0.0014910586
1.1894078 0.17798133 -0.0027803588
1.1918534 0.17785831 -0.0026655504
0.07298319 0.18059383 -0.0018844015
0.07528998 0.18047777 -0.0017760764
0.077597059 0.18036176 -0.0016677496
0.20926969 0.17992632 -0.0027646858
0.2115937 0.17980947 -0.0026556137
0.21391776 0.17969251 -0.0025464753
0.21624178 0.1795755 -0.0024373974
0.21856576 0.17945851 -0.0023282587
1.1063126 0.17932762 -0.0016061519
1.1624687 0.18057579 -0.0019295136
1.1649145 0.18045278 -0.0018146443
1.1673602 0.18032965 -0.001699829
1.1698055 0.18020663 -0.0015850202
1.1722515 0.18008353 -0.0014702035
0.059141643 0.1812904 -0.0025342572
0.066062473 0.18094218 -0.0022093321
0.068369322 0.18082602 -0.0021010002
0.070676289 0.18070999 -0.0019926741
0.12680516 0.18197878 -0.0022843934
0.12912151 0.18186212 -0.0021756778
0.13143796 0.18174557 -0.0020669084
0.25960383 0.1806643 -0.002749762
1.1453495 0.18143725 -0.0027332548
1.1477948 0.18131423 -0.002618446
1.1502405 0.18119112 -0.0025036312
1.1526862 0.18106808 -0.0023888214
1.1575774 0.18082194 -0.0021591377
1.1600232 0.18069895 -0.0020443276
1.2013162 0.18187998 -0.0024734763
1.2037694 0.18175656 -0.0023582978
1.2062227 0.1816332 -0.0022431263
1.208676 0.18150978 -0.0021279478
0.11753935 0.182445 -0.0027194778
0.11985586 0.18232846 -0.0026107081
0.16740215 0.18321045 -0.0027199839
0.16972619 0.18309347 -0.002610846
0.23858406 0.18290316 -0.0017195845
0.24091563 0.18278585 -0.0016101432
1.0502448 0.18338302 -0.002131138
1.052681 0.1832604 -0.0020167665
1.0575533 0.18301526 -0.0017880285
1.0624257 0.18277007 -0.001559231
1.0648618 0.18264747 -0.0014448597
1.1964099 0.18212692 -0.0027038315
1.1988631 0.18200348 -0.0025886549
0.094340228 0.18478578 -0.0018047839
0.096656725 0.18466926 -0.0016960143
0.09897317 0.1845526 -0.0015872383
0.10128956 0.18443608 -0.0014785286
0.21759944 0.18395922 -0.0027048769
1.0405003 0.18387333 -0.002588674
1.0429364 0.18375081 -0.002474308
1.0453727 0.18362816 -0.0023599355
1.0478089 0.18350556 -0.0022455044
1.1159648 0.18415484 -0.001997225
1.1184106 0.18403172 -0.0018824083
1.1208558 0.18390869 -0.0017676014
1.1233017 0.18378559 -0.0016527246
1.1693871 0.1847295 -0.0018503643
1.1718402 0.18460606 -0.0017351857
1.1742934 0.18448259 -0.0016200086
1.176747 0.18435915 -0.0015048292
0.073492371 0.18583493 -0.0027836079
0.075808935 0.1857183 -0.0026748311
0.078125246 0.18560176 -0.0025660628
0.080441751 0.18548521 -0.0024573521
0.082758196 0.18536857 -0.0023485762
0.085074633 0.18525201 -0.002239807
0.092023902 0.18490233 -0.0019135528
0.19891131 0.18608065 -0.0015652514
0.20124295 0.18596335 -0.0014557496
1.1497612 0.18571706 -0.0027717841
1.166934 0.18485297 -0.0019655428
0.12553474 0.18649448 -0.0026752155
0.13018283 0.18626064 -0.0024570045
0.18958475 0.18654996 -0.0020031435
0.19191641 0.18643267 -0.0018936421
0.19424808 0.18631536 -0.0017842004
0.25151697 0.18753153 -0.0020141406
0.25385806 0.18741375 -0.0019041963
0.25619924 0.18729596 -0.0017943104
0.25854039 0.18717818 -0.0016844255
0.26088148 0.18706036 -0.0015744809
0.2632226 0.18694256 -0.0014645364
1.0087937 0.186703 -0.001969852
1.0112298 0.18658033 -0.0018554805
1.0136659 0.18645771 -0.0017411085
1.0185382 0.18621254 -0.0015123708
1.0743519 0.18748765 -0.0018353052
1.0767977 0.18736462 -0.0017204955
1.0792434 0.18724151 -0.0016056797
1.0816889 0.18711847 -0.0014908123
0.05724274 0.18782599 -0.0015426578
0.059559062 0.18770947 -0.0014338887
0.099935479 0.18895991 -0.0018666683
0.10225949 0.18884294 -0.00175753
0.10458347 0.18872608 -0.0016484581
0.10690758 0.18860914 -0.0015393186
0.23512906 0.18835625 -0.0027835805
0.23747018 0.18823844 -0.0026736362
0.2398113 0.18812048 -0.0025637448
0.24917582 0.18764931 -0.0021240851
1.0547869 0.18847223 -0.0027539227
1.0596782 0.18822606 -0.0025242395
1.0694607 0.1877338 -0.0020649894
1.1227386 0.18831965 -0.0019183154
1.1251917 0.18819618 -0.0018030792
1.1276451 0.18807274 -0.0016878997
1.1300985 0.1879493 -0.0015727212
1.1325516 0.18782581 -0.0014575431
0.081343204 0.1898955 -0.002739585
0.092963383 0.18931073 -0.0021940181
0.095287398 0.18919389 -0.0020848857
0.097611465 0.18907692 -0.0019758069
0.1522437 0.18961015 -0.0017393088
0.15457529 0.18949284 -0.0016298082
0.15690692 0.18937552 -0.0015203664
0.15923846 0.18925813 -0.0014108585
0.19295348 0.19166447 -0.0027385061
0.1952946 0.19154668 -0.0026285616
0.19763573 0.19142887 -0.0025186767
0.19997688 0.19131096 -0.0024087247
0.20231803 0.19119318 -0.0022988399
0.20465915 0.19107535 -0.0021888958
0.20700024 0.19095756 -0.0020790107
0.20934139 0.19083977 -0.0019690655
0.25771034 0.19168793 -0.0020265777
1.0156196 0.19168198 -0.002477135
1.0180653 0.19155896 -0.0023623253
1.020511 0.19143584 -0.0022475095
1.0254023 0.19118971 -0.002017885
1.0278479 0.19106667 -0.0019030767
1.0302937 0.19094357 -0.0017882008
1.0376306 0.19057439 -0.0014437665
0.055743936 0.19236091 -0.0019310385
0.058067948 0.19224404 -0.0018219071
0.062716089 0.19201012 -0.0016036886
0.065040104 0.19189313 -0.0014945501
0.10557603 0.19313964 -0.0019133069
0.25066409 0.19204253 -0.0023573935
0.2530129 0.19192442 -0.0022471449
0.25536162 0.19180618 -0.0021368312
1.0107285 0.19192813 -0.0027068187
1.0131741 0.19180511 -0.0025920095
1.1423398 0.19266434 -0.0018109889
1.1448025 0.19254039 -0.0016953675
0.089254595 0.19396088 -0.0026796435
0.091586292 0.19384356 -0.0025701425
0.096249521 0.19360897 -0.0023511997
0.098581158 0.1934917 -0.0022417575
0.10091274 0.19337425 -0.00213225
0.10324433 0.19325693 -0.0020228084
1.1967225 0.19401634 -0.0021929704
1.1991948 0.19389202 -0.0020769108
0.072898082 0.19596513 -0.0014305229
0.15077794 0.19497269 -0.002693431
0.153119 0.19485487 -0.002583487
0.15546015 0.19473708 -0.0024736021
0.19895674 0.19583426 -0.0027532594
0.20365417 0.19559789 -0.0025326975
0.20600289 0.19547974 -0.0024224496
0.20835167 0.19536154 -0.0023121948
0.21070036 0.19524328 -0.0022018817
1.0196284 0.19599362 -0.0025149267
1.0220815 0.19587016 -0.0023997477
1.0245349 0.19574672 -0.0022845697
1.0269881 0.19562323 -0.002169332
1.0294414 0.19549979 -0.0020541539
1.0318947 0.19537634 -0.0019389754
1.0343479 0.1952529 -0.0018237964
1.0368011 0.19512939 -0.0017086188
1.0392544 0.19500609 -0.0015934464
1.0417078 0.19488263 -0.0014782683
0.049581848 0.19713837 -0.0025252509
0.05657677 0.19678643 -0.0021968663
0.058908354 0.19666916 -0.0020873654
0.061239935 0.19655171 -0.001977917
0.06357152 0.19643441 -0.001868416
0.065903336 0.19631714 -0.0017589738
0.068234861 0.19619985 -0.0016494727
0.070566446 0.19608244 -0.0015400245
0.25452381 0.1963243 -0.0024662414
1.014722 0.19624054 -0.0027452824
1.017175 0.19611706 -0.0026301048
1.0930477 0.19639227 -0.0019948152
1.0955104 0.19626831 -0.0018791943
1.0979733 0.19614445 -0.0017635794
1.1004361 0.19602051 -0.0016479571
1.1596014 0.1971367 -0.0017971881
1.1620737 0.19701223 -0.0016810638
0.10626124 0.19839869 -0.0027583013
0.10860238 0.19828092 -0.0026483564
0.11094356 0.19816311 -0.0025384114
0.11328468 0.19804534 -0.0024285265
0.11562574 0.19792742 -0.002318576
0.23092499 0.1987054 -0.0015357994
0.23328134 0.19858684 -0.0014251827
0.65374517 0.19801749 -0.0020602022
1.2092772 0.19873017 -0.0023918385
0.20500535 0.20000961 -0.0027527665
0.20736173 0.19989106 -0.0026421486
0.20971805 0.19977248 -0.002531532
0.21207435 0.19965392 -0.0024208559
0.21914336 0.19929823 -0.0020890036
0.22149962 0.19917968 -0.0019783275
0.223856 0.1990611 -0.0018677104
0.22621232 0.1989425 -0.0017570934
0.22856864 0.19882396 -0.0016464762
1.2018318 0.19910479 -0.0027414109
0.066426799 0.20158917 -0.0026032813
0.068767861 0.20147139 -0.0024933373
0.071109101 0.20135358 -0.0023834512
0.073450103 0.20123577 -0.0022735079
0.075791277 0.20111786 -0.0021636158
0.080473572 0.2008823 -0.0019437853
0.087496988 0.20052889 -0.0016140107
0.08983805 0.20041108 -0.0015040671
1.0977581 0.20150104 -0.0025620908
1.1002306 0.20137657 -0.0024460256
1.1027026 0.20125225 -0.0023299679
1.1051749 0.20112783 -0.0022138432
1.1076471 0.20100348 -0.0020977845
1.1101193 0.20087904 -0.0019817189
1.1125916 0.20075458 -0.0018656543
1.1150641 0.20063028 -0.0017495952
1.1175361 0.20050581 -0.0016334709
1.1200083 0.20038137 -0.0015174053
0.064085685 0.20170698 -0.0027131664
0.11198298 0.20259047 -0.0027731182
0.11433173 0.20247224 -0.0026628044
0.11668051 0.20235412 -0.0025525559
0.11902914 0.20223585 -0.0024423026
0.12137794 0.20211762 -0.0023319884
0.12607542 0.20188126 -0.0021114266
0.12842411 0.20176315 -0.0020011794
0.16962492 0.20298368 -0.0023754747
0.17198122 0.20286511 -0.0022648582
0.17433757 0.20274653 -0.0021542411
0.17669386 0.20262797 -0.0020436244
0.18847564 0.20203516 -0.0014904195
0.6517663 0.20262389 -0.0023906408
1.0141656 0.20285682 -0.0014374563
1.0928136 0.2017498 -0.002794215
1.095286 0.20162548 -0.0026781568
1.1571231 0.20261177 -0.0026936331
1.1596047 0.20248684 -0.0025771251
1.1620865 0.20236199 -0.0024606236
1.1645683 0.20223719 -0.0023441226
1.1670501 0.20211226 -0.0022275532
0.047662467 0.2037193 -0.0014589929
0.23452276 0.20383523 -0.0022143929
0.23688859 0.2037162 -0.0021033322
0.24635191 0.20323995 -0.0016590302
0.072019234 0.20579121 -0.0026176069
0.074368037 0.20567298 -0.0025072931
0.076716669 0.20555483 -0.0023970455
0.079065472 0.20543662 -0.0022867904
0.081414163 0.2053185 -0.0021764834
0.083762914 0.20520027 -0.0020662285
0.086111657 0.20508215 -0.0019559213
0.088460349 0.20496391 -0.0018456674
0.090809099 0.20484564 -0.0017354132
0.093157731 0.20472752 -0.0016251064
0.095506601 0.2046093 -0.0015148506
0.1389572 0.2057206 -0.0017769502
0.14131337 0.2056019 -0.0016663274
1.1198593 0.2057441 -0.0022962792
1.1223412 0.20561916 -0.0021797712
1.1248229 0.20549431 -0.0020632679
1.1273048 0.20536937 -0.0019467599
1.1297865 0.20524456 -0.0018301974
1.1322683 0.20511961 -0.001713689
1.1347499 0.20499478 -0.0015971889
0.069670483 0.20590945 -0.0027278611
0.11775009 0.20678769 -0.0027726828
0.12010644 0.20666912 -0.0026620068
0.12246279 0.20655055 -0.0025513894
0.12481923 0.206432 -0.0024407713
0.12717551 0.20631345 -0.0023300953
0.12953177 0.20619488 -0.0022194781
0.13188815 0.20607631 -0.0021088608
0.13424447 0.2059577 -0.0019982448
0.13660079 0.20583914 -0.0018876274
0.19190221 0.20717834 -0.0021688822
0.19663392 0.20694032 -0.0019467081
1.1099325 0.20624362 -0.002762361
1.1124142 0.20611867 -0.0026458506
1.1148962 0.20599388 -0.0025293482
1.1173778 0.20586891 -0.0024128403
1.1745362 0.20709547 -0.0026398478
1.1770276 0.20697014 -0.002522843
0.050845288 0.20804653 -0.0015799084
0.053194098 0.20792827 -0.0014696531
0.18007301 0.20777364 -0.0027242443
0.18243881 0.20765458 -0.0026131833
0.18480472 0.20753552 -0.0025020628
0.18717049 0.20741645 -0.0023910035
0.18953635 0.20729737 -0.0022799424
0.25261098 0.2074212 -0.0016207556
0.2549845 0.20730181 -0.0015093321
1.0185719 0.2079905 -0.0020025913
1.0210441 0.20786606 -0.0018865261
1.0235163 0.20774162 -0.0017704018
1.0259886 0.20761727 -0.0016543427
1.0284609 0.20749283 -0.0015382776
1.0309331 0.20736836 -0.0014222129
1.0900409 0.20850168 -0.001549405
1.1720451 0.20722091 -0.0027567991
0.077657141 0.20999888 -0.002616626
0.080013387 0.20988029 -0.0025060088
0.082369648 0.20976174 -0.0023953919
0.084726147 0.20964319 -0.0022847736
0.087082408 0.20952462 -0.0021741572
0.089438789 0.20940593 -0.0020634746
0.09179499 0.20928735 -0.0019528578
0.094151363 0.20916878 -0.0018422405
0.098864004 0.20893168 -0.0016209472
1.0825958 0.20887642 -0.001898983
1.0850775 0.20875144 -0.0017824159
1.0875591 0.20862664 -0.0016659135
1.1421124 0.20998909 -0.00200703
1.1446035 0.20986375 -0.0018900847
1.1470948 0.20973834 -0.0017730729
1.1495862 0.20961301 -0.0016561276
1.1520773 0.20948769 -0.0015391819
1.1545686 0.20936225 -0.0014221701
0.075300761 0.21011741 -0.0027273023
0.13508664 0.21123576 -0.0027897945
0.13745244 0.21111685 -0.0026786807
0.13981828 0.21099776 -0.0025676205
0.19798632 0.21137233 -0.0021322584
0.70158309 0.21080038 -0.0016415345
1.127165 0.21074125 -0.0027088337
1.1296561 0.21061592 -0.0025918293
1.1321476 0.21049049 -0.0024748771
1.1346387 0.21036516 -0.0023579323
1.1371298 0.21023984 -0.002240987
1.1396209 0.21011439 -0.0021239752
0.049345564 0.21261711 -0.0019074779
0.051701885 0.21249853 -0.0017968605
0.056414519 0.21226139 -0.001575627
0.18611918 0.21196949 -0.002689387
0.19086598 0.21173063 -0.0024665347
0.19323944 0.21161123 -0.0023551108
0.19561289 0.2114917 -0.0022436809
0.25395462 0.21268283 -0.0023739624
0.25633755 0.21256295 -0.0022620962
0.25872046 0.21244304 -0.0021502296
1.0304419 0.21275802 -0.0022007194
1.0329235 0.21263306 -0.002084211
1.0354052 0.21250822 -0.001967709
1.037887 0.21238329 -0.0018512006
1.0403687 0.21225846 -0.0017346391
1.0428505 0.21213351 -0.0016181306
0.10192932 0.21410272 -0.0022999293
0.10429524 0.21398365 -0.0021888092
0.10666098 0.21386471 -0.0020777562
0.1090268 0.21374568 -0.0019666953
0.11139265 0.21362661 -0.001855575
0.11375847 0.21350755 -0.0017445148
0.1161243 0.21338847 -0.0016334545
0.11849016 0.21326941 -0.0015223343
0.12085596 0.21315035 -0.0014112741
0.25157166 0.21280272 -0.0024858296
1.0180329 0.21338238 -0.0027833623
1.0205146 0.21325757 -0.0026668012
1.0229964 0.21313262 -0.0025502918
1.0254784 0.21300776 -0.0024337899
1.0279601 0.21288282 -0.0023172814
1.0872674 0.21401095 -0.0024269177
1.0897588 0.21388552 -0.0023099659
1.09225 0.21376018 -0.0021929601
1.0947413 0.21363489 -0.0020760144
1.0972325 0.21350943 -0.0019590631
1.0997237 0.21338412 -0.0018420592
1.1022149 0.21325879 -0.001725113
1.1047063 0.21313334 -0.0016081613
1.1071975 0.21300802 -0.001491216
0.092466012 0.21457899 -0.0027442309
0.094831809 0.21445993 -0.0026331707
0.097197607 0.21434084 -0.0025220509
0.099563465 0.21422178 -0.0024109902
1.1420103 0.2153686 -0.0027508554
1.1445112 0.2152428 -0.0026334058
1.1470119 0.21511698 -0.0025160173
1.1495128 0.21499117 -0.0023986283
1.1520132 0.21486522 -0.0022811741
1.1545141 0.2147394 -0.002163785
1.1570148 0.21461357 -0.002046336
1.1595156 0.21448778 -0.0019289479
1.1620165 0.21436194 -0.0018114988
1.1645172 0.21423604 -0.0016941042
0.068772011 0.21696968 -0.0018100651
0.071137868 0.21685064 -0.0016989452
0.075869516 0.21661261 -0.001476831
0.20149416 0.21652974 -0.002775619
0.20387706 0.21640985 -0.0026636936
0.20625997 0.21629003 -0.0025518271
1.0548435 0.21690445 -0.001794152
1.0573349 0.21677913 -0.0016771471
0.052211255 0.21780312 -0.0025876069
0.054576989 0.21768406 -0.0024764873
0.056942906 0.21756499 -0.0023654271
0.059308704 0.21744592 -0.0022543669
0.061674498 0.21732683 -0.0021433067
0.064040415 0.2172078 -0.0020321854
0.066406213 0.21708873 -0.0019211253
0.10772437 0.21831891 -0.0022636668
0.11009782 0.21819949 -0.0021522432
1.0349137 0.21790738 -0.0027298531
1.0374049 0.21778195 -0.0026129023
1.0398962 0.21765663 -0.0024958961
1.0423872 0.21753129 -0.0023789518
1.0448787 0.21740587 -0.0022619995
1.04737 0.21728051 -0.0021450543
1.0523524 0.21702978 -0.0019110972
1.1069622 0.21839902 -0.0022330247
1.109463 0.21827322 -0.0021156352
1.1119637 0.2181474 -0.001998188
1.1144645 0.21802157 -0.0018807985
1.1169654 0.21789575 -0.001763409
1.1194661 0.21776994 -0.0016459608
1.1219667 0.21764399 -0.0015285658
0.09823069 0.21879669 -0.0027094309
0.10060418 0.2186773 -0.0025980079
0.10297757 0.2185578 -0.0024865782
0.10535094 0.2184384 -0.0023751555
0.17762892 0.21893783 -0.0018346858
0.18477766 0.21857809 -0.0014990198
1.0969592 0.21890242 -0.0027026455
1.09946 0.2187766 -0.0025852574
1.1019607 0.21865079 -0.0024678693
1.1044616 0.21852496 -0.0023504193
1.1619713 0.21974836 -0.002536261
1.1644816 0.21962208 -0.0024183681
1.1745226 0.21911685 -0.0019469797
1.1770328 0.2189905 -0.0018290882
1.1795429 0.21886422 -0.0017112577
0.074460685 0.22119507 -0.0017722743
0.076833993 0.22107567 -0.0016608515
0.079207413 0.2209563 -0.0015493685
0.08158084 0.22083677 -0.0014379392
0.64847869 0.22006789 -0.0027894219
1.0769155 0.22117779 -0.0014804164
1.1569507 0.220001 -0.0027719853
1.159461 0.21987471 -0.0026540938
0.06259349 0.22179221 -0.0023294622
0.064966857 0.22167283 -0.0022180397
0.067340285 0.22155344 -0.0021065569
0.069713712 0.22143397 -0.0019951269
0.072087139 0.22131458 -0.001883704
1.0519081 0.2224362 -0.0026545548
1.0544088 0.22231036 -0.0025371071
1.0569096 0.22218457 -0.002419719
1.0694133 0.22155534 -0.0018326482
1.071914 0.22142954 -0.0017152601
1.0744148 0.22130373 -0.0015978115
0.11325379 0.22338429 -0.0027956818
0.11563675 0.22326443 -0.0026838155
0.11801969 0.22314455 -0.0025719486
1.1117285 0.22354825 -0.0027236519
1.1142387 0.22342193 -0.00260576
1.1242796 0.22291668 -0.0021343119
1.1871042 0.22387737 -0.0020623808
1.189624 0.22375056 -0.0019440455
1.1921437 0.22362374 -0.0018257699
1.1946634 0.22349691 -0.0017074952
0.098920375 0.22531275 -0.0014072745
1.0218614 0.22521496 -0.0019018878
1.0243622 0.22508915 -0.0017844988
1.0268631 0.22496332 -0.0016671102
1.0293638 0.22483751 -0.0015496621
1.0318645 0.22471158 -0.0014322666
1.1719856 0.22463807 -0.0027722064
1.1745052 0.22451128 -0.0026538731
1.1770252 0.22438449 -0.002535596
1.1795449 0.22425766 -0.0024172608
1.1820648 0.22413087 -0.0022989847
1.1845845 0.22400416 -0.0021806564
0.070325062 0.22675158 -0.0027498063
0.072708026 0.22663169 -0.0026379391
0.075090982 0.22651184 -0.0025260726
0.077473946 0.22639194 -0.0024142058
0.082239747 0.22615203 -0.0021904667
0.084622771 0.2260322 -0.0020785402
0.096537352 0.22543262 -0.001519142
0.15233397 0.22677107 -0.0017360434
1.0740366 0.22671656 -0.0023217048
1.0765469 0.22659013 -0.0022038659
1.0790572 0.22646379 -0.002085973
1.0815675 0.22633749 -0.0019681412
1.0840777 0.22621119 -0.0018503089
1.086588 0.22608484 -0.0017324174
1.0890983 0.22595857 -0.0016145851
1.0916086 0.22583225 -0.0014966922
0.13797945 0.22749335 -0.0024100221
0.14276424 0.22725259 -0.0021853428
0.14754921 0.22701186 -0.001960722
0.14994159 0.22689143 -0.0018483533
0.20401986 0.22748707 -0.001578629
1.0715264 0.22684284 -0.0024395958
1.1265922 0.2281988 -0.0027236911
1.1291118 0.22807199 -0.0026053567
1.1316317 0.22794515 -0.0024870802
1.1341513 0.22781835 -0.0023688055
1.1467501 0.22718443 -0.001777254
1.1492698 0.22705762 -0.0016589779
1.1517894 0.22693081 -0.0015406446
1.1543094 0.226804 -0.001422368
0.039311141 0.22951944 -0.0021445372
0.048842814 0.2290398 -0.0016970051
0.051225718 0.22891982 -0.0015851315
0.053608742 0.22879992 -0.001473265
0.24861629 0.22938909 -0.0023214335
0.25102583 0.22926791 -0.0022083176
1.0438759 0.22950579 -0.0015662522
1.0463864 0.22937948 -0.0014483607
1.1871153 0.2292801 -0.0027515311
1.1896445 0.2291528 -0.002632814
1.1921738 0.2290255 -0.0025140354
1.194703 0.22889832 -0.0023953216
1.1972321 0.228771 -0.0022765445
0.094879456 0.23087409 -0.0023639631
0.10444928 0.23039258 -0.0019146635
0.10684172 0.23027222 -0.0018022939
0.10923412 0.2301518 -0.0016899836
1.0212836 0.23064274 -0.0026269876
1.0237941 0.23051633 -0.0025090887
1.0263041 0.23039 -0.0023912564
1.0288144 0.23026367 -0.0022733649
1.0313247 0.23013735 -0.0021555326
1.0363451 0.22988474 -0.0019198088
1.0388554 0.22975841 -0.001801976
1.0413656 0.22963211 -0.0016840845
1.0963172 0.23099861 -0.0019653421
0.13678268 0.2320863 -0.0026592729
0.14158276 0.23184477 -0.0024339212
0.14398277 0.23172393 -0.0023212417
0.14638278 0.23160325 -0.0022085095
0.14878288 0.23148242 -0.0020958888
0.15118286 0.23136173 -0.0019831576
0.21484645 0.232309 -0.0018225318
0.21725605 0.23218779 -0.001709355
0.64691997 0.23131718 -0.001636266
0.64938277 0.23119324 -0.0015206439
1.0786787 0.23188616 -0.0027934443
1.0811987 0.23175946 -0.0026751747
1.0837182 0.23163266 -0.0025568404
1.0862381 0.23150586 -0.0024385643
1.0887581 0.23137905 -0.0023202277
1.0912776 0.23125224 -0.002201953
1.0937976 0.23112543 -0.0020836168
1.1516676 0.23234501 -0.0022278377
1.1541969 0.23221785 -0.0021091257
1.1567261 0.23209052 -0.0019903472
0.20038928 0.23303658 -0.0025013073
0.20279877 0.23291524 -0.0023881248
0.20520838 0.23279403 -0.0022750089
0.20761786 0.23267272 -0.0021618858
0.21002741 0.23255153 -0.0020487695
0.21243693 0.23243022 -0.0019356478
1.1415505 0.23285411 -0.0027028262
1.1440799 0.23272693 -0.0025841142
1.1466089 0.2325996 -0.0024653361
1.1491383 0.2324723 -0.0023466153
1.2048783 0.23379911 -0.0025908514
0.046994772 0.23449558 -0.0025425234
0.049387213 0.23437518 -0.0024302138
0.051779713 0.23425484 -0.0023179036
0.054172155 0.23413442 -0.0022055344
0.056564532 0.23401405 -0.0020932248
0.10074598 0.23511545 -0.0022750003
0.10314605 0.23499471 -0.0021623275
0.10554606 0.23487389 -0.0020496487
0.10794614 0.23475309 -0.0019369689
0.2429422 0.23421614 -0.002766144
0.24535938 0.2340945 -0.0026526593
0.24777655 0.23397285 -0.0025391728
1.045884 0.23481293 -0.0021534371
1.048404 0.23468611 -0.0020351019
1.0509236 0.23455931 -0.0019168262
1.0559632 0.23430568 -0.0016802158
1.0584828 0.23417889 -0.0015618801
1.0610026 0.23405206 -0.0014436045
1.1212785 0.23515543 -0.0014666519
1.2023396 0.23392691 -0.0027100146
0.093545832 0.23547778 -0.0026130907
0.095945902 0.23535694 -0.0025003524
0.098345913 0.23523626 -0.0023876796
0.15457179 0.23656265 -0.0025679991
0.22115165 0.23653704 -0.0016982279
0.2235688 0.2364154 -0.001584742
0.22598588 0.2362939 -0.0014712638
0.6499092 0.23656072 -0.0022021388
0.6548537 0.23631181 -0.0019699491
1.0332853 0.23544686 -0.0027449876
1.0934567 0.23655556 -0.0027729059
1.0959861 0.23642828 -0.0026541273
1.0985152 0.23630096 -0.0025354084
1.1010443 0.23617364 -0.0024166303
1.1035737 0.23604646 -0.0022979174
1.1061031 0.23591915 -0.0021791379
1.1086323 0.23579186 -0.0020604189
1.1111615 0.23566455 -0.0019416409
1.1136906 0.23553737 -0.0018228698
1.11622 0.23541005 -0.0017041494
1.1187493 0.23528276 -0.0015853699
1.176914 0.23649247 -0.0017075539
1.1794527 0.23636465 -0.0015883907
1.1819913 0.23623684 -0.0014691697
0.02542693 0.23679289 -0.0014855547
0.14975266 0.23680522 -0.0027942972
0.15216215 0.23668391 -0.0026811145
0.19939737 0.23763169 -0.0027195902
0.20181455 0.23751019 -0.0026061109
0.20423163 0.23738855 -0.0024926257
0.20664878 0.23726687 -0.0023791406
0.20906593 0.23714523 -0.0022656547
0.21148308 0.23702361 -0.0021521698
0.21390019 0.23690197 -0.0020386842
0.21631737 0.23678033 -0.0019251989
0.21873444 0.23665868 -0.0018117137
0.64743686 0.23668502 -0.0023181976
1.1540651 0.23764217 -0.0027803467
1.1566037 0.23751438 -0.0026611257
0.050309103 0.23886929 -0.0025668498
0.052709114 0.23874843 -0.00245417
0.055109065 0.23862773 -0.0023414972
1.0655968 0.23923868 -0.0018929406
1.068126 0.23911135 -0.0017742226
1.0706552 0.23898403 -0.0016554445
1.0731846 0.2388569 -0.0015367307
1.0757136 0.2387296 -0.0014179531
0.1063447 0.24021003 -0.0027478654
0.10875434 0.24008882 -0.0026347497
0.16310388 0.24068247 -0.0023325859
0.16552106 0.24056084 -0.0022191005
0.17277241 0.24019602 -0.0018786513
0.17518952 0.24007437 -0.0017651663
0.17760664 0.23995273 -0.0016516803
1.058009 0.23962046 -0.0022492106
1.1210229 0.24059087 -0.0021354808
1.1261007 0.24033538 -0.0018971013
1.1286395 0.24020763 -0.0017778794
1.131178 0.24007992 -0.001658665
1.1337168 0.2399521 -0.0015395018
1.1362555 0.23982441 -0.0014202865
0.021472381 0.24153605 -0.001844547
0.023872511 0.24141538 -0.0017318723
0.026272582 0.24129452 -0.0016191935
0.028672533 0.24117382 -0.0015064615
0.15343535 0.24116907 -0.0027865877
0.15585247 0.24104741 -0.0026730429
0.1582696 0.24092576 -0.0025595566
0.21757942 0.24210189 -0.0025869
0.22243266 0.24185757 -0.0023590429
0.22728603 0.24161343 -0.0021311319
0.22971259 0.24149127 -0.002017203
1.2003024 0.24157108 -0.0018270197
1.2028521 0.24144271 -0.0017073406
1.2054023 0.24131452 -0.001587607
1.2079525 0.24118614 -0.0014678673
0.065346241 0.24349377 -0.0025883252
0.067755729 0.24337246 -0.0024752028
0.070165336 0.24325125 -0.0023620855
0.072574824 0.24312992 -0.0022489638
0.074984431 0.24300875 -0.0021358468
0.077393919 0.24288756 -0.0020227311
0.0798034 0.2427662 -0.0019095498
0.082213007 0.242645 -0.0017964329
0.084622495 0.2425237 -0.0016833111
1.020032 0.24281269 -0.0018442348
1.0225613 0.2426855 -0.0017255233
1.0250907 0.2425582 -0.0016067438
1.02762 0.24243091 -0.0014880253
1.087981 0.24353969 -0.0014906195
1.1799009 0.24259774 -0.0027849306
1.182451 0.24246937 -0.00266519
1.1850013 0.24234106 -0.0025454513
1.1875513 0.24221267 -0.0024257116
0.062936693 0.24361496 -0.0027015007
0.10989039 0.24458475 -0.00274004
0.11230759 0.2444631 -0.0026265541
0.11472468 0.24434146 -0.0025130089
1.0803648 0.24392286 -0.001848212
1.0829035 0.24379519 -0.0017289976
1.0854423 0.24366736 -0.0016098348
0.033986177 0.24629237 -0.0019762989
0.038805034 0.24604997 -0.001750068
0.041214637 0.24592866 -0.0016369447
0.04362407 0.24580742 -0.0015237702
0.046033736 0.2456861 -0.0014106466
0.17386338 0.2455309 -0.0025401635
0.24809393 0.24596101 -0.0018586874
0.25053006 0.24583837 -0.0017443153
0.25296623 0.24571575 -0.0016299426
0.25540239 0.24559323 -0.0015155766
1.1339597 0.24620134 -0.0027357973
1.1365097 0.24607299 -0.0026160562
1.1390599 0.24594463 -0.0024963175
1.1441602 0.24568807 -0.0022569052
1.1467104 0.24555974 -0.0021371646
1.1492606 0.24543135 -0.0020174258
1.1518104 0.24530302 -0.0018976866
1.1543608 0.24517466 -0.0017779465
0.031576511 0.24641365 -0.0020894213
0.071179844 0.24775702 -0.0024665147
0.073596962 0.24763541 -0.0023530293
0.07601402 0.24751385 -0.0022395519
0.078431197 0.24739221 -0.002126066
0.080848373 0.24727058 -0.0020125797
0.083265431 0.24714895 -0.0018990948
0.085682668 0.24702726 -0.0017856093
0.088099726 0.24690564 -0.0016721243
0.090516962 0.24678399 -0.0015586388
0.092934079 0.24666235 -0.001445153
1.0295514 0.24776593 -0.0020377073
1.0320902 0.24763812 -0.0019184854
1.0346289 0.24751043 -0.0017993292
1.0371677 0.24738263 -0.0016801083
1.0397063 0.24725483 -0.0015608864
1.0422451 0.24712718 -0.0014417302
1.2079798 0.2466228 -0.0020971415
0.066345491 0.24800029 -0.0026934862
0.068762727 0.24787867 -0.0025799996
0.21151505 0.2490357 -0.0014686571
0.64095861 0.24908933 -0.0018302635
0.64344978 0.24896388 -0.0017133115
1.0168577 0.2484047 -0.0026336866
1.0193963 0.24827687 -0.0025144648
1.0219351 0.24814922 -0.0023953086
1.0244739 0.24802142 -0.0022760858
1.0270127 0.24789372 -0.0021568714
1.100769 0.24916333 -0.0020880331
1.1033193 0.24903499 -0.0019682925
1.1058693 0.24890663 -0.0018485547
1.1109699 0.24865003 -0.0016090809
1.1135199 0.2485217 -0.0014894004
0.042137709 0.25044304 -0.0017390621
0.044554945 0.25032136 -0.0016255752
0.046972066 0.25019971 -0.0015120313
1.0880182 0.24980491 -0.0026866649
1.0905685 0.24967659 -0.0025669839
1.098219 0.24929166 -0.0022077728
1.1567479 0.25049752 -0.0022882503
1.1593076 0.25036868 -0.0021680677
1.1618674 0.25023988 -0.0020478843
1.164427 0.2501111 -0.0019277083
1.1669867 0.24998228 -0.0018075262
1.1695464 0.24985343 -0.0016873418
0.096137814 0.25190064 -0.0019909861
0.098564468 0.25177842 -0.0018770582
0.100991 0.25165641 -0.0017631352
0.10341772 0.25153434 -0.0016492066
0.10584437 0.25141218 -0.0015352769
0.10827097 0.25129005 -0.0014213487
0.24461621 0.25154045 -0.0027100469
0.24706179 0.25141725 -0.0025952319
1.1465094 0.25101265 -0.0027689091
1.1490691 0.25088394 -0.0026487936
1.1516287 0.25075513 -0.0025286111
1.1541883 0.25062627 -0.0024084277
0.081577942 0.25263336 -0.0026745521
0.084004596 0.25251123 -0.0025606244
0.08643131 0.25238901 -0.0024466945
0.088857844 0.25226694 -0.0023327658
0.091284499 0.25214484 -0.0022188434
0.093711041 0.25202271 -0.0021049164
1.0471774 0.25315183 -0.0023981114
1.0497276 0.25302365 -0.0022783778
1.0522776 0.25289521 -0.0021586395
1.0548277 0.25276691 -0.0020389003
1.0573781 0.25263861 -0.0019191592
1.0599283 0.25251022 -0.0017994791
1.0624782 0.25238198 -0.0016797474
0.21034035 0.25450405 -0.0022036349
0.21278599 0.25438103 -0.0020888252
1.0395269 0.25353688 -0.00275733
1.1003969 0.25462973 -0.0027196547
1.1029567 0.25450084 -0.0025994699
1.1055161 0.25437218 -0.0024792952
1.1131953 0.2539857 -0.0021187523
1.115755 0.25385687 -0.0019985684
1.1183145 0.25372803 -0.0018783859
0.042715158 0.25581819 -0.002399964
0.047568586 0.2555739 -0.002172105
0.049995065 0.25545171 -0.0020581782
0.052421778 0.25532976 -0.0019442552
0.054848369 0.2552076 -0.0018303264
0.057275027 0.25508547 -0.0017163978
0.059701741 0.25496331 -0.0016024689
0.062128279 0.2548413 -0.0014885468
1.0139869 0.25611386 -0.0017503467
1.159135 0.2558299 -0.0027820128
1.1617044 0.25570053 -0.0026613856
1.1642731 0.25557134 -0.0025407667
1.1668426 0.25544196 -0.002420139
1.1694117 0.25531277 -0.0022995207
0.094506942 0.25739178 -0.0027473748
0.096943013 0.25726911 -0.0026330031
0.099379264 0.25714666 -0.0025186366
0.10181534 0.25702399 -0.0024042649
0.10425147 0.25690138 -0.0022898917
1.0114368 0.25624216 -0.0018700873
1.0747619 0.25721633 -0.0017089518
1.0773215 0.25708756 -0.0015887697
1.0517248 0.25837559 -0.0027905214
1.0542843 0.25824675 -0.0026703971
1.0568442 0.25811791 -0.0025502141
1.0594038 0.25798926 -0.0024300371
1.0619636 0.25786033 -0.0023098541
1.0645232 0.2577315 -0.0021896716
1.1308355 0.25855535 -0.0018882076
1.1334046 0.25842604 -0.0017675813
1.1359738 0.25829685 -0.0016469602
0.060364243 0.26034397 -0.0022429782
0.0676727 0.25997618 -0.0018998079
0.070108891 0.25985351 -0.0017854361
0.072544962 0.25973096 -0.0016710703
0.07498116 0.25960836 -0.001556698
0.077417351 0.25948575 -0.001442326
0.20939294 0.25913441 -0.0023557313
1.2058762 0.259772 -0.0017393213
1.2084569 0.25964209 -0.0016181185
0.050619774 0.26083422 -0.0027005125
0.057928167 0.26046646 -0.0023573437
0.11488658 0.26178503 -0.0024539803
0.12466917 0.26129287 -0.0019946776
1.0107318 0.26173499 -0.0025008982
1.0132917 0.26160622 -0.0023807222
1.0158511 0.26147744 -0.0022605383
1.0184109 0.26134858 -0.0021403548
1.0209705 0.2612198 -0.0020201779
1.0235302 0.26109096 -0.0018999954
1.02609 0.26096219 -0.0017798119
1.0286496 0.26083341 -0.0016596355
1.0312091 0.26070458 -0.001539513
1.0337687 0.26057574 -0.0014192709
0.10754964 0.26215431 -0.0027984199
0.10999524 0.26203111 -0.0026836046
0.112441 0.26190814 -0.002568796
0.15538459 0.26309481 -0.002769212
0.1578379 0.26297131 -0.0026540332
0.16029117 0.26284787 -0.002538855
0.23777053 0.26313373 -0.0016719848
0.2402333 0.26300976 -0.0015563624
0.24269602 0.26288587 -0.0014407411
0.68525589 0.26317132 -0.0016469539
0.68777561 0.26304448 -0.0015286789
0.69029534 0.26291776 -0.0014104093
1.0081723 0.26186383 -0.0026210817
1.084552 0.2621859 -0.0018387074
1.0871211 0.26205653 -0.0017180825
1.0896904 0.26192734 -0.0015974618
0.085501961 0.26450264 -0.0017179491
0.087947577 0.2643795 -0.0016030741
0.21806857 0.26412514 -0.0025970046
0.22545682 0.26375341 -0.0022501452
0.22791953 0.26362947 -0.0021345238
0.23038231 0.26350549 -0.0020188426
0.23284504 0.26338154 -0.0019032212
0.68273604 0.26329803 -0.0017652891
0.0732738 0.26511791 -0.0022920673
0.075719588 0.26499489 -0.0021771975
0.078165077 0.26487181 -0.0020623826
0.080610745 0.26474878 -0.0019475737
0.083056353 0.26462564 -0.0018327576
0.12345549 0.2659443 -0.0021460997
0.12590873 0.2658208 -0.0020309216
0.12836194 0.26569739 -0.0019157435
0.13081527 0.26557389 -0.0018005054
0.13326845 0.26545045 -0.0016853868
0.13572164 0.26532698 -0.00157015
1.0356991 0.26594555 -0.0019098879
1.2084241 0.26511639 -0.002191049
0.11118926 0.26656148 -0.0027219851
0.11364247 0.26643804 -0.0026068068
0.11609571 0.26631454 -0.0024916288
0.11854901 0.26619107 -0.0023764498
0.12100219 0.26606774 -0.0022612782
0.63482273 0.26698557 -0.0018350491
0.63734245 0.26685879 -0.0017167735
0.6398623 0.26673198 -0.0015984976
0.64238203 0.26660514 -0.0014801628
1.0177151 0.26685059 -0.0027542533
1.0202841 0.26672125 -0.002633628
1.0228535 0.26659206 -0.0025130073
1.0254226 0.26646268 -0.0023923814
1.0279918 0.26633331 -0.0022717556
1.030561 0.26620412 -0.002151134
1.0331298 0.26607481 -0.0020305086
1.1077372 0.26732481 -0.0018822295
1.1103178 0.26719493 -0.0017610849
1.1128985 0.26706514 -0.0016399482
1.1154788 0.26693526 -0.001518745
0.091526344 0.2687937 -0.0015229229
0.093979582 0.26867026 -0.0014077439
0.23423663 0.26874882 -0.0024701527
0.23670894 0.2686244 -0.0023540864
0.2416534 0.26837552 -0.0021219046
0.24412571 0.26825115 -0.002005839
0.2465979 0.26812685 -0.0018897799
1.1695342 0.26838532 -0.0017763595
0.07680697 0.26953429 -0.002213985
0.079260148 0.26941091 -0.0020988733
0.081713326 0.2692875 -0.0019836356
0.084166624 0.26916406 -0.0018684574
0.086619869 0.26904061 -0.0017532784
0.089073166 0.26891711 -0.0016381004
0.22929214 0.26899764 -0.0027022748
0.23176441 0.26887313 -0.0025862106
0.12441011 0.27133316 -0.0027334215
0.12687288 0.27120924 -0.0026178001
0.13426107 0.27083749 -0.0022709414
0.14657475 0.27021784 -0.0016927801
1.0509257 0.27149084 -0.0023172344
1.0535064 0.27136099 -0.0021960302
1.056087 0.27123103 -0.002074887
1.0586675 0.27110127 -0.0019537495
1.0612482 0.27097142 -0.0018325453
1.0638288 0.27084154 -0.0017114016
1.0664092 0.27071163 -0.0015902575
1.06899 0.27058184 -0.0014691208
1.2083721 0.27060118 -0.0027483846
1.0431844 0.27188033 -0.0026806593
1.0457647 0.27175051 -0.0025595161
1.0483453 0.2716206 -0.0024383725
1.1047435 0.27295771 -0.0025777039
1.1073338 0.27282736 -0.0024561156
1.1099237 0.27269703 -0.002334476
1.1125139 0.27256668 -0.0022128895
1.115104 0.27243629 -0.0020913007
1.1176939 0.272306 -0.0019696611
1.120284 0.27217564 -0.0018480741
1.122874 0.27204537 -0.0017264923
1.1254642 0.27191502 -0.0016048457
1.1280541 0.27178466 -0.0014832574
0.09235727 0.27419364 -0.0021078503
0.10220832 0.27369797 -0.0016453696
0.10467101 0.27357396 -0.0015297486
0.10713382 0.27345011 -0.0014140662
0.24061051 0.27387461 -0.0027866303
0.24309236 0.27374977 -0.0026700699
0.25053757 0.27337518 -0.0023205567
0.2530193 0.27325028 -0.0022039877
1.1021534 0.27308795 -0.0026992848
1.1615409 0.27427459 -0.0026983274
1.1641406 0.27414382 -0.0025762427
1.1667401 0.27401304 -0.0024542189
1.1693394 0.27388215 -0.0023321887
1.1719391 0.27375144 -0.0022101048
1.1745386 0.27362049 -0.0020880732
1.1771382 0.27348977 -0.0019659903
1.1797378 0.27335894 -0.0018439596
1.1823374 0.27322814 -0.0017218762
1.1849371 0.27309725 -0.0015998427
1.0762138 0.27570534 -0.0016766204
0.13774465 0.27610907 -0.0027231483
1.0529034 0.27687833 -0.0027710577
1.0554934 0.27674809 -0.0026494185
1.0606735 0.27648741 -0.0024062493
1.0632634 0.27635705 -0.0022846037
1.0658537 0.27622661 -0.0021630158
1.0684437 0.27609637 -0.0020414353
1.0710338 0.27596602 -0.0019197883
1.0736237 0.27583569 -0.0017982065
1.1303068 0.27716318 -0.0019159322
1.1329063 0.27703241 -0.0017939094
1.1355059 0.27690157 -0.001671819
0.11545717 0.27848297 -0.0016308689
1.1199085 0.27768648 -0.0024041617
1.1225082 0.27755556 -0.0022821319
1.1251076 0.27742484 -0.0021600486
1.1277074 0.27729395 -0.0020380169
0.11051275 0.27873176 -0.0018630518
0.11298497 0.27860728 -0.0017469864
1.0321437 0.27923509 -0.0015051053
1.1826652 0.27954441 -0.0027926178
1.1852765 0.27941298 -0.0026700688
1.1878873 0.27928156 -0.0025474606
1.1904982 0.27915025 -0.0024248604
1.193109 0.27901882 -0.0023022527
1.1957202 0.27888739 -0.0021797023
1.1983311 0.27875608 -0.0020571011
0.22707355 0.28127408 -0.0018664279
0.22956488 0.28114873 -0.0017494229
0.23205607 0.28102329 -0.001632472
0.23454733 0.28089803 -0.0015155266
1.0088332 0.28040802 -0.0025995448
1.0730772 0.28135988 -0.0023541069
1.0756767 0.28122899 -0.0022320747
1.0782764 0.28109828 -0.0021099909
1.0860752 0.28070581 -0.0017438526
1.0886747 0.28057498 -0.0016218214
0.20963489 0.28215158 -0.0026851785
0.21212611 0.28202626 -0.0025682326
0.21461737 0.28190094 -0.002451228
1.0678779 0.28162149 -0.0025982205
1.0704778 0.28149065 -0.0024761287
1.1460726 0.28270838 -0.0022520106
1.1486834 0.28257689 -0.0021294029
1.1512945 0.28244564 -0.0020068609
1.1539054 0.28231421 -0.0018842523
1.1591272 0.28205147 -0.0016390448
1.1617384 0.28192005 -0.0015164963
0.11392929 0.28402084 -0.0022937167
0.11641108 0.283896 -0.0021771542
0.11889272 0.2837711 -0.0020606457
0.12385628 0.28352129 -0.0018276356
0.12633801 0.28339645 -0.0017110743
0.12881979 0.28327149 -0.0015945659
0.13130154 0.28314671 -0.0014780634
1.0444429 0.28411761 -0.0014496814
1.1356283 0.28323394 -0.0027423766
1.1382395 0.28310245 -0.002619768
1.1408505 0.28297108 -0.0024971594
1.1434616 0.28283972 -0.0023746183
1.2008209 0.28413808 -0.0024523512
1.0184472 0.28542569 -0.0026701884
1.0210469 0.28529492 -0.0025481638
1.0236465 0.28516415 -0.0024261395
1.0262461 0.28503329 -0.0023040506
1.0288457 0.28490245 -0.0021820255
1.0314451 0.28477168 -0.0020599342
1.0340446 0.28464091 -0.00193791
1.0366442 0.28451002 -0.0018158201
1.0392439 0.28437924 -0.0016937954
1.0418435 0.28424853 -0.0015717708
1.1955799 0.28440174 -0.0026984485
1.1982005 0.28426984 -0.0025753966
0.23098408 0.28654805 -0.0022574323
0.69818366 0.28653908 -0.0016751979
1.0885919 0.28692347 -0.0026920754
1.0912027 0.2867921 -0.0025694673
1.0938138 0.28666064 -0.0024469206
1.0964249 0.28652933 -0.002324319
1.099036 0.2863979 -0.0022017094
1.1016469 0.28626648 -0.0020791613
1.1042577 0.28613517 -0.0019565597
1.1068687 0.28600374 -0.001833953
1.1094798 0.28587231 -0.0017114035
1.1120907 0.28574103 -0.0015888019
1.1147016 0.2856096 -0.0014661956
0.13731365 0.28831479 -0.0017704358
0.13980491 0.28818947 -0.0016534902
1.1562334 0.28770912 -0.0022788765
1.158854 0.28757724 -0.0021558255
1.1614746 0.2874454 -0.0020328392
1.1640948 0.28731349 -0.0019097892
0.13482235 0.28844023 -0.0018874475
0.1934351 0.2897042 -0.0018570509
0.18843363 0.28995594 -0.0020918949
0.63415354 0.2910578 -0.0024671494
1.0389442 0.29074436 -0.0027643773
1.0415553 0.29061303 -0.0026418357
1.0441662 0.2904816 -0.0025192266
1.0467771 0.29035017 -0.0023966208
1.0493881 0.29021886 -0.0022740779
1.051999 0.29008749 -0.0021514706
1.05461 0.289956 -0.0020288615
1.0572209 0.28982472 -0.0019062599
1.1142668 0.29114839 -0.001982356
1.1168871 0.29101652 -0.0018593054
1.1195077 0.29088467 -0.0017363182
1.1221279 0.29075271 -0.00161327
0.23493215 0.29182976 -0.0026302619
0.2374424 0.29170349 -0.0025124301
0.24246292 0.29145089 -0.002276706
1.1116461 0.29128024 -0.0021054009
1.1879855 0.29247198 -0.0018265466
1.1906174 0.29233959 -0.0017029834
1.1932492 0.29220718 -0.001579416
0.138381 0.29374138 -0.0022785822
1.0049624 0.29377705 -0.002101169
1.0075732 0.29364556 -0.0019786223
0.18970986 0.29537705 -0.0025819291
0.19222008 0.29525071 -0.0024640968
0.19473033 0.29512429 -0.0023461992
1.0565767 0.29537886 -0.0024240655
0.18719956 0.29550335 -0.0026998208
0.24647723 0.29673871 -0.0026300084
0.24899702 0.29661188 -0.0025116729
0.25151679 0.2964851 -0.0023933377
1.0487154 0.29577443 -0.0027931463
1.1405722 0.2961911 -0.0017758803
1.1432041 0.2960586 -0.0016523101
1.1458359 0.29592612 -0.0015287423
0.24395756 0.29686549 -0.002748284
1.0277123 0.29815879 -0.0015123598
1.1195172 0.29725057 -0.0027644178
1.1221491 0.2971181 -0.0026408485
1.124781 0.29698569 -0.0025172802
1.1904176 0.2978819 -0.0021817945
1.1930588 0.29774901 -0.0020577903
1.2009832 0.29735023 -0.0016857591
0.13946702 0.29917687 -0.0027693205
0.14197731 0.29905045 -0.0026514819
0.14448753 0.29892418 -0.0025335895
0.14699775 0.29879788 -0.0024157572
1.0067484 0.29921365 -0.0024966272
1.019851 0.2985543 -0.0018814416
1.0224713 0.29842246 -0.0017583976
1.179852 0.2984136 -0.0026778379
0.19856401 0.30042619 -0.0026997686
0.20108376 0.30029935 -0.0025814925
0.20612326 0.30004579 -0.0023448812
0.20864305 0.29991895 -0.0022265462
1.0852633 0.30030754 -0.0020959121
1.087895 0.30017504 -0.0019723428
1.0984226 0.2996453 -0.0014780746
1.15604 0.30094993 -0.0015108963
1.1296262 0.30227903 -0.0027509923
1.1322676 0.30214602 -0.0026269802
1.1349089 0.30201325 -0.0025029746
1.1375504 0.30188027 -0.0023789611
1.1401917 0.30174726 -0.0022549503
1.142833 0.30161443 -0.0021309447
1.1454746 0.30148154 -0.0020069308
