# .PCD v0.7 - Point Cloud Data file format
VERSION 0.7
FIELDS x y z
SIZE 4 4 4
TYPE F F F
COUNT 1 1 1
WIDTH 117
HEIGHT 1
VIEWPOINT 0 0 0 1 0 0 0
POINTS 117
DATA ascii
0.73138022 0.5892365 0.025787076
0.67674375 0.59352213 0.025845496
0.67977643 0.5933696 0.025987903
0.68280923 0.59321696 0.026130246
0.6858421 0.59306431 0.026272653
0.68887496 0.59291172 0.026415056
0.69190776 0.59275907 0.026557468
0.69268924 0.60056603 0.026109572
0.69573528 0.60041285 0.026252571
0.69878149 0.6002596 0.026395569
0.70182765 0.6001063 0.026538631
0.68964309 0.60071945 0.025966508
0.70889503 0.60851288 0.02596646
0.71807897 0.60805064 0.026397651
0.72114027 0.60789663 0.02654139
0.65374506 0.6128388 0.026025433
0.65680635 0.61268485 0.026169164
0.68286139 0.6280542 0.026127109
0.69494057 0.5926066 0.026699865
0.69797355 0.59245384 0.02684227
0.70100635 0.59230131 0.026984615
0.6645667 0.5956713 0.027897401
0.72010428 0.5991866 0.027396694
0.72315049 0.59903324 0.027539752
0.72619665 0.59888011 0.027682748
0.72924268 0.59872669 0.027825752
0.70487374 0.59995306 0.026681628
0.7079199 0.59979975 0.026824633
0.71096599 0.59964651 0.026967691
0.71401215 0.59949309 0.027110694
0.71705824 0.59933996 0.027253693
0.66827434 0.60333782 0.027598413
0.67132044 0.60318446 0.027741415
0.67436659 0.60303122 0.027884414
0.65608978 0.60395098 0.027026353
0.65913606 0.60379767 0.02716936
0.66218209 0.60364431 0.027312353
0.66522819 0.60349107 0.02745536
0.72726297 0.60758841 0.026828853
0.73032427 0.60743451 0.026972586
0.73338568 0.60728043 0.027116314
0.73644704 0.60712636 0.02726005
0.72420162 0.60774261 0.026685117
0.69048089 0.61099023 0.027750211
0.6935423 0.61083615 0.027893947
0.73741376 0.61495203 0.026868546
0.69739729 0.61852294 0.02764952
0.700472 0.61836833 0.027793849
0.69124806 0.61883253 0.02736081
0.6827637 0.59475559 0.02875177
0.66759944 0.59551865 0.028039807
0.67366523 0.59521335 0.028324561
0.67669803 0.59506071 0.028466964
0.6956895 0.60195827 0.028885541
0.69873559 0.60180491 0.029028596
0.70178169 0.60165167 0.029171595
0.67741275 0.60287797 0.028027473
0.6804589 0.60272461 0.028170479
0.68350494 0.60257131 0.028313475
0.68655103 0.60241812 0.028456481
0.68959719 0.60226488 0.028599536
0.6926434 0.60211152 0.028742542
0.7027263 0.61037403 0.028325146
0.7057876 0.6102199 0.028468879
0.70884901 0.61006588 0.028612608
0.71191031 0.60991192 0.028756337
0.7149716 0.60975784 0.028900078
0.71803296 0.60960382 0.029043803
0.72109425 0.60944968 0.02918754
0.7241556 0.60929567 0.029331265
0.69660354 0.61068213 0.028037677
0.69966495 0.61052805 0.028181413
0.65369892 0.61439192 0.028671512
0.65676028 0.61423773 0.028815249
0.65982157 0.61408389 0.028958982
0.66288286 0.61392969 0.029102718
0.70662111 0.61805898 0.028082566
0.70969582 0.61790419 0.028226951
0.7127704 0.61774945 0.028371276
0.67275393 0.62132061 0.029152254
0.65430617 0.62224889 0.028286168
0.65738082 0.62209421 0.028430497
0.66045541 0.62193948 0.028574822
0.66352999 0.62178469 0.028719211
0.71092016 0.60119182 0.029600659
0.71396631 0.60103852 0.029743658
0.6712746 0.60472977 0.030374384
0.67432076 0.60457659 0.030517383
0.67736691 0.60442328 0.030660449
0.6590901 0.60534298 0.029802328
0.6621362 0.60518974 0.029945316
0.66518235 0.60503644 0.030088322
0.66822845 0.60488319 0.030231381
0.73027819 0.60898751 0.029618731
0.73333955 0.60883361 0.029762464
0.72721684 0.60914159 0.029474998
0.68737358 0.6126973 0.03025257
0.69349623 0.61238915 0.030540036
0.67890316 0.6210112 0.029440971
0.68505251 0.62070179 0.029729681
0.6881271 0.620547 0.029874066
0.68041307 0.60427004 0.030803444
0.68345904 0.6041168 0.030946443
0.6865052 0.60396349 0.031089509
0.71492547 0.6113109 0.031546153
0.71798682 0.61115676 0.03168989
0.70268017 0.61192709 0.030971227
0.66589814 0.61532873 0.031892598
0.66895938 0.61517483 0.032036327
0.67427486 0.60612196 0.033150349
0.67732102 0.60596865 0.033293411
0.68036717 0.60581535 0.03343641
0.68341321 0.60566205 0.033579417
0.66513652 0.60658187 0.032721348
0.66818273 0.60642856 0.032864347
0.67122877 0.60627526 0.03300735
0.67508209 0.61486673 0.032323785
